214.6864752285 94.6649348115 222.1239658313
219.3987110648 141.3900170449 218.5292370960
210.7951244983 125.2538235026 222.1014156005
200.1475782821 118.1145652246 248.9717851765
201.9895758054 117.5671168026 240.0026589474
221.1204885487 144.0601868758 217.7754979240
205.1218420113 126.2871770224 229.9529728518
205.0821419127 112.7761442743 212.2832370690
202.1065677577 124.9535866858 240.4047173093
203.4237275503 119.4375985479 239.8566445098
217.8177966797 128.4165060795 225.9590741952
212.8835341921 143.9041609121 221.6413229105
218.8939221165 148.2480024853 225.4935751732
205.1766495938 140.0420826950 216.9368090212
218.3841912687 130.4245465335 221.8096351480
205.7857657530 127.6498932474 232.0732218731
198.6888481465 122.0480549806 237.6630772882
219.8738470941 92.2894915277 230.5668272945
214.9951870741 144.9787470393 222.5206587621
221.6216063293 55.5315773430 264.0915846865
205.0821419127 112.7761442743 212.2832370690
227.1435575781 91.0998713448 233.6426649653
205.1628267956 143.8094157545 219.9961011726
232.4795125435 64.5716175844 247.9138595871
226.8816427714 71.7124204828 239.3925817173
219.4033793008 145.4327490750 217.0934644485
204.5159643039 148.7415199576 221.7480929344
203.6062225478 127.2884544660 236.9141835485
224.8996728563 51.6816067500 260.6013157410
227.5455586058 123.7556531004 223.7191068581
200.2543195389 121.8770337137 213.0031275526
211.2014753839 95.8714614210 222.5689213611
210.5939178023 98.8167463272 212.7008458445
229.1316291649 69.8883461087 244.1408885072
207.0819484402 140.5668962327 219.0791983521
202.6579412911 123.8309206392 247.5473571938
210.9771286891 100.7857911239 220.1473831459
222.9840812866 134.9067869387 224.6255839103
203.7598170286 128.3745731791 234.9244667605
214.9951870741 144.9787470393 222.5206587621
200.8009517433 114.3371220857 216.6762361662
225.3150859552 82.0469037101 238.3569345256
201.1223990854 121.3227214134 232.9174690837
220.8760219893 55.8453406243 253.4308436280
209.1395694326 149.4648875191 225.9121451978
218.8970146544 139.4908046670 219.9067089098
223.0685748890 130.3278982644 221.1970848219
224.3002607198 54.9855901678 242.8809535299
227.5259010296 82.5643362301 231.0451311043
205.1165370934 106.5959888502 215.5302125385
228.7243261306 59.7458815514 247.0326381319
207.4866511119 135.9405508320 221.0444917523
204.9192705304 130.6351796140 229.4789838930
212.9107801213 125.8735491752 220.7317849596
220.3770249462 149.5883951539 218.2632026191
211.4372791173 141.5786108277 219.8945688028
219.5366457952 63.7665429405 259.8622525648
208.0777057050 99.0304616477 209.6068795089
208.2638291212 123.1328833022 216.0794734655
223.5197074348 85.0843285857 232.0224525897
204.3508859884 124.0907833007 246.7021389854
211.1953722041 121.9212205250 217.3635593932
216.9453662986 124.5852264287 222.4612645518
215.4161489109 123.8365073014 223.6774993508
209.6922680441 125.1029484130 224.0166653717
218.0647980323 93.1314270164 219.9416776723
209.4190754718 123.7231766844 217.8259364020
219.1270213964 57.4850406058 255.5414546469
221.9012365384 124.5559454068 221.6270739032
198.0783708738 119.6419827951 214.4903974637
223.7363387467 78.2288654313 230.8693067613
208.7833983180 116.3234349812 240.1954402395
226.7992624984 134.1078467119 217.7268844133
205.2534677073 123.8578772352 231.0996997851
206.3595229240 118.0383430421 246.3566286231
205.5284448315 122.1291149130 246.6838304695
222.5514221354 54.3093578969 256.4863686998
226.7227678241 55.9237938114 250.1824510397
226.3994488695 88.1297465729 224.9215257985
224.6195361122 69.5521378514 235.8142676948
198.9561905121 119.9058525108 238.2115918865
200.4113808296 120.2982472914 230.7446124686
210.2843445751 99.6260319906 222.5320708260
204.1993989926 119.3202304405 246.3148716305
217.8037077308 131.2629650527 220.8033763364
210.1486561403 140.4319003463 219.7906775168
220.0010352926 130.1413779828 220.0659074776
199.9436264818 122.3328579066 215.2234413581
212.2624187640 100.3660369434 210.2618429776
199.1035630613 119.0604188564 243.1896174592
227.8721524775 86.9765931774 232.9704488580
213.0309734821 99.5783295249 215.4095452543
224.8467082439 62.0529842363 252.4124119321
216.0898575062 142.1789029034 221.4008439722
216.1470834585 124.1160643274 225.6727776680
205.5981035070 125.1981366903 230.8472270012
210.6569954430 93.4717442891 220.4295455702
203.7334193148 135.4455173384 224.0678705563
215.0765598565 127.6583291132 230.7015871138
218.8515480819 144.1688598728 219.1670901104
201.4282114487 142.6325069381 219.3705839125
209.0048513473 136.1777070652 218.1783323845
227.7827012578 62.2848217120 258.3302604187
200.9160000249 125.9621321075 237.9662508145
224.4032332884 126.3724036110 228.9213839415
215.7514863846 60.2300558508 264.3021388162
236.2004231374 76.5259407206 242.6002205133
221.2424967831 87.4353929203 221.4774070693
224.2472924624 88.7987967936 223.3610500159
201.6786153729 125.8894160280 223.6085824211
207.9481220372 139.0110941306 219.4659136582
217.5951093747 147.7490394779 223.9203038979
220.3886010571 61.6260979339 251.7146542053
213.5541687610 145.2203382473 218.1582893818
210.9609813704 102.6460384854 208.5199818816
222.3001984181 130.2275869550 224.1206857694
218.7406348404 129.9252243362 221.9922157419
228.6099919124 85.3885736401 227.0076900373
229.1374418056 66.5679242549 243.0855507897
220.5587851836 60.5869115281 262.1918617366
221.7742452974 86.5480815308 231.5410285870
234.8086155260 76.9973402968 239.4179714662
211.8138101818 127.0850574510 222.9567122702
201.8411564408 119.1188096793 240.3537321037
204.4928082163 137.4620115594 217.6934487955
219.3927025880 55.8531612161 254.1971070570
220.0061555665 133.0264917107 223.3047860290
212.3848504363 144.6552497358 223.6529543253
227.1977818218 88.6281814284 231.5394866332
217.9751861046 141.1043062932 221.2486288650
200.2410264974 121.4685338916 231.4283841711
229.8574264800 63.3479900617 246.2627246746
210.3922773056 96.2225816206 213.8175821416
200.8382369818 123.8607146926 234.3311092215
214.7697243499 99.5269164522 219.5520160526
207.0437593752 122.2793058872 221.0562513318
235.6542637523 78.0438654458 239.1641534380
205.9091017872 144.8058446579 223.1018396029
225.1176983675 67.2610024679 236.3652959477
224.1660317220 59.0945001061 256.6342099428
215.1422514149 126.5001068508 220.6853748099
213.8834924383 146.7431103220 217.5412472767
206.3925458990 117.6454008008 217.8038236223
219.2834302359 140.4793491222 227.0157981173
224.3619077540 57.0732102442 244.1425671592
202.6597296668 123.5880970943 229.8778860062
207.1261357407 141.6331635198 223.7066623763
204.8635432350 137.8114952229 216.3641381623
208.0452438621 136.7712067987 223.2040865787
226.7172564673 72.5591619281 241.5507147219
223.1798433313 80.4191030898 234.5619953802
197.4146405225 118.7033765836 237.4443480765
224.2406569258 68.3298974250 235.4196997315
201.2402755684 119.2251167195 245.3090116986
209.0803159460 98.5343672187 213.3036635889
231.7079602610 68.5745668687 242.0203083705
198.7409511256 119.6529223509 238.0555762907
215.5695243148 119.4947491383 222.4011099012
205.8929640680 113.3005251650 218.2958084392
213.4466290608 96.8275686674 222.4124187624
223.4537799841 140.6580399931 227.0564561864
214.2518138708 92.0378206249 214.4899238158
226.7480352950 56.9506065195 262.7452662053
204.6735759659 125.4237876398 228.8573697860
205.1218420113 126.2871770224 229.9529728518
207.1247217296 114.6171566478 217.5128076631
210.7148410088 105.9283513745 211.9056920891
224.2350062533 135.2960166912 222.7790190069
218.0647980323 93.1314270164 219.9416776723
203.0543572494 118.6295095101 243.1687948029
220.6032464483 57.1169146649 258.7218013900
208.0475554236 118.9653072310 219.6607957729
213.3647248058 122.0106267403 225.1230968416
219.0568090566 137.9747226579 222.9383475649
222.9341639660 59.0984998828 250.7214873624
218.5416348351 146.2172735455 217.2566876156
211.8483270708 149.8293524562 219.2545361195
213.1285939747 120.3902863403 222.4476171555
202.0710422949 137.9280574424 217.6707899847
222.8708800638 92.5584810514 232.4067092805
208.2958747392 133.8605267712 223.2265155506
216.2292804026 62.4205986870 259.3863084975
207.5017011900 143.5938092538 223.9026419756
223.8423544210 81.1419194110 235.2267344982
204.9079117900 126.0521013786 230.4142262435
219.3704295896 90.0255368695 225.0144213267
208.0411977267 110.6965429129 219.5933647699
226.8211546760 57.4503003526 253.8857547603
215.3442733709 62.2995210567 260.9232332034
196.6410678694 119.8564669840 240.6098408872
224.1042725063 54.8484483320 252.8375798590
217.6732162756 142.7962363375 216.3836861719
212.6322087004 58.4724550789 265.0342988027
207.7314254640 122.4034749796 223.2315491997
204.5494684616 142.7309736735 223.1152630951
223.8697427297 60.5422601830 253.8444737795
204.6412675959 118.3691235676 241.1882096446
217.6656961223 148.5927197907 219.5337536219
215.6856034644 142.3476613748 217.1756970208
205.4759152943 143.0169752431 222.7713746469
223.1955216539 146.3438226221 219.5307933390
224.0634397209 85.1790072439 234.2790727157
225.7368810494 83.7093143075 232.5298202022
226.4180871346 78.3846054875 232.2708889046
200.0751755396 127.7703665605 231.8656303594
205.4917381127 142.3106202378 218.5037121018
207.1131783679 107.7122242794 210.2430836238
201.1099164274 124.7709786704 236.9849749182
224.1649361854 92.6896746431 230.4070042353
209.0605039723 107.3797629680 209.3787589810
205.7689125206 149.6410444928 220.5934094512
215.4012561876 149.2355865384 219.8712869442
218.8897230461 144.8408896131 224.9104951081
209.8017107831 117.8863937576 247.3216645040
206.2437442892 117.8873853793 214.2440779091
224.0184314054 139.8163702197 224.7458696570
221.4322388188 87.4593460095 221.8394837828
221.1197743360 131.2775662991 219.1427208055
226.6599060972 69.8516048118 243.1455708111
206.2804576288 119.2920068498 216.0126355503
214.4812162113 94.2848932005 212.1163617159
224.6929802331 131.4113836416 223.4590927613
226.9340746970 65.0403889062 242.7431553111
212.4103592346 125.5891007766 224.7007448392
212.0906117750 125.5879585150 223.3900121875
215.3281794264 125.9138262322 231.6843117938
208.7664749548 119.9414577819 222.8109520108
202.0710422949 137.9280574424 217.6707899847
224.2572057988 59.4694108820 248.4621874476
211.8699758252 149.6688214826 222.3436361976
226.1667257295 68.5188174265 248.2840612578
224.5196441484 85.3087581132 228.9895774756
210.1695351505 125.4350570103 221.8989344753
216.3724729672 145.0837062230 222.1296691539
202.4862611668 121.5081171369 230.3788391971
225.7651364739 130.8379272031 214.8615952158
204.3743699015 122.4607285396 252.1495376628
226.8219601120 89.4920341296 227.5167389659
216.4063553863 99.8083190020 220.6082402956
209.5998992868 119.8862812568 220.2518093285
227.7731795065 64.9101607164 249.5127572939
225.3222533467 92.8480096172 228.3971757804
227.2342282183 81.6501696199 239.7040895947
199.6944987341 120.9368466430 237.2777115787
212.1858386875 56.8613600412 260.3386571943
220.0010352926 130.1413779828 220.0659074776
206.8029030496 122.2036600444 214.7506905250
220.5427707642 129.1435133268 220.3564042237
212.5080155559 108.2955988306 211.9334836725
224.4358029475 149.2014874892 218.5746943679
231.3628325350 70.0583634771 243.5074779047
206.9948774775 108.9911143307 217.3662186836
203.9866119787 130.5075849459 231.0986653180
210.2163554211 102.1023698524 207.7322974953
216.3433864051 139.7535231329 219.4419991478
226.1090867276 84.3719918211 234.2865374097
202.4675595762 120.1375150312 225.5316788285
198.7852746400 125.2585723379 239.2132656584
228.6707788066 124.6333690491 224.2791459988
216.6146611565 142.4106437036 216.6353173464
228.6089516319 67.7624698435 234.4052389986
202.7966843235 129.2433609641 228.9874432435
227.8353376415 56.3917743672 248.0162655172
226.1714608781 90.6652609457 230.6869578656
223.7939825414 60.2314242398 254.1718688555
225.9942811776 90.1402096512 230.8105449114
226.3859784653 90.3813492812 236.8010604299
209.3399420616 139.1285245770 221.8079905027
214.6292766942 58.6246343617 264.4673691029
227.8156732970 53.3885869785 262.3085689861
214.7921502329 92.2301425630 217.3638563831
221.1375463731 139.6933285671 229.0123131927
203.9055535124 118.0572799361 249.8930213985
213.6018245729 61.3852337624 260.4898729823
201.8577378110 144.4222385740 220.5391834266
218.2973372236 98.5762540508 222.8170027235
211.9225843598 58.7167792767 265.6567294105
205.4574684976 133.1899131870 227.7746703910
221.5312847443 152.1699129475 218.9074541920
228.5439906042 73.2820432028 242.5122553355
222.8899117391 57.7739973318 250.5407710491
224.1660317220 59.0945001061 256.6342099428
207.8771447010 137.9874809803 221.0799466155
195.6121353897 121.1327374591 238.2753020873
215.9790179635 87.8063787418 221.2273213121
199.2560688414 127.1922170637 228.4281533627
227.5897168740 73.7953865909 237.8967007439
207.5383108735 124.0454671239 240.7773459876
208.0475554236 118.9653072310 219.6607957729
206.3925458990 117.6454008008 217.8038236223
228.5480670211 52.8903482912 259.7161969468
214.7037493121 56.9150644190 257.7303421695
208.9335813903 139.2181054946 223.5754208058
209.9814730896 132.7127628900 217.4338707902
227.4510996645 124.1222708367 223.0640199288
230.1026150501 69.9983842566 247.6539312760
211.3763099186 113.5739691298 216.2121722348
225.9213917732 66.3200768015 248.4247765525
203.8287332081 114.2821594547 217.6734334490
203.4215588596 124.2460554993 238.5235600993
221.2111834552 54.7295714453 258.5909376842
221.3517265120 53.7563482284 264.8528459718
207.0756837868 147.1628114299 220.1913914659
212.8226848911 97.6471300525 223.3776145475
234.4688453999 77.4153351410 243.9271460092
206.2901057930 116.3707781897 245.4685803517
214.6263626902 121.1251584612 221.0345991592
208.4742091332 139.8271166137 223.9886429184
203.3780907587 123.8924003693 219.7672096193
214.4787260186 118.3557362766 222.4006726746
226.7992624984 134.1078467119 217.7268844133
213.4798238207 84.5247350683 222.7502850334
222.8300862359 63.9266950385 260.4251889771
204.5315455168 123.6173238722 238.6308832064
198.9998586528 123.2225211530 242.1545563052
213.6764185191 57.2760590270 266.0621437596
215.0296689428 92.5295211395 215.2236865511
205.3063937687 131.5023442492 221.2057863823
203.8178012513 123.8798740134 214.5252929064
208.4678638120 101.5389300673 208.3774816963
201.7285355584 118.1958981411 213.6609883028
231.8692225444 69.9467369315 241.3050031517
207.5262803880 134.3139725820 224.4184131104
208.9550639730 121.5346087734 216.3111565652
212.7182574275 123.9801255194 220.9303273752
226.3994661813 91.9417431478 230.7155590688
201.5453991339 119.5538993916 253.0526867460
226.0659443151 62.3365802947 247.9155829199
217.5098782462 84.3675384257 222.3982040740
218.8215451678 58.4470232072 262.6976415979
212.5080155559 108.2955988306 211.9334836725
204.0619321361 126.4724715050 219.0105698450
207.0723131131 109.3453286650 217.0507747758
195.6121353897 121.1327374591 238.2753020873
203.6161221848 121.3807985707 251.8213409455
218.1461658027 127.9906700273 222.3517027376
226.6051424146 64.2464900996 258.3485689345
219.8031640846 60.8986568903 256.1110153434
223.7781242278 64.2909001555 261.5735638378
215.2124422295 59.5221561204 267.3505264514
213.1248902140 60.4290259314 257.5169489439
214.8873058817 147.8583525409 223.5167351720
224.0244417892 54.6341052472 255.7024572993
231.9848545523 76.9283180775 240.0658035000
213.1248902140 60.4290259314 257.5169489439
224.4861592390 54.3220224053 264.1907821129
229.9865803700 68.4828752802 239.3547083109
208.3669288701 111.8602445422 241.8264203406
199.2505529137 126.6469694731 225.4537391189
200.1475782821 118.1145652246 248.9717851765
228.1673060600 60.5833951955 244.7557108844
224.7070153016 67.7268377956 240.3508665446
201.3749373595 129.6872946255 235.3883139368
222.6420120834 59.7555871819 258.0175780963
230.6404617571 66.0912160181 244.9255964686
224.9638737876 59.7722755586 261.7889695938
208.0893690384 124.3364913833 218.0224068455
208.4049527559 121.2105500321 250.1433771777
227.8682064398 72.0271073727 238.4491113837
207.0324860433 120.6248687386 225.3662597711
211.8043352333 134.1346774820 218.3411176733
216.5354054194 143.7959214971 216.2299689623
218.2587058108 92.4070920271 219.8020608806
226.3056081782 58.7065969276 262.5030583709
203.8178012513 123.8798740134 214.5252929064
222.2052688609 130.5368913987 219.7205694464
211.1621023551 101.0149496891 220.7941551554
204.8594793401 121.8805311774 220.2911983407
203.2414874934 110.7880064489 220.5921369850
219.1153965776 93.0705299496 227.7123404756
211.2619732964 141.7287712524 222.4205284029
226.1085866432 77.6762478314 239.2269979433
217.1065381866 93.8515427705 219.2978578687
226.4408727122 77.7335290533 240.5386324391
226.3957094485 125.0010036494 222.3969324348
208.9014828806 122.9836198600 218.0097751273
223.4885331205 132.1908488504 215.5611720902
225.0055659623 131.3424706330 222.0995349808
218.6617212258 59.6808905212 256.0711538805
227.1963831820 69.2574229938 246.5611766620
221.5304461983 55.6707968634 246.1983965534
207.8390005532 112.4389844578 242.5717912573
203.3637585865 123.9557395848 248.4164061002
215.6088378945 57.4868416675 259.7408923267
201.8366097254 118.8619911771 237.6478012081
213.3608936354 62.2829647793 266.3664746268
200.1457000828 121.9301310493 232.0889538191
231.5995163698 69.2054723991 244.1365112467
204.1826360460 116.8085822942 243.8050459192
228.3142049284 69.6340073421 233.8205739744
212.9783456104 125.7455625822 228.0891522731
210.0385413062 118.5520305104 242.8470325496
224.7747497103 61.0950287941 247.9431683885
222.7280780730 152.6548556501 216.8238080901
230.1725381093 58.5509416149 257.5618094719
219.0419962032 56.6787192084 261.6942508700
205.7776174952 112.0931285755 212.6034390806
215.3074193982 93.2132423230 213.6626754717
199.0927661735 118.7867237673 214.1091562278
208.1679518034 105.7096162418 216.1595146994
213.6800128524 64.3821365373 265.4662935003
199.6185407733 120.2195785624 243.4566213459
223.2078309984 93.3278978812 227.7563736319
200.4712722194 116.3620813991 218.3444156371
209.7399236635 109.7209909788 210.4391008963
225.6530722474 56.0965240088 263.4905731689
211.1621023551 101.0149496891 220.7941551554
221.6979552115 125.8466611788 221.2238524122
215.7707415945 87.6158803290 223.5305658450
204.3245692210 103.3192686448 210.7350107523
220.4745173262 54.6706718839 264.2136661882
208.9874063365 116.9960156778 240.4167329399
208.8011180123 132.6838250685 224.6629132357
222.9221526377 54.6588426106 255.1570678091
207.9948214211 99.2750421190 212.7258149481
212.7242899153 57.5304373523 256.2950965167
231.8692225444 69.9467369315 241.3050031517
202.2603169899 120.4301615288 214.1802864180
217.1787601493 147.4545814677 219.0860429196
223.4106876897 147.0894065688 215.8368679042
217.2143934171 148.8192331737 223.7072600427
222.8645528599 129.9817988901 217.4469529096
213.0117624520 94.1378829820 214.1949512281
217.2143934171 148.8192331737 223.7072600427
212.8912449622 144.5436221400 221.4504698298
208.0954798787 136.8850113752 223.8143055091
227.6928649092 89.2433702463 227.8215831828
223.4726744864 55.2584378121 248.0830753508
200.5072233609 118.7386832865 239.1922154424
201.9891152939 123.4276404975 246.7512622255
218.6875663429 143.1268702261 217.7904350025
231.7059398904 65.7247079848 251.0793523977
221.8223475059 152.0115487824 214.9148918778
214.7915035366 84.4421092144 221.5343092142
207.7069706862 98.6809779842 210.9361901419
204.1993989926 119.3202304405 246.3148716305
197.7230835101 124.8062098137 239.2576932770
221.4719653217 87.4185414317 235.0620349269
219.1593876390 91.7586070974 220.3187100958
218.5558639762 60.0789025968 264.0419891877
224.8052784560 56.4211941634 263.2906009865
197.3780833846 119.6657221290 215.4826988626
226.2619740799 66.6846294038 237.0905534028
222.7971604653 123.9102802658 221.7243910310
204.8635432350 137.8114952229 216.3641381623
216.8674382362 60.3866801581 263.0430944513
208.2638291212 123.1328833022 216.0794734655
203.9494781711 114.9900676579 218.2063355774
208.8948769919 118.3425934110 226.0735408053
206.6087970818 111.5093295874 217.3752388867
206.2211848498 126.3585423784 231.5602894704
218.3380252991 91.6994816091 228.7064560647
202.0913496987 118.1255345294 220.0753912869
207.7023286876 110.2787547138 218.7031829268
226.8923684749 90.2697227356 234.5985856768
224.4707258292 81.6091186612 233.7865711369
214.4812162113 94.2848932005 212.1163617159
206.3729138459 116.9781369575 216.9601198162
225.5324424859 84.6305680143 227.7310414985
227.7612526418 63.8897364049 243.2994438242
206.4636928310 110.2187063980 210.3434977974
214.4112296490 118.1374319137 223.2827771796
212.5431968087 92.3872053932 218.5605173471
207.1092403696 105.8413893687 208.7946849905
221.6757372797 89.4225300381 234.8519069018
221.8229847486 87.0019646848 230.8590455147
212.9933480141 92.8287558187 220.0272346189
224.0602224532 58.1736278062 249.0178562242
210.1317842935 148.5970115079 220.8364529279
222.2823434622 151.2383295703 220.6114943262
227.5257123778 61.8542514129 257.6978839533
214.9521743488 127.1705153087 220.8749531917
217.2131333074 146.6302733688 216.2934269838
211.5598842618 142.0070854184 220.6414490412
214.2031335705 86.1409954381 225.2073020770
221.2805428785 59.5188391059 263.7868118653
219.8688855819 88.2606412929 229.8773388266
203.8178012513 123.8798740134 214.5252929064
220.6176427573 149.0941153872 221.1220385476
213.6800128524 64.3821365373 265.4662935003
209.3701966539 109.2955399226 217.2286387068
199.0356978291 117.7813848523 238.6402413150
211.6186416320 122.7502326357 220.1350185772
206.5581567214 133.0942888041 216.7616049384
220.3544925150 123.9335174285 222.6376331708
228.0032166297 71.3284826382 244.3608746375
200.0244219026 125.5116535708 236.4071262774
223.7363387467 78.2288654313 230.8693067613
229.0846725205 88.7719706703 231.0038322298
203.4002251249 132.6107269744 224.4369096009
204.1466397662 138.9089912346 222.9370722249
222.3931251156 126.8454455801 220.9852918105
197.7447367084 128.4822388431 224.0446104419
210.5951247876 106.8034646069 210.9814245071
205.7144559410 121.8939779054 238.9336119179
204.1468850449 114.5339942395 213.6876971878
227.7783825916 69.1379623746 250.2362953448
205.9063822262 118.8358141874 222.0249071111
217.8100128583 96.2295576244 215.1018257728
219.8435158326 58.8816313358 257.5920318338
227.6476062492 56.6602656732 244.7039434446
201.0752650959 123.2225581827 217.3574924633
215.1891034767 143.7875936022 221.5393828657
228.8705254170 61.2414229337 248.8356910327
206.9092981390 117.4589983689 219.5783017450
224.2820997925 67.3874562882 242.4549048459
218.7513306364 92.9469899110 223.6715373890
206.1083001777 105.7601384634 215.3339633620
222.9961852858 140.9133531079 220.1621909106
224.2159872594 128.2673601721 221.8925386937
225.9994179912 53.5283587187 258.3718840991
206.9799682017 111.1207054157 218.7109138827
219.2385628612 125.8898823900 225.7252016098
224.6450550269 133.8179746762 217.1197381068
227.3940666858 66.7323089319 236.0801930823
219.8435158326 58.8816313358 257.5920318338
206.5852499959 105.1902873865 212.7296961319
227.1748235871 123.4061694370 225.0484174912
222.1385311896 129.9662150455 225.2761747861
226.6323038065 52.0924743578 261.7182826981
218.7513306364 92.9469899110 223.6715373890
229.4510703250 63.4375699291 248.0301452353
208.3669288701 111.8602445422 241.8264203406
224.0525829731 150.4882046088 220.1555787157
203.6248165221 120.5878488656 222.6253979743
210.5456542007 100.0114039893 208.3855166525
208.7132868495 145.7413684451 218.9173917883
206.6542846716 126.3894930686 216.6832266251
206.6942037333 110.7257017945 216.8283720430
223.1570023358 80.3938450823 230.0422724040
211.4678882983 117.0541330895 241.9248913847
205.8655445167 149.6317743962 223.6332528970
207.7314254640 122.4034749796 223.2315491997
208.7681328123 146.6430201779 219.8088638131
210.6288190885 106.8750128929 209.7817441641
205.9021831557 115.4287013151 221.4418270458
207.7448407103 140.3018099027 219.0626921672
203.2556942654 123.8770755882 226.6406466137
218.0641246074 126.2157612228 226.6290464022
209.5911346575 124.7381200958 225.1969406478
211.4532376229 123.4747376412 220.2151489780
222.4172291024 133.2179026850 224.9760676943
224.4861592390 54.3220224053 264.1907821129
200.8462097447 126.8535784574 222.4996391717
196.6410678694 119.8564669840 240.6098408872
207.3228787807 123.4354970938 215.9604214821
213.6018108004 129.8919948063 223.8612564044
206.5581567214 133.0942888041 216.7616049384
217.4012078910 98.3003524077 222.2566443829
211.8043352333 134.1346774820 218.3411176733
205.6761777067 138.7581241802 218.2837350835
201.9253785418 131.7966343101 225.1936821171
229.7548722198 84.8549762356 236.0812148747
211.7971904270 61.6808268673 264.3774718155
218.3341029098 61.8637202081 262.2432050175
209.3738923147 120.2141879412 247.8938108296
219.6324071894 98.4703751944 221.6232372834
211.4409329307 105.5221413695 209.7691124459
196.9945127295 118.3877632302 216.0417609891
203.5612667720 103.6485072783 211.3749527365
213.2153742358 59.3699768377 267.9174561512
212.5326379817 144.8351954042 220.5269270660
226.2844477043 136.9772816077 221.7251175961
223.8733121828 123.1164677019 225.1569393921
216.3724729672 145.0837062230 222.1296691539
225.0787979455 55.9741942106 252.3378820756
215.3275635699 149.7450438898 222.2888919467
223.5689372894 91.2988321792 236.0672128042
223.7939825414 60.2314242398 254.1718688555
222.2871654686 54.8824504138 254.1820341828
221.8285837517 80.8000919931 231.7487981125
209.7490488164 122.1148370818 245.6361261493
224.6195361122 69.5521378514 235.8142676948
220.6463803953 89.4318064097 231.4719505066
212.6349278812 98.8704959216 214.2058968009
221.7245354619 137.9541603265 224.2849395511
216.6688996043 93.7285621481 221.9196080685
204.8608853781 117.6408965448 249.3022513491
200.2543195389 121.8770337137 213.0031275526
203.4137801583 127.4962630891 230.8946657897
216.6374900606 129.6073353900 225.7943985299
224.3117639536 148.1947155827 217.6429828907
226.8568894428 71.1473878876 242.5899020345
224.6929802331 131.4113836416 223.4590927613
207.8318430700 124.4278203129 216.6649243486
222.7333253591 60.8524399667 263.2166123826
206.4829208666 132.0850671559 226.6253879216
208.7840055061 111.2899161021 214.1385472989
215.3073405178 61.1259380637 258.1706798082
217.9671126572 141.6362891735 225.4086311568
208.8508311104 149.4774675199 221.3794041588
221.1369784878 61.8153690549 259.6670757865
206.4506605996 150.7964978865 223.1747455120
209.0168935196 116.1695065119 223.3298740098
221.0457068032 146.8645894670 222.3918630651
213.9456147609 121.4550662937 224.9453016613
222.0628564109 130.1990315238 220.5393448504
202.7718865414 123.3870072696 229.5731283061
204.2329713847 145.4179877753 219.4140844860
203.6258054736 117.9600093103 250.6400291642
203.8286519996 132.7325788657 227.8085459273
220.8792574830 143.9627651522 225.6431300805
206.6542846716 126.3894930686 216.6832266251
208.7633572342 121.8489247874 217.4263995278
207.8954671043 135.9154302339 220.9913803884
221.7230498065 57.3597989876 251.3562883020
202.9508165085 130.5108287296 229.2664473142
221.6266246845 89.3054068838 232.6020731007
211.2279357662 106.7174307916 215.2654055196
206.2825229806 114.2791217941 244.3827575236
226.4874281630 59.8745910436 244.1979122459
228.9949792661 60.5126100025 257.5801179878
218.4008256218 129.8736069504 223.4847784021
208.6382884261 144.1059467951 219.0651410107
228.6596817300 59.9407303816 256.7485860741
210.4445936848 101.7061667854 207.5440895319
206.6542846716 126.3894930686 216.6832266251
202.1478767436 119.6973546320 227.8664016778
203.3244079511 124.3494967363 229.7044692527
206.4499230872 141.2885256669 223.9242155581
221.4912235675 144.4096705393 216.4461872910
226.7631004837 57.5316827131 262.6807180955
222.5304345544 136.8028269330 223.8291990867
222.2797240793 58.3205507982 264.6454444247
221.3782350330 125.2552166412 224.8745295428
212.3685163444 101.4333185813 209.2927635356
222.0488072463 141.1316460901 216.1399786447
226.8833266432 68.1560039585 250.0352886076
209.2341093636 139.8978449618 220.6396643923
228.3874874747 85.9693618931 233.0195487057
219.8623082111 151.1063924937 216.0156715832
205.5284448315 122.1291149130 246.6838304695
208.5042232108 150.3726637723 223.5783681162
205.5981035070 125.1981366903 230.8472270012
224.9237819649 68.4521559049 237.3465718439
223.2352878786 130.3312825536 216.1176422766
201.1258021002 119.7096637431 242.5451982404
223.1621244024 142.4285169962 218.7698295308
202.9226850270 119.6588585753 252.6616971377
204.5403605679 119.7813637875 221.1913732279
222.2797240793 58.3205507982 264.6454444247
227.2517859070 81.2655959092 229.4893753784
220.5716216049 92.6793397629 226.9608882258
210.8782521410 145.4218573525 219.2412136319
219.5282951388 126.1208768812 219.6382771422
205.4075424261 149.1919984943 223.3072174716
204.5896103072 125.0858414010 230.7482298751
213.7185439307 101.0062532800 216.1087096598
211.3592195150 132.1609091062 219.6788422781
217.2131333074 146.6302733688 216.2934269838
218.0449890801 93.5078640541 222.6076375217
203.0611452413 139.6496661350 222.3592235840
206.8398473418 121.9529964429 221.6724246626
211.6515944785 96.7220689796 212.6269680979
207.1151916078 111.3977019915 215.1727543914
221.9697361058 91.4014539204 231.3987969724
201.2374790635 115.5531632014 217.6548563149
220.1842279223 98.7200432926 222.2813483200
221.9937429146 148.2337156212 215.0330792222
219.2559159820 94.4525918634 227.5674248785
218.0641246074 126.2157612228 226.6290464022
209.3200826556 119.0589185307 244.8515822883
197.2765386463 117.7221936285 239.4030186569
221.4176415099 131.5586415818 224.8653030185
213.8505543230 84.8742197821 221.4209841428
218.1948728396 138.7330820913 226.0123388536
203.8072282487 114.7578334907 217.9515699977
200.5072233609 118.7386832865 239.1922154424
228.6119305735 77.8321475052 237.6868083804
204.6089377310 122.2822925846 213.3126184414
208.8149125165 108.4253120899 218.6858828757
222.0638263359 128.9364114431 220.3320726534
226.5181565853 83.5323312389 238.8820417155
228.5802838080 80.8526058723 230.4526332737
216.0897747573 123.7697607773 224.2034634724
213.3019373568 126.0395793133 226.2598693764
215.3281794264 125.9138262322 231.6843117938
203.3776954543 113.7161627802 219.0439087694
224.2820997925 67.3874562882 242.4549048459
210.8616326452 120.2613944578 245.6188260982
230.1727002274 70.5579426379 236.9233188210
229.7820817042 58.8534759755 247.8921948440
231.3530027748 69.3671187459 237.0879979895
221.9739130138 61.9917072284 255.3883295147
226.4270853458 52.5624960207 259.3998274031
204.7523387469 114.2442618675 220.7090526441
210.5939178023 98.8167463272 212.7008458445
200.4374548461 119.0082469368 213.2730395348
207.0904547671 136.8863048163 217.7351270264
207.0485392654 122.0481470719 243.8745916887
219.0431878361 142.3549652378 225.8417529885
209.5998992868 119.8862812568 220.2518093285
226.0895338727 60.5312981236 253.2124671706
215.9176438731 150.1754582384 220.8471792940
203.5612667720 103.6485072783 211.3749527365
207.7474414356 122.1930116021 215.1035811156
218.0716454146 95.6470029112 217.2108074308
210.3922773056 96.2225816206 213.8175821416
224.4067018588 93.1484909700 234.2670805104
221.2979229704 62.0631491598 255.7949437911
218.6617212258 59.6808905212 256.0711538805
205.8211726810 113.2760618222 243.7231849001
206.5483053785 111.9562852320 220.7882468851
206.9803667461 123.3350583568 221.5275090655
206.3171144769 117.2497009398 248.5507955962
205.7144559410 121.8939779054 238.9336119179
200.7090491349 121.3374055972 224.5955741130
206.2804576288 119.2920068498 216.0126355503
226.0513804114 132.6386694994 222.2227247422
200.6903537599 118.2881722383 249.3450037240
209.9478617340 99.2939958654 211.4356443603
200.5034033153 129.5465918309 228.0091067754
213.6764979323 61.6656564474 260.6612812831
210.3986462618 95.8225444444 213.7816515812
219.4605768114 151.3484059792 214.9640151179
221.4306132380 88.5127212197 233.1120527347
198.5322093859 123.3220210042 237.4301352183
212.1015334941 102.6376975208 215.8830965385
212.8816642517 97.3256869375 217.7785366182
229.1940413102 64.1186140410 246.5351326990
207.7870670069 122.1737594691 249.3954406908
207.7741859361 104.7498783810 215.4918956742
203.4814830577 120.6889855550 231.7001111549
225.1919075413 59.3626341276 249.0115682778
212.5326379817 144.8351954042 220.5269270660
209.4957058784 116.0773631575 244.1490092628
216.6244632012 129.3911910336 226.8627712710
202.6488166759 118.7949480684 249.5128173088
221.7511502398 80.3018921328 232.7321027968
202.9329555482 122.1043488036 217.8665618961
223.4108404211 51.7725275292 261.8882462681
207.4206166345 124.9265507854 217.6226504583
206.7155608462 145.2741823651 220.8036152852
215.9176438731 150.1754582384 220.8471792940
228.2462087201 59.1497889728 256.1650918585
203.1283319640 110.2593495960 212.2944034151
201.9774855133 120.6533902203 232.7538690747
203.0574201208 121.1164514412 243.5944054257
224.4738857138 123.6826224095 223.0034767478
204.9365723417 121.5603782297 227.8405589147
222.6468420903 52.0964079228 258.4494205625
225.9659946634 93.0615451508 233.6609769843
225.9994179912 53.5283587187 258.3718840991
205.0526022077 106.0408939416 212.7496815964
224.4469479609 85.3712429147 227.1531928576
226.4056293873 57.8920235609 255.6641550692
227.0283936339 85.8577730449 226.9617735091
229.4081261844 69.5525450365 234.3437809516
210.1317842935 148.5970115079 220.8364529279
212.8888330377 112.2546891056 216.7630297790
226.5435307008 54.0686234171 245.0309900940
214.3970499731 84.9498420010 224.2260261807
228.0078518642 60.3775662866 259.2943851026
215.4517183072 147.9914831146 217.8338080011
225.8641659322 91.7748190555 228.6070377026
211.8219229589 121.4595168637 220.5382400682
206.3132899318 138.0917594274 225.3973758778
202.4780833540 125.6530793564 231.8378492515
204.3913915859 117.4052885728 222.1866132667
225.2320252163 133.9372572203 217.4062242025
211.1429466184 129.3932374400 227.1660362199
233.7632824498 81.3973975469 239.7948184043
205.0021420272 126.9673273525 219.5583609266
214.4377003059 93.5585393615 222.5530151680
208.4742091332 139.8271166137 223.9886429184
226.8937939395 86.4699619001 236.9832592812
219.2349518263 125.1719735750 225.1892640249
218.7406348404 129.9252243362 221.9922157419
206.6696126444 104.4094497008 212.9752947177
226.5556812329 85.4430607759 229.8607147432
230.7640869805 77.1630972844 239.2472841630
211.1849212639 103.1891411890 208.2442646344
204.1128928050 114.3001107832 219.9077620834
208.0901815307 112.2030173466 212.2455964200
202.5773139844 122.2154468014 245.8221646622
197.4548292319 123.2986421059 230.7492249736
221.2424967831 87.4353929203 221.4774070693
212.6092703230 100.2507965556 213.4872401556
218.3756734757 89.4995333607 225.2759566387
213.4355203279 143.9549366875 221.3114127888
202.3358509044 126.0664473216 218.0048200997
222.1385311896 129.9662150455 225.2761747861
223.8040386332 88.0053006987 229.6704444949
206.3024678060 113.9521661238 240.8280528347
219.2416005071 140.8776458744 218.0475690715
225.6399773509 58.5007568552 245.1645667701
218.0647980323 93.1314270164 219.9416776723
227.8656885028 88.1847639496 233.6702793031
222.6749388583 143.8987298461 218.2638435317
210.0756757905 56.9852105725 258.9332808808
201.8654334867 128.6557858750 230.0056421380
215.4517183072 147.9914831146 217.8338080011
205.4075424261 149.1919984943 223.3072174716
209.9881383772 113.6359131737 242.6351135271
223.3542750982 143.6407306535 226.9880979129
203.3638326157 138.5812593714 219.9315104861
234.1020349028 76.9096901672 239.0119119727
214.8834545025 95.9607233057 221.5683005578
209.6531474649 124.4951853104 220.9230421255
217.2104124046 145.5862079881 223.1539564828
204.2631673160 119.7666801071 237.7185151523
229.0610125030 69.4363464024 247.0556008869
222.0893853351 88.1387584330 230.0114536276
224.1504511984 67.2518619409 238.1801692762
209.8305875979 118.2801967663 243.2043803215
208.3548037081 112.1568212450 211.1218621395
223.1934562114 146.7773488339 219.2977843000
206.9425865508 144.4229969352 225.2192823048
221.4719653217 87.4185414317 235.0620349269
226.8874266135 66.6211413666 236.9203640298
203.7537894658 105.5419309342 211.1764103211
216.8669975674 56.5941747532 260.1751796431
211.3327976232 57.9011924036 261.4739803012
207.5811051026 118.9570862656 251.7853948481
220.4427546749 60.2226918386 263.5063347843
220.6016684258 57.1116288260 251.9957451282
198.4165832061 118.7027910784 237.9455326360
221.3926057735 56.4650371301 246.3168210864
209.5911346575 124.7381200958 225.1969406478
212.7618481738 127.4492625680 224.1050871310
205.5838977230 122.3887878740 220.1701723383
206.3050048579 136.7485768436 224.3225855198
221.9181396705 58.6451612274 255.1054792431
216.2292804026 62.4205986870 259.3863084975
212.5690267689 53.7728180399 258.9795432243
210.8449890980 131.8509220078 222.9464202740
218.6039827271 63.6389493226 261.4819437323
227.7731795065 64.9101607164 249.5127572939
222.7545833009 93.4278171214 229.7277339569
199.4177207659 117.1307403796 241.5999478649
204.9079117900 126.0521013786 230.4142262435
205.7261734458 122.7880255859 234.8937863405
223.1167739528 146.2673579270 222.2093881890
199.2452477417 119.7610539392 246.3385081249
220.0467930880 57.5909209822 257.9952568278
218.7173980709 144.9513118563 223.5070751842
208.2000930129 131.3128610963 223.3027978722
223.5903563462 142.3341132812 216.9072349334
208.5847952902 132.6656758666 217.0812247875
205.9091017872 144.8058446579 223.1018396029
226.8225877429 90.4159511285 228.5363700653
202.0067745762 121.6800660464 223.5092287440
222.3087947332 64.1945408371 254.4437005733
214.4405917654 58.6557792493 256.9104157943
221.3517265120 53.7563482284 264.8528459718
219.1019936416 142.9617435786 220.9833739943
199.6093427915 127.1250240932 229.2205799478
207.5225589960 151.0963317600 225.6865320765
207.7799321946 95.6156658963 216.2997633162
219.3951678122 130.5918650307 225.1028662776
211.5890481768 61.2148414519 263.0704007226
201.1801667829 118.7138559325 248.2997671016
229.3737178901 58.0767199007 248.7836389395
224.8562204715 129.7784482564 218.0421845849
201.6857455008 125.8257235517 219.0485183092
225.1775581998 122.9838077068 225.6583927247
223.1367454743 124.0553260752 225.8106342583
206.0097232140 127.6382177351 232.1011275956
221.9181396705 58.6451612274 255.1054792431
211.7996850224 62.1669545583 262.1256817642
227.0283936339 85.8577730449 226.9617735091
225.7692184754 72.1949568112 240.4023398611
212.9619019848 129.9201265282 228.6982635753
228.5439906042 73.2820432028 242.5122553355
204.5159643039 148.7415199576 221.7480929344
221.4074261904 141.4685576817 228.2510519074
221.4565502164 62.4361286273 260.3197493543
220.7882005102 92.2159512051 220.2848318232
228.3581930774 124.7022820577 225.6387037793
201.0112814168 117.5949871331 251.4871321554
209.9205869675 120.9387755372 227.3554571652
197.4146405225 118.7033765836 237.4443480765
223.7781242278 64.2909001555 261.5735638378
199.6185407733 120.2195785624 243.4566213459
220.2162824952 135.9454029264 222.3502914734
208.7607967976 144.8273209888 219.2852566394
211.9028234142 123.2088609081 218.7005236364
211.8991214169 133.4840115704 221.3690518569
204.8390037375 150.1773529383 221.2225114252
212.5557782810 151.1169928393 220.5915003628
207.5225589960 151.0963317600 225.6865320765
236.2004231374 76.5259407206 242.6002205133
204.6752392398 124.8851700764 236.2479607577
206.6556534145 102.1296005856 208.8905780782
207.0723131131 109.3453286650 217.0507747758
207.2743090714 99.3681176236 218.4110219770
230.8602424185 81.7471111989 236.9730451879
223.3917077054 93.6515061863 228.5833695777
220.9502993311 87.0050195720 223.5675810477
217.2104124046 145.5862079881 223.1539564828
223.6793816935 140.0167766126 219.9307796675
218.5344574761 124.4993196693 221.3179689788
206.6668294893 144.2930935413 223.3316511714
215.3529713846 59.8663927283 266.4434802611
221.2805428785 59.5188391059 263.7868118653
225.3222533467 92.8480096172 228.3971757804
204.9186988562 137.6818692643 220.3530058813
218.1103715139 89.4605416454 228.9412313749
207.2884227700 121.9512457531 224.8448510087
231.7996363975 67.0135518191 250.1621334584
216.6374900606 129.6073353900 225.7943985299
222.7400742915 137.5034252280 218.5061852849
221.4745747760 134.2397223330 224.3036178756
232.1277759105 78.2810823636 244.5360829471
213.4029158334 143.6930032145 221.9988238945
207.5551304459 103.8877422076 214.1663635730
212.9619019848 129.9201265282 228.6982635753
203.6571247518 121.6224025027 229.8532719385
200.4254703177 119.8248759692 236.8966071502
218.6091891726 96.1537480265 215.2833150984
226.6863432977 66.8602208827 250.5909573842
224.9447626640 131.7996576136 214.8097100980
215.5492845993 124.2880951535 225.9620133761
221.3782350330 125.2552166412 224.8745295428
224.9199233174 61.3107625772 245.0815346307
220.5326756921 136.0940036802 222.8279354527
220.8720695438 127.0525474638 221.0096233808
216.6688996043 93.7285621481 221.9196080685
225.0838270897 90.3214080159 224.9419837594
206.3234541184 121.9890089876 220.5896536807
205.4695077125 123.1556314389 242.1492350606
200.2394444604 120.1246969342 238.8527919978
208.1102757495 115.0961093966 239.7651032166
201.5722383515 143.5548684306 217.1530315071
209.1787389269 113.9492843774 213.2490556836
220.9502993311 87.0050195720 223.5675810477
219.3554468480 56.0587320594 261.6746449364
204.2925139771 125.7263502654 216.7323498651
206.3234541184 121.9890089876 220.5896536807
213.3608936354 62.2829647793 266.3664746268
203.7590139433 123.5220509855 227.8588611912
209.0420867745 118.7888062484 242.5727547921
198.5233483071 130.3505855544 224.5229407593
213.4958537595 124.8484258763 225.2785934801
222.1453080533 92.1739059777 225.3164940198
220.2718119350 91.2760707690 219.3089519521
223.0759325205 87.9014848519 229.7043682708
223.5036980856 54.2822848883 254.9910549820
221.6064510864 56.4320892927 255.7636009587
224.8166492950 55.9254706040 243.8568334010
210.7996214033 99.2249933467 209.5337990902
213.8834924383 146.7431103220 217.5412472767
222.6991882317 80.6660972497 233.8804776576
209.6313976466 147.2949078932 226.3964751838
218.4708059378 138.7079740267 223.0043933921
223.3542750982 143.6407306535 226.9880979129
204.9961350793 113.3643366373 217.4814262181
206.8756073124 116.7614575484 214.2641837319
219.6831291176 141.7395367884 226.8749568219
203.3901624406 118.6244975368 221.6486625622
214.7921502329 92.2301425630 217.3638563831
201.2374790635 115.5531632014 217.6548563149
203.2800059889 113.5578552838 213.9190485871
216.4063553863 99.8083190020 220.6082402956
198.6904431112 117.4343837433 240.8664998431
225.7244303221 66.1778842885 239.0180457352
216.9453662986 124.5852264287 222.4612645518
205.5265351988 142.1041061502 217.0776860291
230.0940865428 65.5865379482 247.1785315363
229.2894860984 70.6153478039 243.9560125996
219.6324071894 98.4703751944 221.6232372834
230.1026150501 69.9983842566 247.6539312760
203.0543572494 118.6295095101 243.1687948029
221.6582670233 90.7516611835 232.8772774246
223.5591544780 125.0461461787 226.7466089864
227.3308891075 55.5881889001 244.8062329819
228.9594275534 59.9073732274 247.0917982355
206.3925458990 117.6454008008 217.8038236223
220.0390071189 59.7858497049 255.6801642722
227.8128971357 132.4272303114 218.8984057297
206.7068997925 107.8071824815 216.3132898937
220.0223660926 137.1365563635 223.3315673697
208.7634437813 95.0532034679 215.3186639011
222.4811672412 58.2112987426 247.3202768469
212.2271899620 105.1475461410 212.1248398729
231.3628325350 70.0583634771 243.5074779047
224.5255863391 91.7281308800 225.4921890352
206.1049984815 127.1182024420 217.6431111554
219.8144925943 62.5000206881 260.1849299279
221.2697906886 59.8412123609 255.4721706972
198.7579842381 121.2167185310 217.6673604118
211.1721305206 97.7294523249 213.4778529137
205.8847483021 133.8747760453 225.3986522869
222.1687285760 56.8893521502 243.8837217464
227.2517859070 81.2655959092 229.4893753784
223.6541343929 135.7386782521 223.8519412254
220.2039539739 94.8167969803 228.7157997392
212.4514623840 142.4575639551 222.2005735784
209.6316226212 107.9862059617 210.8677960023
221.6582670233 90.7516611835 232.8772774246
234.2368430719 66.3026897378 246.6171910012
208.0452438621 136.7712067987 223.2040865787
224.8634004951 124.9134861836 227.2480623190
206.9088798666 112.9564383503 220.6186268514
205.0737510306 113.3776189489 213.0000912142
228.0241237599 65.2710446126 240.4557123824
232.2426838933 67.0108593782 243.4653829331
212.5326379817 144.8351954042 220.5269270660
220.7882005102 92.2159512051 220.2848318232
207.5271312879 133.7012646480 216.9089313154
230.3538524090 81.8587377444 239.1755199409
230.5536007645 72.1383983745 241.3254611126
229.3368662206 57.1847674391 255.8331598841
200.9152943327 124.9742460960 234.4354454058
210.4603065628 99.5992069919 222.3451117682
218.8970146544 139.4908046670 219.9067089098
205.4867916941 123.8800844535 214.9716140711
208.9337258775 96.7920134950 221.2817812026
203.7104941970 126.5945464089 219.6699639745
221.2768261214 63.8344526329 252.0327565925
225.5111142345 70.0026163881 237.3733922319
224.7600595881 70.9341943469 235.6693485946
208.4049527559 121.2105500321 250.1433771777
224.0091977639 90.7882504437 224.5163091641
225.9634894157 83.4493859801 233.2645047739
205.6378952477 147.3928333821 223.8680184648
210.8449890980 131.8509220078 222.9464202740
203.7559712438 119.7855314325 226.4933768704
230.7171934646 54.6697835471 258.6007572037
224.1192689256 84.1238945579 235.3443409072
204.1128928050 114.3001107832 219.9077620834
214.4833517951 140.0962061737 220.0256492024
219.6455629590 125.8785543082 225.9979857148
228.6122733846 75.0318810652 243.5962278115
205.1350788293 136.4713671214 218.9703883652
213.2239768087 94.0157213562 220.6442550343
225.7683279750 69.4011262751 241.5864462739
204.5490654230 123.0106032742 245.8307636931
212.7142431158 116.4971462923 223.4358833254
208.6382884261 144.1059467951 219.0651410107
211.2363226408 136.8042647408 218.1319222347
202.6278860168 141.5631452711 216.0646732893
203.4676720222 141.3935784221 215.3886347641
213.9750355266 93.0841379790 222.3482951686
205.8655445167 149.6317743962 223.6332528970
202.6449149163 141.1233538349 222.1311237901
213.7917413301 149.1550296031 220.4285269562
213.7391982631 142.6054943380 222.4230888348
225.0349781971 67.3660458405 237.2975607535
210.3938511476 105.7533310647 212.0829731047
228.0592085037 59.9200494317 250.4331332001
210.3019280237 131.9301528135 218.5468265514
225.3150859552 82.0469037101 238.3569345256
206.3132899318 138.0917594274 225.3973758778
221.4719653217 87.4185414317 235.0620349269
223.7781242278 64.2909001555 261.5735638378
204.5119849661 123.9384776448 231.6203233663
201.5453991339 119.5538993916 253.0526867460
217.2143934171 148.8192331737 223.7072600427
223.1127511790 129.7632830355 219.6632942099
225.5392241627 80.9726279605 237.7091169822
212.8115537551 145.3495814705 219.0971900484
199.9436264818 122.3328579066 215.2234413581
206.2389595860 141.4128466912 219.0568181612
210.2681944128 58.8786396468 258.7347419683
204.7381336781 121.8847197716 225.2552488604
218.0503670578 57.8902873740 260.7654659312
206.1810384588 116.3172293203 245.5879935284
196.7457358499 120.5873155606 216.9985793146
229.0610125030 69.4363464024 247.0556008869
201.6941424663 129.2176034373 236.6474095215
213.2401301658 149.3579539304 222.4367949091
232.6608794698 75.1817675513 241.9914547272
211.5872586922 129.3920274409 227.0331197005
206.7690418594 143.3876930568 223.0240406710
206.3692127865 116.8730851442 216.4666682274
228.3309665537 73.5677807808 238.4525586084
214.7349793359 147.6620074750 223.3341231539
227.9607175690 58.8908564631 245.2765983217
216.4757772215 139.2439025102 224.0339022970
218.3901991893 138.2855011756 220.7611728047
201.4669978241 141.2058250449 219.0162777832
206.4838610668 123.2943992624 240.3876742054
224.9005669679 64.2563552952 259.6952214115
216.8179146988 123.2669787210 222.8998857871
