143.7916870117 136.4373626709 100.7700042725
144.8321380615 138.3269348145 98.9232025146
132.0891265869 148.6558685303 104.6740036011
146.4040679932 122.3728408813 100.9000015259
155.9807128906 126.1366424561 130.5360107422
156.5672302246 142.8753509521 102.2899932861
140.1189575195 153.8381805420 94.0369949341
151.7208709717 133.5229644775 96.6700057983
134.9097595215 158.6999969482 91.4000015259
147.5882720947 118.1633758545 98.0260009766
144.8321380615 138.3269348145 98.9232025146
132.3059692383 149.3388061523 98.4267959595
149.3567657471 81.9720153809 142.7746124268
156.6340789795 141.9628448486 96.0000000000
154.9567108154 74.2397232056 138.9799957275
145.2582702637 86.7333755493 141.6159973145
138.7440643311 153.5128479004 95.9500045776
156.5607147217 125.1666412354 133.2660064697
151.1674194336 79.3298645020 142.3699951172
159.2393951416 142.9425354004 118.8439941406
155.4172210693 76.3253555298 141.3600006104
157.5093994141 147.7525329590 105.0139999390
160.0717620850 142.5167999268 119.7210006714
136.7393951416 160.0725402832 93.6739959717
160.9908599854 133.1429748535 127.8000030518
139.6239624023 151.1600036621 83.5338058472
147.0917663574 153.0068054199 94.5909957886
155.9908599854 130.3329772949 129.4299926758
150.9334716797 142.7730560303 95.9860000610
146.3600006104 119.4908447266 100.2500000000
157.7733917236 135.6698608398 114.6325988770
148.0236206055 142.6269836426 102.1696014404
138.0118560791 149.3375244141 105.2320022583
149.4297485352 97.4800033569 139.1600036621
147.1751403809 76.0699996948 140.3529968262
143.6313934326 100.5100021362 134.4087982178
142.8533935547 110.9398727417 135.6526031494
155.9838104248 79.8872070312 144.2512054443
138.6584625244 147.6362915039 101.4298019409
158.3543090820 85.0940780640 146.2624053955
136.5821990967 141.4698638916 103.2299957275
141.8533935547 120.5398712158 94.9525985718
156.9667663574 132.9820098877 129.1746063232
146.3557586670 74.1958999634 144.5130004883
132.2259674072 146.2588043213 102.7567977905
137.6649932861 156.6769256592 96.6753997803
142.4546661377 150.8923492432 88.9199981689
142.3536224365 118.3669815063 90.2196044922
159.0988159180 124.3240280151 128.0000000000
146.2386016846 120.6756134033 100.7476043701
158.6974182129 138.9098663330 123.9199981689
134.5002899170 138.9498291016 108.9550018311
151.0836486816 85.7778244019 146.8139953613
144.6507263184 148.8200073242 88.3125991821
149.9716644287 120.3393554688 129.7203979492
163.8067169189 139.3797302246 114.0699996948
157.1288299561 77.8940277100 138.7399902344
156.5066833496 75.0999984741 131.4819946289
143.7467651367 89.1720199585 142.6846008301
145.9147796631 114.8953247070 132.6009979248
149.2527313232 121.4801025391 98.9489974976
158.1986083984 128.2756195068 123.7276000977
147.5957641602 131.4459075928 93.4930038452
146.9379119873 149.3276214600 98.7970046997
149.3888244629 121.4340286255 94.6999969482
143.6572265625 155.8653564453 86.4399948120
143.7846679688 105.5423507690 136.5299987793
147.3208618164 112.6029739380 135.1399993896
127.1759567261 159.4387969971 92.2167968750
139.3933868408 144.3498687744 108.1125946045
144.2108612061 149.0929718018 98.0900039673
133.8179168701 149.0176086426 96.6669998169
155.8967590332 125.0020217896 127.5846023560
162.8789672852 130.6192626953 120.3690032959
161.6040039062 140.1522064209 106.0000000000
157.4539947510 137.3922119141 114.9800033569
132.0436248779 151.5069732666 105.3596038818
162.4494018555 144.2525329590 106.6039962769
158.0989532471 139.3381805420 96.5669937134
151.1333007812 131.7326812744 96.7980041504
152.5288238525 121.0940246582 93.5199966431
137.7797546387 141.3899993896 102.6999969482
148.9921417236 151.0469360352 87.7732009888
146.9517669678 120.0568008423 128.9710083008
143.6926422119 152.6268005371 91.4729995728
146.2074279785 113.1598663330 130.9199981689
154.8039550781 138.7299957275 104.1538009644
153.5740661621 87.1128387451 147.8600006104
132.6436309814 151.1569824219 102.9896011353
147.0193939209 122.4725341797 97.8539962769
159.2317657471 132.2468109131 119.8010025024
150.0364685059 111.4212341309 133.3500061035
146.5349884033 118.3169250488 134.1353912354
142.9106903076 119.7010269165 95.2201995850
146.7483825684 100.5679626465 135.1060028076
142.5297851562 109.4457168579 134.5018005371
141.5597839355 153.8157043457 91.9318008423
154.9047851562 131.9353179932 94.2610015869
144.2182617188 114.5873031616 129.8509979248
154.7367095947 83.1097259521 141.6499938965
153.9816589355 87.0993576050 148.0204010010
156.0246582031 142.1223449707 107.3499984741
157.0762939453 67.5787048340 129.2149963379
158.1789703369 74.3292617798 128.4089965820
161.3440704346 141.3428497314 122.4700012207
154.5682830811 122.8633728027 89.7659988403
152.2172241211 127.9353561401 87.8999938965
155.4988250732 140.5340270996 106.8499984741
155.5916595459 85.7493591309 149.2404022217
156.1940002441 140.2422027588 92.3000030518
147.2451477051 118.5199966431 127.7529983521
148.6108703613 100.6629714966 146.7899932861
156.2436523438 76.4778213501 132.5739898682
146.7274169922 77.8098678589 137.5200042725
151.7208709717 133.5229644775 96.6700057983
145.9040679932 116.1528396606 93.3199996948
147.0397491455 110.7399978638 131.0000000000
137.6216583252 146.8393554688 106.3803939819
146.5408630371 118.3529739380 132.5099945068
141.9559631348 116.7988052368 91.7867965698
144.4182739258 139.8133850098 101.3359985352
148.4036254883 135.9169769287 91.2396011353
148.4636230469 121.1669769287 132.0296020508
142.8052825928 151.4869232178 88.0440063477
151.4146575928 81.5023498535 147.0099945068
162.8216552734 142.9393615723 114.5603942871
158.8579101562 85.1576232910 150.1470031738
155.4672241211 73.0153503418 141.0599975586
150.5392150879 144.4475860596 95.0481948853
163.9089508057 136.2981719971 113.3769989014
150.0574188232 121.3998641968 126.6100006104
133.5567169189 158.4897308350 90.4399948120
129.9813995361 149.8999938965 93.0088043213
149.8740692139 154.1628417969 92.7200012207
139.7546539307 155.8823547363 83.4199981689
146.4940032959 114.5622024536 89.0200042725
159.1343078613 73.8340759277 129.1324005127
143.8816833496 140.0273742676 102.7799987793
144.9127807617 110.7889938354 136.0361938477
144.5866851807 151.4499969482 86.0220031738
149.8967132568 101.6097259521 146.2299957275
162.9888153076 140.2940216064 102.7599945068
130.9146575928 150.9123535156 97.2399978638
129.1608734131 155.8429718018 96.8199996948
135.9599914551 150.6452331543 93.2274017334
144.9872283936 141.7053527832 100.7599945068
151.5434722900 82.4730453491 140.6360015869
135.0867156982 158.4497375488 88.6199951172
141.6374206543 157.2998657227 82.0200042725
132.3355865479 148.6059112549 101.8990020752
134.8152923584 154.6269226074 91.1640014648
159.4967651367 144.1920166016 116.0746002197
154.4416961670 130.4673767090 93.2099990845
157.9417572021 137.5167999268 110.6210021973
154.6840667725 136.8028564453 100.8400039673
150.8682708740 87.6133728027 141.0459899902
150.8937988281 137.2272033691 108.6011962891
145.9099884033 104.2252426147 133.8273925781
156.5302886963 138.3598327637 117.4550018311
139.4592132568 156.9875946045 85.8181991577
146.3040771484 154.1028442383 89.6600036621
144.6951446533 114.0899963379 126.6029891968
161.5679168701 119.9576263428 133.5469970703
148.4036254883 135.9169769287 91.2396011353
155.3046569824 127.6023559570 128.1499938965
142.4916534424 156.8393554688 87.9703979492
129.1362915039 157.7687072754 91.6250000000
133.4064636230 153.2512359619 93.0800018311
144.5397491455 148.7500000000 95.8499984741
148.8572235107 141.8353576660 90.5199966431
150.9072265625 143.7153472900 90.4399948120
147.0713958740 75.0400009155 140.9588012695
149.8740692139 154.1628417969 92.7200012207
153.4626464844 119.1268005371 133.6430053711
149.9689636230 114.0892639160 128.6589965820
158.0940704346 76.2428436279 136.2099914551
157.0897521973 143.3000030518 113.4000015259
141.6899871826 144.8052368164 105.4273986816
139.7586212158 141.4417724609 100.1560058594
139.6674194336 140.5598602295 101.2900009155
152.9446563721 135.8223571777 99.7200012207
131.3508605957 163.2729644775 94.4700012207
143.7274169922 109.1698684692 134.5599975586
131.1167602539 150.7520141602 105.3945999146
149.7017669678 111.5868072510 137.0210113525
148.8343048096 109.1940765381 133.8724060059
147.0497894287 143.7557067871 95.4318008423
153.7502899170 120.8898391724 93.8649978638
143.6174163818 106.8298645020 134.3899993896
151.8489685059 137.6392669678 102.6590042114
164.4789581299 141.9781799316 101.5469970703
147.3851470947 151.4700012207 93.3729934692
147.3227386475 140.1800994873 107.6790008545
144.7582550049 149.4873046875 98.3909988403
163.0462951660 138.5587005615 118.4749984741
164.1689453125 128.8481750488 123.9570007324
138.5899963379 158.2452392578 84.6674041748
147.1588287354 114.6940231323 90.4199981689
139.4579162598 155.8576202393 94.1970062256
144.2897796631 123.9957122803 93.4818038940
138.8497924805 150.1357116699 85.4518051147
144.5113983154 107.6100006104 132.9087982178
150.8043060303 111.2240753174 136.4024047852
148.0386047363 126.6456069946 94.6676025391
153.3833007812 129.5026855469 96.0979995728
154.5039978027 139.2122039795 114.1300048828
147.8388214111 92.9540252686 143.7799987793
152.3639526367 119.6500015259 130.0438079834
148.5872344971 150.6253509521 91.3199996948
159.8882598877 141.4772949219 121.7509994507
130.2834014893 150.5498657227 102.2826004028
151.1546630859 143.9323425293 101.7799987793
146.9857635498 108.1059036255 138.0930023193
147.2738037109 150.6671905518 98.5811996460
150.0782775879 116.8433761597 126.9160003662
161.0497589111 120.0100021362 130.2700042725
154.7837982178 74.9272079468 139.3811950684
157.3840026855 83.0922088623 145.0000000000
147.1867065430 123.4997253418 95.3099975586
154.6136169434 131.6869812012 124.9796066284
155.8582763672 139.8733825684 103.1359939575
157.7792053223 124.8975982666 90.7182006836
158.4308624268 144.7329711914 108.8000030518
133.3636169434 142.7169799805 108.0096054077
147.3562927246 150.6986999512 86.1650009155
144.2772216797 140.8753509521 97.0899963379
152.3386077881 76.9156112671 143.7575988770
135.1846618652 154.2823486328 91.0500030518
134.5533142090 154.7226867676 99.7180023193
139.0988159180 141.9540252686 108.2500000000
143.9786071777 108.1656112671 136.5375976562
161.5602874756 118.0598449707 132.7350006104
157.4452819824 143.7969207764 103.3540039062
147.7488250732 149.3740234375 88.5399932861
149.4882812500 114.9733734131 133.3959960938
162.0839996338 141.4122009277 100.1300048828
155.5516662598 125.3993530273 131.3603973389
160.3792572021 143.2991943359 115.6042022705
147.3267059326 154.1397399902 90.0999984741
146.3040771484 154.1028442383 89.6600036621
158.7413940430 136.5299987793 108.0988006592
161.5540008545 118.8022079468 130.8300018311
146.1172332764 143.0353546143 101.0199966431
146.4733886719 137.6598663330 95.6325988770
146.6632843018 122.4681015015 97.3939971924
131.9874267578 153.8898620605 98.4500045776
144.4319152832 119.0089874268 97.3779983521
146.4436187744 97.6469802856 141.6095886230
165.3940734863 137.6728515625 125.0800018311
163.4688262939 134.4240264893 124.2699966431
157.8432769775 121.0680999756 130.8739929199
145.4008636475 114.2629699707 134.2500000000
161.7433929443 142.3998565674 117.8526000977
145.9008636475 122.5529708862 95.8700027466
151.0421447754 147.6669311523 91.6632003784
163.2827301025 142.7301025391 122.3690032959
146.0914001465 148.0399932861 95.0487976074
153.1582641602 137.3672943115 100.1209945679
149.9797515869 137.3300018311 100.8299942017
136.2933959961 157.7898712158 87.3526000977
132.7879180908 160.8276214600 96.6770019531
134.4716644287 158.4593505859 90.7103958130
157.9539489746 126.9199981689 120.3538055420
131.5716552734 162.8393554688 94.5403976440
147.1016540527 122.5993576050 99.1303939819
151.6031951904 148.3545837402 92.5380020142
151.9613952637 78.6900024414 141.0288085938
135.8521423340 151.8169403076 95.4232025146
137.7367095947 146.1897277832 107.1500015259
134.8047790527 148.0653228760 93.6110000610
139.7546539307 155.8823547363 83.4199981689
131.9859619141 139.2288055420 106.8667984009
143.0267639160 111.9220199585 133.7346038818
151.2352905273 97.9769210815 146.4940032959
144.5846557617 145.8623504639 96.7099990845
150.9072265625 143.7153472900 90.4399948120
131.0407257080 154.8200073242 88.8425979614
148.6608734131 152.6929779053 91.7900009155
162.4842987061 132.4840698242 122.3924026489
152.8121337891 87.7669372559 142.3731994629
158.9736175537 139.6269836426 122.8996047974
156.5339508057 144.9199981689 98.3038024902
149.0043029785 150.2540740967 89.9624023438
143.4533996582 119.2198715210 96.4425964355
147.7798156738 86.4267578125 139.1199951172
159.7246551514 135.4623565674 124.8499984741
155.7382812500 120.1433715820 129.6360015869
146.8817596436 77.6068038940 141.5709991455
152.6717681885 136.5167999268 97.0009994507
132.8499908447 157.3608551025 96.1600036621
148.1474304199 77.2598648071 135.1100006104
157.7533111572 126.2826995850 130.2180023193
139.9259643555 139.8988037109 103.2867965698
151.6072235107 121.0153503418 126.0499954224
132.6367034912 164.2197265625 93.9099960327
148.7574310303 129.2498626709 92.2500000000
158.6737976074 75.4472045898 136.4911956787
150.7821350098 149.0369262695 95.9031982422
155.2697601318 72.3600006104 132.6800079346
158.2546539307 130.2023468018 120.5199966431
155.5808715820 69.1929702759 130.6799926758
157.8367156982 85.5897293091 146.1199951172
157.8789367676 145.9558258057 106.4420013428
159.5482788086 125.7633743286 121.0059967041
161.1267089844 142.3997344971 121.6299972534
159.3874206543 120.1598663330 130.6199951172
158.9736175537 139.6269836426 122.8996047974
131.8386077881 150.3456115723 107.6276016235
140.5086212158 157.9217681885 82.6460037231
150.6592102051 156.4075927734 87.7882003784
143.9667663574 113.4520187378 127.2946014404
161.0649871826 133.2769165039 130.7153930664
152.1949920654 123.4869232178 132.5453948975
155.7040710449 123.8528442383 93.7600021362
155.9352874756 81.9169235229 149.6940002441
147.7798156738 86.4267578125 139.1199951172
144.4017639160 115.6268005371 127.8209915161
150.2372283936 99.0453567505 141.5400085449
162.7055816650 72.2359161377 134.5090026855
150.8043060303 111.2240753174 136.4024047852
157.8432769775 121.0680999756 130.8739929199
157.9239959717 136.1122131348 108.6700057983
147.8197479248 75.7900009155 140.0200042725
151.8746643066 143.0223541260 100.5000000000
146.2386016846 96.4856109619 143.8775939941
143.9355773926 153.3659057617 92.6989974976
144.8117675781 117.7268066406 128.5910034180
150.4627380371 78.5101013184 139.3190002441
144.1233978271 151.5298614502 97.9425964355
132.0436248779 151.5069732666 105.3596038818
155.9343109131 132.2840728760 125.5123977661
150.6562957764 129.8287048340 88.3249969482
155.8607330322 139.4900054932 103.4525985718
133.2297515869 152.5000000000 106.6299972534
158.3491363525 138.4258575439 123.6139984131
140.1025848389 139.6399993896 98.7280044556
127.5619277954 148.7889862061 95.8379974365
161.6437988281 131.4071960449 129.0812072754
154.6840667725 136.8028564453 100.8400039673
138.7882843018 140.3333740234 103.0459976196
133.9164733887 153.7812347412 90.6700057983
160.4288177490 125.9740295410 128.9100036621
155.6516876221 85.9373703003 145.5099945068
149.1913909912 125.5800018311 88.7888031006
134.8788299561 155.1640319824 91.7299957275
157.4497833252 134.1757049561 113.4818038940
156.0722045898 138.8498687744 103.2199935913
158.9542999268 76.1640777588 132.8623962402
143.8486022949 152.1156158447 91.6075973511
136.9847869873 143.9653167725 100.9410018921
144.2772216797 140.8753509521 97.0899963379
148.0983886719 142.7179565430 102.3959960938
149.8840789795 120.7628402710 129.1100006104
150.9855804443 141.3759155273 107.3089981079
150.0738067627 108.4272079468 139.3511962891
148.4927825928 100.0789947510 143.7962036133
156.4240722656 132.1428527832 129.7399902344
161.1321411133 127.0569305420 127.6632003784
139.1249847412 158.8469238281 88.8754043579
149.3340759277 139.6328430176 106.2600021362
147.1340026855 137.4622039795 101.8100051880
138.5699920654 140.6408538818 108.7500000000
149.5451354980 133.7500000000 87.8929977417
151.6508636475 82.5929718018 147.8499908447
151.7546539307 122.6223526001 133.3600006104
146.2886047363 149.7156219482 93.1376037598
157.2721405029 137.7569274902 98.4232025146
143.9355773926 153.3659057617 92.6989974976
142.7559661865 150.8088073730 88.9868011475
152.1931915283 89.4945755005 140.7379913330
153.8427276611 128.2701110840 89.9589996338
154.1938018799 123.4872055054 93.8211975098
162.5052947998 130.2269287109 127.3339996338
160.0740661621 138.0828552246 125.5999984741
150.3943023682 91.6240768433 139.5823974609
161.6772308350 132.1953582764 119.7299957275
132.5867614746 152.9620056152 100.3445968628
149.9220581055 80.7080535889 145.5020141602
152.8672332764 90.2753524780 141.1300048828
155.9043121338 143.3540649414 91.9123992920
150.5472259521 121.0753555298 131.1900024414
154.1516571045 127.3593521118 90.8404006958
161.1174163818 133.8598632812 126.4000015259
157.5240020752 67.7922058105 130.4000091553
137.9763031006 152.4387054443 93.2249984741
145.6238098145 153.9272003174 90.5811996460
142.9838256836 142.3084716797 105.7613983154
148.6197509766 147.6499938965 89.6999969482
148.4872283936 100.6353530884 136.1800079346
134.2318572998 158.7775268555 94.7320022583
155.4536285400 144.1469726562 115.4796066284
133.4239959717 146.6122131348 94.1900024414
156.4138031006 138.9171905518 99.3712005615
130.6197814941 148.2757110596 106.1618041992
148.6167602539 120.7720184326 88.3945999146
152.0189514160 119.5981826782 127.2469940186
147.9840698242 146.4028472900 97.8899993896
161.8937988281 139.6371917725 125.7712020874
149.1216583252 151.5193481445 96.8103942871
160.2988281250 71.4040298462 134.0500030518
147.3292083740 142.9675903320 104.6381988525
153.4899902344 83.0052413940 141.7973937988
140.9913940430 99.9800033569 136.4888000488
148.3882751465 151.2133789062 86.5359954834
155.5093994141 83.4125366211 141.2140045166
147.5251464844 115.1999969482 86.0529937744
162.1888275146 137.6840209961 116.2500000000
131.8572235107 152.6453552246 93.8099975586
155.1740722656 73.1828384399 139.8199920654
152.6874237061 86.6798706055 147.8200073242
136.6667175293 146.8097381592 105.8899993896
146.1714019775 111.7099990845 130.3088073730
158.9362945557 69.3887023926 130.8650054932
151.0836486816 85.7778244019 146.8139953613
150.2840728760 116.9328384399 136.8600006104
143.1432800293 157.2680969238 81.6940002441
128.1997528076 149.8899993896 93.5699996948
146.4733886719 137.6598663330 95.6325988770
148.7227783203 120.4789962769 102.0961990356
149.0998077393 104.1967544556 134.9100036621
131.0886077881 153.1056213379 98.3376007080
154.1620635986 68.3403854370 138.1269989014
147.9604644775 116.6569366455 136.4573974609
135.5797882080 153.8857116699 96.2918014526
143.4792175293 141.1875915527 106.4281997681
134.8886108398 143.9456176758 107.0475997925
136.9332733154 150.8981018066 103.8040008545
148.6197509766 147.6499938965 89.6999969482
163.9321441650 128.4569396973 122.6732025146
157.7537994385 74.3672027588 137.0912017822
157.2174224854 138.3798675537 108.9500045776
146.0579223633 90.2276229858 145.2169952393
134.1904754639 155.9969329834 99.0274047852
130.4274291992 164.5898590088 91.7400054932
158.5892639160 138.8091888428 120.2941970825
150.5416564941 138.9393615723 107.2403945923
160.3467102051 142.7397308350 112.8899993896
163.2340698242 139.9728546143 126.2300033569
159.2393951416 142.9425354004 118.8439941406
147.6667633057 158.1920166016 87.4046020508
158.3216552734 77.1593551636 135.1304016113
158.0655822754 77.1459197998 141.3090057373
141.5197906494 136.7957153320 98.7018051147
152.4397583008 100.5699996948 141.6900024414
150.6088256836 122.9840240479 93.1399993896
134.8755798340 154.0959167480 96.8690032959
152.5814056396 79.4000015259 139.8688049316
156.4140014648 67.6422042847 129.0000000000
162.8099975586 140.2308502197 107.0800018311
140.2686004639 103.2256088257 139.7176055908
144.9633026123 154.7026824951 91.2080001831
150.2379150391 155.3976135254 91.0970001221
145.4867095947 153.5497283936 91.2500000000
159.1089630127 85.7992630005 146.8990020752
147.6439971924 98.7522048950 136.4600067139
143.6714019775 152.0200042725 86.7188034058
156.0393981934 86.2625350952 146.9540100098
160.8364715576 72.8012313843 136.0599975586
137.1067657471 149.3220062256 101.8545989990
143.9489746094 141.0092620850 97.3889999390
150.4738006592 126.4672012329 95.1212005615
151.6072235107 121.0153503418 126.0499954224
149.4327850342 145.0989990234 96.9661941528
159.7413940430 129.6000061035 118.9787979126
160.1199951172 70.4808425903 133.6399993896
145.0639495850 125.0199966431 91.5638046265
140.2589721680 154.3992614746 90.9189987183
150.5579223633 153.6876220703 92.5770034790
157.4197540283 137.3200073242 108.1100006104
136.7416839600 152.6873626709 107.0200042725
147.1808624268 141.5029754639 92.4800033569
153.5836181641 130.8369750977 124.6396026611
160.1274261475 140.8298645020 122.3499984741
131.9027862549 147.8190002441 96.9461975098
149.9872283936 92.1953506470 139.7400054932
151.3840026855 139.8922119141 102.0400009155
146.5939941406 97.0822067261 137.7799987793
143.7933959961 112.4698715210 129.2126007080
160.4232788086 73.4580993652 130.7839965820
141.5082702637 136.6033782959 99.1359939575
154.9540710449 82.0528411865 142.4899902344
152.3086090088 144.2456207275 105.5176010132
154.6267089844 87.4697265625 146.0699920654
155.9816894531 72.7073669434 138.4199981689
148.7097625732 125.0599975586 89.1500015259
143.1472320557 157.2653503418 83.2199935913
156.5116882324 123.3773727417 92.3600006104
155.1916656494 146.6593627930 105.5803985596
147.2762908936 135.3686981201 104.2750015259
147.3208618164 112.6029739380 135.1399993896
153.2964782715 141.2712402344 106.5000000000
147.7488250732 149.3740234375 88.5399932861
158.6021423340 78.9669342041 139.8031921387
135.0816650391 154.1093597412 98.4903945923
137.2146606445 140.6423492432 104.0999984741
129.8197784424 152.4657135010 90.5218048096
140.2788238525 152.3840332031 89.9699935913
152.8683929443 73.9179611206 140.1959991455
138.3051452637 153.4199981689 90.5129928589
135.7152862549 149.3569335938 108.3240051270
150.9072265625 143.7153472900 90.4399948120
151.9897613525 81.3000030518 136.9600067139
152.1949920654 123.4869232178 132.5453948975
148.6308746338 128.5329742432 93.6500015259
155.2698059082 82.0167541504 145.0500030518
155.8386077881 71.1756134033 131.6175994873
145.1082763672 104.2133712769 134.2259979248
140.2464752197 140.6912384033 106.3800048828
158.6652832031 73.3269195557 135.5839996338
151.8616638184 110.9693527222 137.8204040527
148.0716857910 98.0473709106 138.3399963379
147.0397491455 110.7399978638 131.0000000000
157.8767089844 77.2997283936 135.3699951172
151.4246673584 80.5523529053 138.3600006104
162.2240753174 120.2428436279 132.7899932861
159.6420593262 135.4303894043 119.8769989014
130.3167572021 154.9420166016 89.7546005249
139.1638031006 145.1371917725 106.7712020874
166.6992187500 138.6075897217 118.5781936646
155.7040710449 123.8528442383 93.7600021362
135.5197906494 144.5957031250 102.0918045044
148.1159667969 131.2588043213 90.0867996216
147.8943023682 101.2540817261 135.8023986816
143.7774200439 115.3398666382 127.9700012207
153.8927307129 102.1501007080 144.4689941406
152.6497802734 82.3457183838 149.6618041992
155.6749877930 135.7569274902 93.2354049683
129.7166748047 156.2599945068 91.9519958496
150.6282806396 115.9333724976 132.9859924316
157.2721405029 137.7569274902 98.4232025146
149.2279205322 115.5376205444 89.7070007324
155.5040740967 141.8428497314 107.4100036621
148.0127258301 121.7901000977 96.9690017700
146.1827850342 151.3789978027 98.3261947632
161.8438262939 136.8684692383 120.7113952637
151.8952941895 96.0669174194 145.5740051270
144.2008666992 152.6029663086 91.8100051880
152.1383819580 92.7879638672 141.1559906006
146.5549926758 142.8069152832 106.4854049683
130.2139587402 155.9900054932 88.9538040161
152.3240661621 132.1228485107 90.4500045776
140.1143035889 155.0840759277 85.7424011230
151.3421325684 113.3869323730 131.1831970215
157.5399932861 118.0908432007 133.7299957275
144.8567047119 121.1297225952 89.6699981689
143.4146575928 113.5323486328 128.5299987793
143.1833953857 148.3098602295 91.6325988770
149.9872283936 92.1953506470 139.7400054932
137.0588226318 148.2640228271 105.5999984741
145.7843017578 142.8640747070 100.8824005127
149.8967132568 101.6097259521 146.2299957275
143.7140655518 154.9128417969 86.3700027466
147.9751434326 137.5599975586 101.5429992676
151.5565795898 144.5216979980 105.7758026123
153.2274169922 124.0798645020 129.8200073242
141.1789550781 153.0681762695 92.1369934082
151.4216918945 116.7773666382 88.3799972534
141.4606933594 154.7410278320 91.8901977539
153.3338012695 99.9972076416 146.5012054443
163.7955780029 140.4559020996 117.4690017700
133.6338043213 157.4171905518 95.1612014771
153.2789459229 116.4281845093 129.3769989014
129.2874298096 156.5598602295 95.4199981689
150.7947845459 134.9953155518 106.3410034180
156.0333099365 78.4726943970 144.2779998779
158.6174163818 132.0098571777 119.9599990845
131.4759674072 151.8388061523 98.1968002319
144.0966796875 150.2799987793 88.7620010376
150.3963012695 104.7587051392 135.3050079346
164.0399932861 142.8552246094 115.1674041748
148.3437957764 114.4072036743 135.2911987305
141.1519165039 97.3589859009 137.6280059814
145.7839965820 105.9422073364 132.1699981689
158.8197479248 130.9499969482 119.1199951172
149.3013916016 134.7100067139 88.6488037109
149.2563018799 130.2286987305 89.9049987793
145.1157684326 137.2259063721 107.2730026245
155.2716674805 144.3493499756 94.1803970337
143.8808746338 122.1229705811 99.2400054932
133.7736206055 158.4769744873 88.4696044922
148.3140716553 100.1928405762 138.4199981689
153.0859680176 122.0988006592 130.9067993164
160.2974243164 147.2898559570 102.2799987793
143.3620605469 149.3080444336 90.5820007324
134.8182830811 144.6533813477 102.3559951782
150.3040008545 73.0222091675 135.0500030518
146.9062957764 115.0186996460 86.2249984741
155.9757537842 118.1359024048 132.5230102539
139.6674194336 140.5598602295 101.2900009155
150.0489501953 75.7181854248 141.9769897461
156.3543090820 81.5440750122 136.6123962402
154.9567108154 74.2397232056 138.9799957275
158.6013946533 142.8999938965 103.0988006592
159.9608612061 136.5529785156 125.6900024414
149.9839630127 143.3999938965 102.1838073730
151.7586059570 123.6656112671 93.3675994873
149.5243072510 74.8740768433 140.8923950195
153.2892150879 93.6375961304 141.1181945801
132.5867614746 152.9620056152 100.3445968628
153.7502899170 120.8898391724 93.8649978638
144.9946594238 137.9623565674 106.5500030518
153.7472229004 87.5553512573 145.6200103760
135.7152862549 149.3569335938 108.3240051270
162.3239898682 140.1622009277 101.3600006104
134.4727783203 151.8289947510 102.6461944580
156.0533142090 143.9226837158 107.3479995728
144.8208618164 146.9529724121 97.5500030518
163.4889678955 138.8492584229 110.3489990234
162.9499969482 74.6352386475 132.2073974609
132.6557617188 140.1959075928 110.1330032349
156.3663024902 69.3987045288 128.1250000000
142.3727874756 141.8390045166 108.3461990356
158.4339904785 124.1922073364 126.6000061035
156.6921386719 70.9369354248 141.4931945801
146.2837982178 151.9371948242 92.0611953735
149.0216827393 110.4973678589 132.1199951172
164.4821319580 140.4569396973 113.6531982422
153.5088195801 133.9240264893 98.7799987793
158.1540679932 72.4228439331 135.5099945068
153.4427337646 124.3200988770 93.4589996338
157.7252960205 71.1669235229 135.1340026855
159.2086029053 130.1556243896 122.6075973511
146.4733886719 137.6598663330 95.6325988770
151.1397552490 72.7200012207 134.7500000000
134.4002838135 149.1098327637 108.0550003052
154.8440704346 86.4128417969 146.9099884033
154.2517547607 139.8368072510 94.5510025024
147.9716644287 121.0093536377 89.0503997803
154.9739990234 82.9822082520 144.5299987793
158.8246612549 138.5123443604 111.0400009155
152.2536315918 81.1169815063 141.2295989990
140.2808685303 137.7129669189 102.9700012207
157.5667572021 142.5520172119 109.1045989990
158.6906890869 141.8710327148 110.7801971436
153.0127258301 110.8200988770 137.2289886475
154.7016906738 122.4873733521 93.5900039673
155.8682556152 69.8273086548 131.6510009766
151.5782623291 122.9473037720 94.2709960938
145.5787506104 123.6059951782 93.6986007690
163.3338012695 139.3771972656 126.2611999512
134.0855865479 155.4559020996 98.8690032959
149.4327850342 145.0989990234 96.9661941528
143.0688171387 139.1940307617 103.6199951172
146.3466796875 141.8399963379 102.0319976807
161.0497589111 120.0100021362 130.2700042725
145.6951446533 119.9300003052 87.0429992676
148.3249969482 126.2469253540 95.4253997803
156.2567596436 146.3720092773 99.4545974731
154.6133880615 125.6998748779 92.2526016235
161.4588165283 135.1340332031 125.4099960327
163.6383819580 131.9579620361 124.5559997559
159.4967651367 144.1920166016 116.0746002197
150.4955749512 117.8459167480 89.9290008545
148.8167114258 79.1397247314 139.2200012207
153.3202819824 107.3898391724 137.6349945068
147.5731811523 99.3745803833 136.1979980469
143.2120666504 113.3880538940 91.1520004272
152.0027770996 74.5789947510 145.3361968994
148.2162933350 71.5987014771 140.1549987793
149.4255828857 143.3059082031 96.1989974976
149.5597534180 143.0399932861 90.1599960327
149.6502838135 135.7398376465 108.2050018311
153.2304687500 74.4669418335 144.6073913574
148.2667083740 142.8497314453 94.5400009155
151.5747833252 120.0653228760 131.0110015869
150.8889465332 112.7581863403 129.8769989014
145.8638000488 101.8672027588 139.6212005615
136.4257659912 153.1059112549 94.4430007935
147.2559661865 106.8388061523 137.5368041992
141.9951477051 140.0299987793 96.9829940796
158.7774200439 77.0698699951 133.7500000000
149.1451416016 119.9499969482 125.6229934692
149.8688201904 152.8540191650 92.1599960327
152.1062927246 121.6287002563 89.9749984741
151.6092071533 118.9875946045 88.7781982422
150.4738006592 126.4672012329 95.1212005615
167.0589599609 137.7281799316 121.6369934082
153.8631896973 126.8145751953 93.6979980469
143.6974182129 120.8998641968 88.8300018311
151.2837982178 125.4672012329 94.3311996460
145.7874298096 93.7298660278 142.9600067139
148.6197509766 147.6499938965 89.6999969482
146.4040679932 122.3728408813 100.9000015259
136.2939605713 145.6199951172 100.1738052368
152.0108642578 135.3429718018 99.0600051880
151.3262939453 116.5987014771 126.7949981689
145.8988189697 114.8440246582 92.7599945068
148.2374267578 134.9098663330 94.5800018311
154.9934692383 120.5030441284 134.2059936523
148.6155853271 123.0059204102 95.8089981079
159.1797485352 132.4700012207 123.8299942017
147.8314056396 118.6399993896 86.4787979126
148.9842987061 122.0940780640 91.2923965454
145.6216888428 140.7873687744 101.5999984741
135.5988159180 140.7440338135 111.1399993896
136.8899993896 148.7808532715 107.6700057983
156.8497924805 136.6057128906 120.6218032837
131.8838043213 150.2771911621 97.0912017822
149.5288238525 136.6340332031 108.7999954224
150.3267059326 143.2497406006 95.1299972534
157.7533111572 126.2826995850 130.2180023193
146.3489379883 119.7758331299 90.9619979858
154.1416931152 107.9173736572 135.8999938965
133.6338043213 157.4171905518 95.1612014771
144.0086212158 121.1817703247 88.1060028076
143.3346557617 119.0923461914 89.3899993896
143.5238037109 139.0971984863 101.1912002563
159.4967651367 144.1920166016 116.0746002197
152.5088195801 136.5140228271 96.2399978638
145.5259552002 112.8188018799 133.4768066406
143.3620605469 149.3080444336 90.5820007324
150.6088256836 115.9440231323 89.2199935913
134.1904754639 155.9969329834 99.0274047852
144.5492095947 141.9075927734 98.7981948853
153.4626464844 119.1268005371 133.6430053711
134.7536468506 159.1078186035 89.3740005493
147.8762969971 109.5886993408 127.9750061035
155.7216644287 82.5393524170 138.8804016113
142.2939605713 137.8200073242 96.7838058472
143.8816833496 140.0273742676 102.7799987793
141.8339538574 142.2400054932 97.2638015747
153.7502899170 120.8898391724 93.8649978638
134.5836181641 143.1269836426 107.4496002197
147.6574249268 78.9098663330 138.3800048828
154.6888275146 141.7240295410 96.2500000000
132.8488159180 161.8540191650 94.1899948120
161.1321411133 127.0569305420 127.6632003784
148.9842987061 122.0940780640 91.2923965454
149.4067687988 89.4220199585 145.8246002197
150.1033935547 75.9898681641 141.2026062012
134.5836181641 143.1269836426 107.4496002197
147.5439910889 109.5322036743 131.5599975586
142.1486053467 117.2056121826 92.4876022339
148.7497863770 127.4557113647 95.3418045044
146.3352813721 86.9469223022 143.8840026855
147.2936248779 142.5869750977 92.9396057129
151.9827270508 120.2201004028 128.4189910889
151.6279144287 131.9176177979 91.1669998169
154.2079162598 100.6176223755 145.6869964600
165.8300018311 139.8652343750 117.4273986816
144.7964782715 116.4812316895 93.8400039673
153.6516876221 130.7673645020 95.8400039673
146.5363006592 145.0487060547 95.9049987793
139.7040710449 144.8528442383 106.5999984741
138.8867034912 144.3197326660 107.9700012207
152.0574188232 110.9398651123 136.1399993896
155.6116638184 140.2393493652 99.3303985596
149.9872283936 92.1953506470 139.7400054932
149.2125854492 74.8799972534 134.4479980469
129.7166748047 156.2599945068 91.9519958496
152.2416839600 120.0973663330 126.8899993896
151.0608673096 136.1729736328 94.4000015259
130.0682525635 163.4272918701 94.3809967041
144.8386077881 150.8456115723 98.1276016235
149.7997589111 74.2300033569 134.4900054932
152.3507080078 121.7666397095 134.4759979248
149.7067108154 143.0897369385 102.6399993896
152.1597900391 72.0957183838 134.4918060303
149.7794036865 135.9425354004 94.6439971924
153.5774230957 82.8798675537 140.8099975586
157.8367156982 85.5897293091 146.1199951172
143.4792175293 141.1875915527 106.4281997681
150.1567077637 121.6897277832 132.5899963379
148.9221343994 99.7669372559 137.1631927490
164.0399932861 142.8552246094 115.1674041748
157.4452819824 143.7969207764 103.3540039062
150.9282836914 68.3933715820 140.5260009766
151.3827362061 111.9201049805 138.2389984131
133.9440765381 141.4228515625 111.4300003052
139.7586212158 141.4417724609 100.1560058594
162.7021331787 137.7069396973 118.2832031250
148.4249877930 121.9269256592 100.9454040527
155.7886047363 129.6056213379 129.6376037598
149.1779174805 148.5976104736 98.6270065308
147.4933929443 157.2098693848 89.3226013184
150.8772277832 96.5053558350 140.0400085449
148.5452880859 135.6869201660 107.7040023804
148.8872222900 150.2153472900 89.6099929810
155.6351470947 71.1500015259 127.3129959106
138.3338012695 155.5471954346 96.9611968994
144.7866821289 119.8000030518 91.2419967651
144.3088226318 96.7040252686 137.8099975586
153.9016571045 88.0393524170 146.8303985596
146.7152862549 114.6869201660 91.1840057373
151.3546600342 81.1023483276 140.0099945068
134.1008605957 142.1629791260 111.4200057983
151.0914001465 71.5500030518 139.2388000488
150.8536529541 74.4178237915 140.9239959717
161.5602874756 118.0598449707 132.7350006104
156.7398071289 143.5067443848 103.1100006104
151.9897613525 81.3000030518 136.9600067139
157.7582550049 136.4772949219 112.6510009766
155.8027801514 139.1089935303 101.4161987305
143.5959625244 106.3988037109 135.1768035889
154.3249969482 77.3669204712 134.3153991699
149.3821411133 111.3169326782 132.1231994629
144.3239898682 104.5622024536 134.1100006104
152.1025848389 81.8899993896 136.8280029297
151.9457550049 129.3159027100 127.0730056763
154.7019195557 126.8989868164 124.9580001831
141.2688293457 135.5640258789 101.1199951172
155.4536285400 144.1469726562 115.4796066284
148.3708648682 154.2729644775 92.4400024414
144.4697875977 140.0157012939 106.1018066406
162.9521331787 129.2069396973 120.7931976318
152.4872283936 73.3953552246 135.0299987793
138.1797790527 153.2757110596 82.3418045044
143.6621398926 100.3969345093 139.3831939697
150.5059661865 136.3787994385 93.6268005371
143.9489746094 141.0092620850 97.3889999390
129.3798065186 148.0067443848 94.4099960327
153.5747833252 67.3453216553 138.9510040283
155.7540740967 70.8928451538 143.4499969482
138.1043090820 158.1940765381 88.9924011230
154.7482604980 140.1873016357 98.1909942627
132.3427886963 150.3990020752 102.6661987305
153.3936309814 143.9769744873 92.8196029663
130.6197814941 148.2757110596 106.1618041992
154.4797515869 144.3999938965 98.2900009155
154.0264739990 131.3912353516 94.6600036621
142.1207122803 144.7166442871 105.1259994507
147.7308654785 95.0729751587 144.8000030518
135.5852813721 139.2569274902 109.8240051270
158.2067108154 86.1897277832 149.7400054932
135.5867156982 151.8897399902 102.6899948120
153.9552917480 69.1769180298 143.3440093994
164.4021301270 138.8369293213 111.0032043457
138.5872344971 158.2253570557 89.2500000000
161.6020507812 72.2803878784 133.9270019531
159.2086029053 130.1556243896 122.6075973511
144.8386077881 150.8456115723 98.1276016235
134.7197570801 143.4900054932 104.2699966431
153.2855834961 127.3859176636 126.7089996338
158.0940704346 76.2428436279 136.2099914551
151.9421386719 133.8069305420 91.6931991577
157.4163055420 143.8287048340 102.1549987793
139.7546539307 139.9623565674 103.6800003052
140.7697906494 151.8257141113 90.5718002319
146.3489379883 119.7758331299 90.9619979858
148.8659667969 74.3588027954 139.0468139648
142.0749969482 143.2869262695 107.1954040527
148.3216552734 122.2093582153 99.8404006958
157.7507171631 76.7766418457 133.6660003662
147.4016876221 91.5273666382 144.6100006104
134.7597503662 152.9299926758 105.9000015259
148.0886077881 110.6856079102 139.5776062012
158.0989532471 79.2281875610 138.4869995117
151.6382598877 145.1273040771 102.3009948730
158.4818572998 138.9975280762 95.2620010376
152.0374298096 131.5198669434 127.0600051880
159.5659637451 144.0787963867 103.3167953491
147.8597564697 143.4499969482 90.1500015259
147.2355804443 147.3059082031 89.9789962769
137.3067169189 152.2097320557 107.1100006104
161.8438262939 136.8684692383 120.7113952637
162.0397491455 136.6999969482 121.0199966431
146.3008728027 139.0129699707 103.4900054932
164.3821411133 135.6669311523 122.7832031250
147.1451416016 111.3399963379 127.1630020142
158.2067108154 86.1897277832 149.7400054932
153.4427337646 124.3200988770 93.4589996338
147.1808624268 141.5029754639 92.4800033569
158.0367126465 124.0497283936 132.1399993896
152.2874298096 81.4398651123 141.3699951172
137.9555816650 153.4359130859 97.0589981079
135.5516815186 149.7073669434 97.1600036621
140.3872222900 154.3753509521 90.5099945068
146.1938018799 106.5472030640 137.4011993408
144.4157562256 147.9059143066 97.1730041504
143.7467651367 89.1720199585 142.6846008301
149.5297546387 95.8300018311 139.7600097656
159.5349884033 136.9669189453 113.8654022217
150.9855804443 141.3759155273 107.3089981079
152.0651397705 97.4000015259 141.4830017090
147.0457611084 118.5259017944 98.5429992676
146.5739898682 94.8022079468 141.6999969482
151.7482757568 115.4033737183 127.4459991455
157.2518615723 80.8075256348 140.2619934082
152.3507080078 121.7666397095 134.4759979248
138.8867034912 144.3197326660 107.9700012207
147.8716583252 122.1393585205 95.5803985596
163.1307067871 132.7566528320 126.3759994507
147.6608734131 91.9229736328 144.0399932861
148.9333953857 143.3198699951 107.6925964355
138.3338012695 155.5471954346 96.9611968994
148.0888214111 113.6440277100 88.4699935913
159.2772216797 126.0753555298 126.3199996948
160.1672210693 131.6253509521 119.3999938965
163.1631927490 134.8145904541 122.1080017090
153.8427276611 128.2701110840 89.9589996338
158.2482757568 136.8933868408 115.1559982300
159.7974243164 123.9498672485 134.0099945068
137.0333099365 147.3926849365 105.3880004883
155.7707214355 145.2966461182 106.2559967041
136.9188232422 153.9540252686 91.6100006104
149.4389648438 74.3292617798 139.7489929199
151.6979217529 110.3876266479 139.4570007324
151.7138061523 118.2672042847 136.1611938477
144.8208618164 146.9529724121 97.5500030518
152.2582702637 122.5833740234 89.1660003662
145.2491302490 149.1458587646 92.7740020752
159.3233947754 143.2098693848 117.9925994873
153.4608612061 131.5729675293 130.0500030518
129.9840698242 149.5728454590 97.6700057983
135.3239898682 153.4421997070 88.2100067139
148.2557678223 75.5559005737 138.9130096436
144.3725891113 121.3199996948 96.9179992676
149.1702880859 146.6998291016 97.8150024414
156.4789733887 129.0492706299 123.1090011597
158.4679107666 143.6176147461 117.4970016479
147.1867065430 123.4997253418 95.3099975586
145.3557586670 115.6858978271 87.4430007935
150.5738067627 117.3072052002 136.5711975098
155.6783905029 72.1779632568 138.9960021973
159.3482818604 137.3533782959 114.2159957886
157.5240020752 67.7922058105 130.4000091553
134.5574188232 153.9898529053 106.7400054932
140.3657684326 100.8559036255 137.2730102539
161.5416564941 141.3493499756 124.4104003906
156.4608612061 145.8129730225 106.2500000000
151.0800018311 135.3108520508 104.2400054932
154.9574279785 73.9798660278 127.9600067139
151.0408630371 78.6129684448 143.7699890137
131.6246643066 152.0823516846 99.0100021362
152.2342987061 90.6640777588 140.5923919678
157.6067047119 74.8997268677 136.4100036621
154.4697570801 84.1900024414 143.9700012207
148.1040649414 151.5028533936 91.3400039673
143.7846679688 105.5423507690 136.5299987793
153.9616851807 82.0073699951 146.7299957275
151.1486206055 143.9917755127 93.6060028076
155.0413970947 141.8300018311 102.2287979126
156.9621429443 124.4269332886 90.6732025146
149.9672241211 148.3253479004 89.9799957275
150.6943054199 149.4540710449 92.4924011230
146.9186096191 74.8256072998 146.6775970459
147.5113983154 122.3399963379 90.9288024902
150.1567077637 121.6897277832 132.5899963379
145.0274200439 123.1998672485 99.2200012207
142.9106903076 119.7010269165 95.2201995850
149.3940734863 122.7428436279 95.2600021362
138.5033874512 154.7698669434 83.4925994873
151.1716613770 121.5093536377 134.6604003906
153.2692108154 75.1875915527 139.6681976318
154.1816864014 84.6573715210 144.1699981689
158.8508605957 132.8129730225 126.0699996948
161.8937988281 139.6371917725 125.7712020874
148.8347778320 97.8053207397 138.8910064697
150.1489410400 134.1458282471 96.0719985962
132.0436248779 151.5069732666 105.3596038818
149.0879211426 151.8076171875 97.0270004272
161.6798095703 140.0067443848 104.6999969482
151.7052917480 116.1469192505 135.2539978027
145.0346679688 152.1123504639 85.6500015259
132.2067718506 158.3820037842 97.3346023560
144.8586120605 121.8156127930 96.1875991821
147.3392181396 104.0175933838 137.2281951904
163.0616607666 132.7093505859 125.1803970337
154.0421447754 130.9669342041 94.8331985474
155.6038055420 136.3471984863 99.7611999512
140.0759582520 98.7688064575 138.7568054199
146.3859558105 115.2588043213 87.8167953491
152.5634002686 76.0698699951 135.0826110840
138.9479217529 154.5276184082 96.0670013428
145.7288208008 115.0540237427 130.4799957275
151.4149932861 138.4169158936 107.8754043579
160.7547760010 138.6653289795 107.7010040283
127.4974212646 161.6598663330 90.8100051880
147.3851470947 151.4700012207 93.3729934692
150.8479156494 120.2876205444 129.2769927979
149.5079193115 109.5276260376 139.7169952393
142.5587463379 118.0759963989 93.9686050415
151.4799957275 81.4452362061 142.0074005127
136.4821929932 154.0798645020 86.6999969482
158.4679107666 143.6176147461 117.4970016479
147.5136260986 157.2369842529 87.4296035767
139.4443054199 145.8540649414 103.1424026489
151.2939910889 86.2522048950 141.7500000000
153.3136291504 146.2869873047 104.2196044922
161.8197479248 141.3699951172 100.7999954224
154.4246673584 118.8623504639 132.3899993896
141.4547882080 139.8653259277 105.6610031128
158.0116882324 139.7673645020 94.5999984741
148.9116821289 151.0273742676 89.9400024414
155.0732879639 143.6381072998 92.9039993286
154.8308715820 73.2629699707 129.3600006104
144.6439971924 119.4922027588 98.9700012207
148.0386047363 97.8356094360 144.1475982666
150.1588287354 118.2140274048 99.4799957275
146.9099884033 125.9452362061 91.9474029541
150.0572357178 121.2053527832 126.8699951172
146.8817596436 76.8168029785 143.7010040283
148.6097869873 141.8257141113 106.5418014526
144.6359558105 119.2988052368 98.6767959595
141.6899871826 144.8052368164 105.4273986816
148.8417663574 99.9968032837 144.5310058594
150.0287475586 126.9659957886 95.3286056519
153.4346618652 139.6723480225 114.9700012207
160.7857666016 141.2459106445 101.9530029297
155.7740020752 71.1522064209 133.2400054932
155.1340789795 124.9528427124 133.4799957275
144.3759613037 98.0788040161 138.8368072510
129.6086120605 156.3656158447 97.2575988770
160.8916931152 137.5173645020 108.5100021362
157.4189453125 137.9481811523 94.9570007324
163.0221405029 138.6969299316 115.9431991577
149.4327850342 145.0989990234 96.9661941528
150.7772216797 98.1553573608 139.4400024414
149.8686065674 73.7856140137 139.7375946045
159.7739562988 142.7400054932 114.9238052368
147.6386108398 108.6056137085 138.8975982666
148.7574310303 129.2498626709 92.2500000000
147.2762908936 135.3686981201 104.2750015259
155.4172210693 76.3253555298 141.3600006104
162.9889526367 136.5381774902 109.9169998169
162.4149932861 75.4769210815 134.1253967285
151.8739929199 77.0622024536 142.0899963379
154.6699981689 74.6452407837 142.0373992920
153.9727783203 119.9689941406 133.4962005615
152.1174163818 124.4298706055 132.8000030518
151.5602874756 95.4198455811 144.3950042725
142.8852844238 98.2369232178 139.6640014648
156.4327239990 143.8500976562 94.3789978027
155.8027801514 139.1089935303 101.4161987305
149.0859680176 96.5988006592 144.6668090820
155.8027801514 139.1089935303 101.4161987305
146.2239532471 144.1999969482 91.5838012695
154.9897613525 119.6100006104 130.9900054932
149.0216827393 110.4973678589 132.1199951172
134.9097595215 158.6999969482 91.4000015259
154.9739990234 82.9822082520 144.5299987793
144.5674285889 143.4198608398 101.5800018311
160.7762908936 125.5987014771 123.4049987793
147.6114044189 136.9600067139 102.5487976074
145.9040679932 116.1528396606 93.3199996948
137.8716888428 149.0973663330 104.7600021362
149.3340759277 139.6328430176 106.2600021362
159.4136199951 132.7469787598 126.3596038818
145.3088226318 119.6240234375 100.3699951172
137.9920654297 141.1180419922 105.6520004272
145.7040710449 152.4928436279 92.0900039673
132.3355865479 148.6059112549 101.8990020752
152.5166778564 74.8099975586 134.4019927979
139.8834686279 137.8030548096 102.6060028076
132.2720642090 147.9480438232 100.7819976807
143.2546539307 105.0223464966 134.9499969482
144.5474243164 122.3398666382 94.5699996948
146.7367706299 125.9320220947 94.2745971680
158.0989532471 79.2281875610 138.4869995117
148.1289672852 117.7492599487 85.8190002441
151.8217620850 146.1668090820 100.2709960938
155.7762908936 140.2286987305 92.7549972534
153.3816833496 128.2373657227 92.1299972534
156.2982788086 70.5233764648 127.9360046387
146.2397918701 123.4557189941 95.0418014526
149.1216583252 151.5193481445 96.8103942871
135.7282714844 139.4533843994 106.9959945679
155.3234710693 146.1430511475 105.9660034180
136.1072235107 153.6053466797 106.1800003052
157.0534667969 141.3330535889 119.7959976196
151.2520599365 78.7480545044 144.2820129395
158.6921386719 72.0869369507 128.8432006836
133.0272216797 163.6053466797 92.5099945068
144.4039916992 99.8622055054 134.8200073242
147.4339904785 75.5422058105 137.2400054932
152.7516937256 131.2473754883 92.2300033569
144.5397491455 148.7500000000 95.8499984741
142.0020599365 116.0180511475 89.7019958496
149.0367126465 142.8497314453 105.2900009155
151.6539916992 130.6822052002 88.4900054932
159.5251464844 130.7100067139 118.5830001831
145.7340698242 116.3628387451 131.0399932861
155.9799957275 81.4552383423 135.6473999023
150.5343017578 142.0040740967 101.2623977661
146.4874267578 149.4698638916 93.5600051880
150.1608734131 71.7329711914 137.9799957275
148.6482849121 146.1033782959 90.7559967041
162.8584594727 75.0862808228 133.5097961426
157.5262908936 117.4687042236 131.3050079346
160.4288177490 125.9740295410 128.9100036621
