209.3271929565 146.2180637751 203.2303423658
230.4471226082 74.7076790216 233.7632122441
207.6629543492 152.2120052533 205.7253289022
211.3461512101 140.1904262502 233.7325127471
236.2023215059 73.3952346423 237.7085644254
216.1093567930 90.1968342952 232.4478116986
214.3098653915 92.1875831964 229.1431809285
214.5162106222 87.4462548581 233.2160717644
222.6586167279 68.0934866694 244.4242833490
214.5099764334 104.5310435486 229.0187509154
216.5289061677 91.2984455740 235.5717317526
205.5232846819 144.8810812442 234.5450247724
212.2335650877 118.2455962669 228.0811864987
207.4981791729 152.8302601531 210.5584772923
217.5674163463 68.8937916370 248.3053491441
213.2357782217 120.7550272186 231.9720225897
205.5179352488 149.9317821780 199.4245904593
207.2934681617 126.9584611317 231.2537738773
214.0629184909 109.8705387522 221.2358047314
217.0833339386 111.0603005558 223.3589800742
225.8662234853 64.8221582766 239.9680145810
221.4186375172 69.2038304638 244.6848353922
206.1901333328 141.9148665246 233.5194262762
231.9095530831 63.1729379439 237.5282812869
225.5931614292 68.0942724133 237.3698656633
210.9887839230 143.9837602840 237.5663025966
222.3922694942 87.8392737494 238.8074045053
223.5162948234 87.7199733223 240.7253834778
206.8166996288 142.3901575992 230.2944959538
213.1593292162 69.2706802107 254.7155112238
209.2318891318 121.1543668756 232.6913690475
206.2146377870 149.6846705518 211.3536692624
224.5542832232 66.9533115123 244.7643402222
207.2722391051 144.7479059003 235.6333381753
211.7209447011 67.3190989493 254.2537509712
210.8273160766 108.3388188964 230.2771778123
210.4534759852 153.9244755678 214.1922515079
228.3345512831 79.8276211630 229.1830731650
230.6966778420 78.7133515398 241.8960622579
200.6825220473 53.4397865325 252.5073415194
207.9670834471 55.9719413458 258.4678863726
208.0190951069 129.4607572195 228.5241866828
233.2484382367 78.4998158368 231.6933047078
209.5479417062 137.5512309802 235.0432910701
232.0389609201 67.9690241016 233.1519883363
210.5382260844 156.7782887637 220.7870520332
204.9592929232 141.3614992807 192.0691101687
209.2159605770 140.3176926088 234.9450138023
217.6018352183 118.8535717584 226.5247301898
225.9437546691 85.7893466064 237.7429644206
204.1272327781 144.0930833919 194.9622719597
204.5744723664 57.6308891534 252.6419162619
223.7369918150 82.4094937320 231.9663676825
238.5067218967 70.5702204471 233.3367514483
225.8662234853 64.8221582766 239.9680145810
212.2851541846 118.9748793444 237.7614154040
215.6093064922 86.5779020096 225.8724257031
211.1993907884 140.0125078193 235.8003307751
210.0837090066 108.0336165693 224.2657481386
216.5208592741 148.9817901064 228.0620237310
233.2376201040 74.8379186361 230.4046861022
206.8970435115 86.8350564718 225.7043991968
203.5609339115 58.6098682866 258.1193799020
239.1531488601 78.2606677063 231.2497996752
225.8832234839 74.1819092978 253.6203621619
227.6013026235 69.8178689205 245.7857224160
208.9763131092 140.6339572805 234.8455645181
221.8496533683 70.5889866366 244.1890983414
210.5167827879 102.5579464543 228.1025646405
212.3699150280 129.2892220882 230.9831131218
236.8317663677 74.1945271803 232.2137056195
209.7016315273 138.7793964665 191.8409429664
238.1590029974 63.9608066069 237.2396288221
221.3306679641 71.6649371617 256.1889905639
214.1199910408 69.0391679492 245.4600420978
212.5660509625 61.4494431578 257.2538263112
205.3796860557 151.7605850376 202.5388145482
209.2999627761 152.5997284009 209.4133424002
213.3803252654 106.4231314244 228.6154377737
225.9829059723 86.1760803606 237.4249920782
207.7797439231 71.0005431872 254.6385992508
236.4074419633 77.9161747710 235.2488033991
236.3303953814 68.5462531271 241.3257117486
206.1801163290 146.1884388753 205.2394396972
211.7163325925 94.4852520105 225.4811773081
204.8107631047 147.0373401859 203.9979869587
205.3731960087 145.2202616764 205.1529415031
203.0160531288 145.1939659269 194.8552679421
218.6674125476 65.9239148915 256.0799412879
233.9168349822 72.0213769360 236.6224041057
213.5032438512 66.9749118900 253.8212380004
214.2847007586 95.5975235714 230.2214976412
213.7133722365 126.8426291914 232.4579704933
226.5072634521 69.9051684047 237.5887412739
210.4829735089 103.5764329149 229.1136751620
222.2115074088 73.3127438128 247.0232483564
225.0115030304 75.0365183543 241.2866396471
209.9147335632 157.9559794520 209.8804376551
237.2754107803 66.2780426084 239.2917464177
206.3500586774 144.5839625886 209.4342812917
209.0621342981 139.6139734419 229.3346954132
214.1061011418 91.0572386431 234.2417808857
204.2757587967 52.5446592684 254.9391579209
210.7004326619 128.7666046964 232.3281046145
212.3202748222 121.8251656390 231.5931584482
211.9229080857 122.0642616155 236.3672107402
213.4485239030 66.5520228081 253.0127035731
228.0468054499 67.5750214913 237.1056775386
212.5554180583 113.3808329829 226.1958126792
210.2640545825 110.5418063122 226.0935632955
238.4285933330 75.4974434585 229.5473809431
210.3994574545 66.4138353175 254.5033549662
220.0530778263 116.1259889842 225.6292904075
218.7128336284 119.0950427772 226.1341114762
232.4686331638 77.1092644170 230.8788026915
215.1766435239 108.9816416254 227.6214657881
211.7929918601 87.1676403509 225.1257870845
204.0581584002 53.6344476675 250.0566241661
211.5428085526 125.7551010971 230.1655312879
221.1011362817 78.4495221427 243.4110056016
206.3927465789 137.3639104346 187.9694367191
215.9267947703 120.2944383725 238.5355747693
205.0026999768 149.9359291709 207.6063984145
238.5067218967 70.5702204471 233.3367514483
210.5332008275 137.6522163527 228.2551122066
215.0903527077 115.2818124642 236.6627686080
212.4049559838 107.5074799216 225.3214891171
215.9267947703 120.2944383725 238.5355747693
221.1854037099 87.7585489315 236.6600484034
207.8776842547 118.1575635031 231.2411568032
203.1167982452 57.8845850865 253.8210807959
220.2948872246 115.6691510006 227.6277391564
211.4528114171 149.6582622811 223.8441239281
215.5120289101 65.1761660136 253.3991381261
202.9541058085 144.1630919234 199.7516645057
232.5026081322 82.7290854030 232.6374666363
209.5830537180 145.6986100316 207.4871838230
208.1032138898 86.7431988122 226.4549584523
217.8436446166 118.3967337747 228.5231789387
208.2320511269 59.5633865318 258.3326764470
237.5703748155 67.4359091698 241.0651600940
208.3684187670 138.6040702955 229.8737893629
208.0767015003 132.5473514937 197.0234805655
208.8026730135 142.2738499791 229.1535932787
209.1376283671 105.5664669224 228.8952974642
236.8469777490 76.2483441470 229.5415323170
210.1431926796 157.5243261012 211.7686231240
225.0581302365 75.7667139937 248.1829649522
224.6478004158 69.2739766451 248.1992825564
208.3741625911 155.5223064077 226.5443557676
238.5067218967 70.5702204471 233.3367514483
230.4596080645 77.3695431053 238.5282873699
210.7742269413 137.9994828668 230.9790358046
216.4935465442 90.2609056547 229.3509775610
213.7780032883 88.9309312320 222.8094327812
217.4224507434 109.7903564307 226.5056328693
235.1790101902 74.0650427517 232.9376955135
208.1639310531 153.9298082250 219.6705991692
219.6909706007 106.2904344142 225.1870377246
212.2979403076 62.0468141680 255.3714816559
226.8581650087 80.8461313927 234.4873054006
202.3840750009 55.5298278035 254.6638354480
208.7738333501 140.2577442765 193.9391668301
207.0005871722 147.1083427055 203.5484545513
231.1281098757 75.5092489981 232.1085970155
239.8158631465 77.6104055256 236.3071483420
198.6856546001 142.9100902455 193.2151239235
212.3911155591 88.3998600834 227.9158787683
226.2960210909 65.6633371600 239.9057970382
212.4563397212 156.6295147178 226.1058983199
200.1452413319 144.9690769890 193.3833345425
213.9521883258 100.4642505694 224.2069221853
216.4031558641 151.7060924755 225.8298481927
212.1729460742 145.8052254009 231.7734879368
225.6105642976 69.5077455727 237.4458820006
236.7880077055 74.0109633766 231.1801423249
221.7065673287 72.2945423049 253.9178387161
206.8348567525 139.1994241635 189.0983509066
204.6867568228 149.7738134185 208.4565307374
221.6969117633 69.4294545042 249.0056604874
219.6788103613 88.3683574895 231.3320150474
241.0775211197 67.1358308756 237.0036133829
208.5806911499 82.5849257004 225.9778226703
220.1051848173 84.7275062506 236.6694682897
224.0604225458 63.9247385853 238.1482404458
233.4284926706 74.7872746032 236.8354512329
212.7560930268 127.6620077285 231.2408332438
224.9369023312 79.9287496638 234.5196681207
209.5345425080 56.7756557737 256.9279809165
211.6915911120 65.5837544896 254.6894050344
235.8439439576 66.8100985553 240.0566152482
212.0580513032 147.0138819927 231.3838997398
213.7653060069 68.0360033699 250.5934821788
233.4342339808 69.4718488289 236.2971617319
222.9422966473 68.3967596321 245.1030653731
207.5204976564 133.4934442640 231.7916797311
209.8605106557 135.4979702531 188.0195228513
208.7968203685 151.2579629801 205.7565884658
207.7410627080 102.0200406899 224.1367128078
232.2205444835 71.4166448035 238.5013068165
207.8909527454 141.2636784299 191.1428044074
204.9786788551 133.1150917763 230.7594119593
204.7656204103 160.1713801022 209.0372460001
205.1901450177 155.8741352508 221.0602407667
203.5729412898 148.0916129052 200.1963272870
218.1466470285 104.0448087895 230.1217022461
208.7621652069 133.4109245125 193.7767588477
210.1279462605 140.5210994361 235.8402974053
209.1050738427 148.6233326651 208.0553771874
218.1466470285 104.0448087895 230.1217022461
214.1495324555 117.3899621546 227.1645046708
242.5566264251 66.6824105709 241.6457801335
211.8354251951 153.5273060775 221.7689565849
202.2793490126 54.7427028107 249.8410168432
205.3796860557 151.7605850376 202.5388145482
204.0856423969 54.2075653945 250.4593252339
222.0409315376 64.1865893497 252.8612861500
222.6005656010 73.7783246307 253.5171028788
232.4424673865 81.7457488160 233.0950640703
202.7478411108 157.2846154732 210.8027085926
207.2935098467 153.7532841403 228.6126404223
208.7904687152 142.3007639309 229.0628194080
216.1118487415 120.1186979832 229.5068113665
216.1810183545 114.9055252155 233.6630678314
221.4728965497 69.0205577055 235.7204428593
224.0731569110 65.1426734020 241.2398699433
223.7893489483 71.1581180534 242.2523270058
211.4619988020 120.5645714638 237.4188897586
213.2045511376 156.5142097623 228.1274882226
205.8950072821 70.7105667159 257.3210548190
213.5704239965 94.7892978189 227.2939434964
210.1366967304 94.6209577396 223.3329756168
211.8293600210 92.4573076899 220.8870908910
222.1970761886 69.8914746024 235.4202387207
206.2520141729 135.6078407061 233.6254688637
214.3604231646 107.3007899602 227.2543054945
238.4285933330 75.4974434585 229.5473809431
211.3457253400 102.3368262608 227.9673793785
225.4884645749 91.4169137917 236.7877514366
214.8812077230 85.9169713006 225.8271839901
212.5660509625 61.4494431578 257.2538263112
215.9055246154 145.0146034650 225.0724221427
212.2141764166 67.3032286679 258.5807850586
216.4607532173 89.6378414709 228.4870809948
215.8478576440 90.4545952949 239.0945190336
239.6850822252 65.0976495407 236.7303188419
217.6018412833 86.8420747225 229.6731731418
223.8495381329 71.3062853024 249.7040093809
207.0019817053 138.9537652124 238.5242907691
229.4266809764 81.1025241223 240.3894660017
206.6885510828 72.7963907182 257.4289101610
208.2921879761 153.0282761763 226.6114099555
204.8012103672 155.9861012712 218.5572351849
212.4728477157 144.3622542979 227.0698203919
227.8029117218 75.7691472293 249.5889772478
225.7219309100 75.0391102269 234.0894658489
208.7716532778 159.1204494945 208.9222923860
205.7154488023 141.2970676029 201.3863819298
214.3978449602 145.4787605045 222.3820112920
209.4635759680 137.1539569096 190.9855683275
230.0330974342 81.0402747938 236.1199101923
208.6778897807 157.6352160931 225.4573992192
211.4175904910 149.1341207586 231.7710218696
201.8021157649 53.0781720026 250.1049134899
210.0845814269 151.3495233196 207.6389256830
207.0498861860 67.1072557810 255.6831342024
209.0478156481 157.7737991238 220.2783618217
212.0883450386 90.4316263637 227.3218294799
203.8076459620 151.7171346610 218.6687963127
205.5137583070 143.8784615135 191.6241428005
203.9333504799 153.2608860055 208.0715084921
212.0977194597 108.4951047062 221.5184578328
208.2335318142 154.9861668448 227.9589192280
227.1537761186 72.5044972535 244.1316743623
214.8435009664 147.3841487581 227.8905602307
224.2145402132 89.9639272605 239.9222886340
207.2280268910 153.3406825607 208.3257273073
220.7334510700 86.2341148821 231.1943759280
217.3245737539 68.6662150329 257.0207573719
205.9956936551 69.5448832883 257.6175366215
210.5054629244 152.2387478262 226.3852423693
230.6623429677 82.6511179966 232.1189109629
217.4979732553 151.5031849217 223.3994226600
210.2088344202 111.0738072252 221.5196619066
212.5651272356 151.4586832605 228.0563020432
206.2343032772 146.4222656006 194.9370414699
209.2070609439 158.6126306423 219.7199169413
209.2718485710 119.8003032267 234.3930509103
211.4999180211 59.8421390565 258.2882295170
210.8069396296 94.1343622759 221.9898673033
207.0152353399 126.0606669305 226.1253916913
212.2785562276 119.3395637690 237.6712263548
230.6623429677 82.6511179966 232.1189109629
215.2629719934 146.6448108341 231.1161663328
208.6713154319 159.0379792883 216.1562172167
214.3882271263 81.9726032076 226.3612595750
222.9220208880 87.8184012337 231.7239194205
235.4720478369 68.4736225543 234.1310162579
201.6749221102 142.3511224448 199.2851096130
203.6261395246 141.0818710793 205.0655955823
218.4297160164 67.2333139313 251.2092145866
219.2704003296 89.9548773854 235.0861835484
224.6543223852 78.2106077246 242.6415431880
237.7331452836 78.7811360669 235.8455947550
215.1995746682 109.2696649777 227.8397009987
205.0943041633 146.9767200445 207.4152775050
206.5409428075 159.2753039605 216.6326273561
208.9104229255 153.1896852306 217.8007211540
222.6343751032 72.7598380072 252.5059927458
204.2616239715 149.8270380724 205.0968504588
225.4702929410 87.5711711079 241.9412893123
200.0309861455 139.2439938367 196.0679337002
222.0686891513 89.1781363271 233.6537661862
209.3880418653 139.3451563142 193.0490971052
202.6057967306 155.6152012654 226.6553994878
204.3463383598 136.9113968193 234.1994186834
209.5139535677 135.6363987892 189.4790083213
237.6517375648 69.4489044134 235.0962433852
210.4534759852 153.9244755678 214.1922515079
209.1329552784 125.4332751783 226.8503115586
208.7937673800 157.1930601778 207.6474669377
213.0062899446 113.9772645224 222.3625641203
241.7419828784 66.0195746285 237.5405122254
214.0753919037 115.6998631887 226.6703351990
240.7155488923 77.4058952761 234.4946293652
215.5094172722 97.7857051095 225.3345023183
209.6259304520 155.9050584660 217.1339940392
228.8987990403 67.9103794227 234.8797072558
208.1032138898 86.7431988122 226.4549584523
238.3783928863 73.4874316061 238.3217501546
204.6253055489 57.2754280210 259.5385961509
215.9881684736 92.1251145205 223.9097151784
215.4730216489 152.5208763380 223.7140622427
216.9707329111 85.6563729844 235.9640923641
208.3918312354 132.8608786348 230.0456331779
213.2583034312 61.7105157637 254.4822700860
213.9245311693 113.3106325764 220.5225023893
207.4170997549 145.0486929467 230.4738308341
209.1050738427 148.6233326651 208.0553771874
214.0753919037 115.6998631887 226.6703351990
225.5223518261 65.4262322364 254.7851460518
208.0250710231 132.0850360904 230.5565671914
218.9054460130 67.7119425446 257.2478963604
215.6580730245 144.6329271689 226.3929977297
206.1711352442 152.2764873294 212.3505742056
210.9054632929 136.2908277687 194.2900267263
207.0529330790 150.6216312668 210.7799518854
212.3488983087 141.4502858702 234.4085306895
215.0897795237 94.6803097879 230.2636345931
212.0727738251 106.1168758284 229.4001852686
205.3731960087 145.2202616764 205.1529415031
218.6323644076 154.0772119364 225.6060683008
202.6250958924 152.0136004331 217.2709416634
233.6833356588 63.8533294214 235.2519009192
210.1995303792 136.0208820040 186.2103296526
221.2959968468 72.5913841358 238.5678904808
232.0389609201 67.9690241016 233.1519883363
202.3840750009 55.5298278035 254.6638354480
212.2851541846 118.9748793444 237.7614154040
214.7272605315 82.4955413503 224.5520742604
216.1729325238 85.3754314125 227.1953785274
209.1329552784 125.4332751783 226.8503115586
208.5141006873 152.8681783774 217.8693297937
213.6245717018 106.0141208857 223.9436803130
211.4035470580 133.9536660798 234.2332231050
205.4003272788 57.9813292949 254.4645460116
240.2855739012 64.5660462530 236.7548213279
214.9948782603 92.3334957433 223.2615145357
205.3954057590 135.4500295805 194.3888394440
237.9398725391 65.1617863614 239.8286452602
207.7797439231 71.0005431872 254.6385992508
219.8874642831 106.0047832425 223.5182424445
226.6075463320 66.0286790682 239.4774888522
207.5073231548 70.6868497123 253.7707629098
215.2133078339 148.6755345106 228.8467712259
212.3485350394 101.1929419409 222.0752873719
224.1532142778 79.6149849117 251.0463411832
213.1685808421 115.3953529669 232.8076099841
210.7303125217 70.2248222830 256.9808441789
210.7004326619 128.7666046964 232.3281046145
209.1389843030 98.3600073375 226.2413420976
238.0871784267 65.1184032628 237.6187485108
234.7172338718 76.4176964090 231.6529147671
209.7697818533 154.0000819874 217.4467161765
207.8776842547 118.1575635031 231.2411568032
210.7033501178 125.0341027124 234.9396410726
207.7555378741 63.9112664562 254.8343703128
216.3131766470 90.7570933418 228.4230892266
213.0456816051 154.2358735708 229.4783284536
212.6445502506 95.4557115884 226.6962034461
206.3782296570 151.7827725728 200.4274225425
210.2069613967 141.4670349034 238.5266759725
215.3657031673 68.6701019314 245.8864630307
204.6540685133 138.4755938755 235.4515074790
213.3797869997 151.7513333565 223.4330720815
224.8399320218 63.8790931678 238.4210744130
227.0295631015 74.4386467224 241.9774439831
211.4175904910 149.1341207586 231.7710218696
218.7879325246 71.5274991928 248.5584657709
206.4325022992 145.5744474245 204.4162485570
221.9468339484 72.5649675675 243.9100006707
206.2520141729 135.6078407061 233.6254688637
213.3794854888 101.3768205430 225.5021181964
215.0895462427 107.3558717495 223.2553550628
203.2264757823 160.6431135175 225.1525327775
237.2754107803 66.2780426084 239.2917464177
224.5513260494 64.0601261492 237.2759995298
211.7243184443 133.9889832169 232.6775199525
204.8336718664 148.0926954061 204.8226985477
214.1189502698 100.1491821612 225.5851615988
237.9386025777 64.0365518876 238.1672449822
210.7804565454 139.7415639005 237.3179481918
206.9878931895 144.3313272520 209.6792049531
230.5945803515 64.4382761570 239.2807519530
231.6997660927 81.6322090644 233.7289777605
209.7048621579 95.9055739294 223.7337479881
205.0026999768 149.9359291709 207.6063984145
204.1908179506 56.6807888520 251.2943958001
221.8743484961 71.3681416187 237.1819971776
215.0321311320 84.7540797133 229.3583606600
217.4283588274 90.2139288810 234.2426619409
208.4620497224 145.1732268386 203.7002856248
205.8514325760 159.3830989330 206.8614081924
233.2977088618 76.6892859986 236.3185994523
210.1209349556 130.5924898657 236.2944785213
225.2970068861 70.0713787200 239.0964942713
215.5478832183 150.9327489198 227.4344795796
222.6005656010 73.7783246307 253.5171028788
227.0139790495 72.0089547345 238.8826604988
209.3363850283 154.8650239525 220.1163913001
223.1114747752 75.1071187747 246.0356241073
218.1204075305 114.4584342382 230.0834157398
211.9437607963 146.5915151415 226.7167483947
212.7190797444 102.1266247976 227.4785849232
208.3684187670 138.6040702955 229.8737893629
210.3736223048 157.8002449334 225.6443455100
205.8488205623 55.4757720908 259.7391780738
202.4095832570 156.2508780384 222.3966054693
218.4824465616 106.7385102623 228.7328909785
214.4140460930 68.0705586468 260.3652127579
217.2650702708 116.4276842803 234.6640685520
230.3592489962 68.9030480250 241.8236367670
204.0029858967 129.5466887979 233.5194535321
203.6574037038 147.4288349381 198.9986267912
210.2935341689 157.4047466277 220.7047859197
214.3955719299 113.2974440670 227.7864156000
205.5480590954 140.6840705375 198.1875149960
215.3386853234 109.3557086761 228.6984516254
222.1175991345 87.5018384373 230.5440274361
237.6359901327 69.1088231438 235.3840373718
208.7897771718 119.3188544500 231.5624517515
210.5331566201 111.7299533797 226.7576994521
205.8201844929 57.2618231356 253.0683371950
237.3128845887 78.1826996483 230.7312455560
213.9863109581 97.9368231565 229.4166021731
209.5281654015 104.2648353084 224.1413730179
216.7714118087 120.1768060795 228.4027685312
233.8595085216 76.1724307759 236.3397141821
207.2850371014 73.9251396518 259.2317069229
233.9879771061 80.5239160025 236.6525297502
240.0981340994 69.6665057921 239.9653714149
215.0458934623 65.1253579736 255.6692492056
230.8823836074 66.8596096854 241.6877375073
232.0893048648 68.0035631371 236.0214295452
213.3751888790 142.3933516306 235.9554693032
211.2417245299 107.0666039949 229.3982838709
224.0759109443 62.7963841874 252.1312597381
217.5605626381 86.5748051960 237.2958820807
215.2360883732 95.8060340785 223.1557360382
215.5042116427 115.3452037896 237.5760027343
212.0194031814 92.5214708929 226.4630099202
213.6709236548 58.9192544985 251.2432406987
207.9240698346 134.2113349935 191.7009226076
205.3374460740 155.8307374903 218.8503435722
218.7012220498 64.9054282679 255.0688311550
228.0171771158 66.6738183361 239.6691252059
205.8857801144 71.9937540676 257.9100580253
223.1289371038 82.3137648252 234.5590352472
236.4074419633 77.9161747710 235.2488033991
222.7185991674 80.0021779593 252.6800154950
210.6384870706 133.5357824988 230.1219994215
215.6955537100 153.4210909204 223.4103660443
214.1661333848 93.5444489668 225.5956954659
224.6663589080 77.3385656069 228.6488506727
222.1351371736 79.9536850658 231.2630436902
213.3664106033 69.6224250934 257.3215255722
211.2594985171 155.9296862066 221.5440408493
216.9404647548 104.1366387540 229.3711382150
199.0927888740 142.3165193142 197.6741766791
209.2212320550 135.0874105079 237.9769895368
240.4913788438 76.3768378132 230.2437017666
206.3782296570 151.7827725728 200.4274225425
209.5498119571 71.6117379187 257.2428189223
226.1597107684 64.5966347971 255.1221932412
208.2293911293 153.2251870958 221.2682598028
220.4902137039 88.7316813285 234.6442657172
205.5866262139 55.6795021346 259.6465468503
223.8482520126 74.8117866474 246.2542081236
202.8171660558 143.5773420482 204.8304089076
209.1569364980 151.1352093715 230.9188640626
217.9526783713 71.4558858080 254.0304052431
225.5763449853 78.9552080544 245.0001582610
203.0438579429 150.3208711422 199.8432615067
206.8970435115 86.8350564718 225.7043991968
232.7753952315 74.2831450016 236.3056325615
208.8257323318 65.7096297277 259.5348076698
215.9367117332 64.1124956063 250.7123902334
202.8941446607 53.8222895005 256.7596209130
206.3422055579 131.0893468939 231.9914281582
204.6540685133 138.4755938755 235.4515074790
198.5383535437 142.9534880061 195.4250211180
208.6689350182 134.6070952043 198.5452616035
207.7720036824 146.6640724341 203.4432323284
208.0022644667 118.1208735394 229.3722901554
219.3963126953 68.1415163077 250.0527813548
228.6416284809 79.1095424864 233.9615648789
208.0748699347 139.8964240771 239.4155717480
209.5879527956 152.5203652184 230.4231277890
214.2121294145 93.7804154564 223.9516130914
202.6032381764 158.5038456117 207.6751004489
210.0041139080 139.8814771963 227.9020402095
207.7498594456 59.8953786215 253.7790085146
223.8539838422 81.8022780486 232.0408028381
222.4377102664 76.7326015200 233.3761985588
212.1536402371 150.7614977255 231.1295947241
214.2121294145 93.7804154564 223.9516130914
209.2227468882 144.4342968557 237.5904989528
229.0009074865 68.3209575296 240.7061625209
210.0298595552 155.0045207609 215.6474613749
239.6220968346 71.9691185325 233.8915318032
213.7507247296 120.2022404313 237.9223913715
204.9491239172 160.2552778988 222.0782145090
226.9458045627 73.2115352129 250.6186666637
204.8921381623 155.9593206234 217.1930993002
222.0579376847 76.6932658862 246.3993458916
226.1566285461 63.8132154741 252.0403895139
213.6492620293 103.0020209154 223.9931105381
217.3212063040 148.2530380888 225.6480490131
242.2864759295 67.1928316752 239.4130332569
213.4716100268 146.2252166876 232.1912711357
212.0580513032 147.0138819927 231.3838997398
210.6369810271 116.5944329954 232.5222216635
226.9262489859 78.2992173714 233.5544131951
210.6792830185 147.9240374118 231.2338967782
215.7475554205 91.1112462006 231.6456057527
205.0081963401 146.2764850517 203.9199950984
206.2146377870 149.6846705518 211.3536692624
242.5566264251 66.6824105709 241.6457801335
201.1800481169 138.1604593627 197.1715199860
204.9197608234 149.4390129897 215.0131644927
203.6904266039 157.3712079794 211.9786022905
226.2618171792 64.1985934372 254.8681904499
233.4342339808 69.4718488289 236.2971617319
211.5600958432 139.2966892637 188.4228449781
222.8703547902 78.5815980520 244.9136908702
219.4857256884 89.2800338101 233.7345848458
222.8614013212 66.3499370059 255.1331826172
202.1178539567 131.1038700329 232.7874725451
202.9748557466 155.3880049316 222.8536379588
234.2176213584 67.1727372556 233.1738022308
218.4330986813 88.7374231815 230.9055948915
214.6952411489 93.0597416990 229.1314978339
214.6151701848 90.3813535679 239.5700849388
208.0497915181 155.0329983966 228.3811658423
239.3061860090 72.0090692970 236.2235254573
221.2856078552 73.6618125470 252.2753676988
224.3851213936 75.2232097121 246.4613487852
230.5471206432 76.9056221096 237.7484212506
211.1429464484 138.5682033324 229.0113781721
241.1717395817 63.8780762327 238.1538233111
223.7148780477 75.7098055017 247.8044563217
203.8482191780 140.2859208779 199.2076889482
225.6946540526 79.3387855634 251.8916935812
228.0061420130 79.1258196507 233.6643129081
214.9359663768 65.8233831678 251.4315803298
233.7642439752 78.0018389426 236.4354765964
226.3239771681 76.6333213529 242.7017079088
208.9120888434 103.1786315679 226.0848406271
224.0617916133 70.5450929640 249.0272668636
214.0228439730 91.7635714365 221.6842071341
201.9626873189 51.7168016657 252.4699917994
208.0497915181 155.0329983966 228.3811658423
209.5007330058 57.7941423972 257.9390910494
232.5026081322 82.7290854030 232.6374666363
224.0604225458 63.9247385853 238.1482404458
209.4994530660 98.4401366972 222.9421702990
208.2082257128 136.4514951475 187.6873394804
216.5941523173 105.5072963762 223.1009063056
219.2050791400 153.1646696579 224.3108770654
208.7651670148 89.9786572234 227.4886885361
212.7696486790 59.3284052790 251.8064552195
211.6545248958 151.1552133521 227.4888286552
225.7610712521 89.2006102115 234.3917025474
204.7403820911 138.5801103214 194.5926457531
207.0803275220 140.7783535772 196.4333989157
202.6504900613 153.3263559956 216.2538942831
224.6007195666 70.3679096465 242.3535216918
240.8934452134 74.0846710026 230.9047107036
212.4680911405 94.6158993013 225.5904855828
205.9954195528 124.7788022640 226.3736289224
203.1876000586 148.9640343701 203.3907486366
209.8353530092 109.6321153270 221.8699871049
224.2075569517 72.1902097995 251.8908442708
204.5955135097 144.5450960660 193.4641983145
224.5513260494 64.0601261492 237.2759995298
233.3580922854 65.9146034127 233.0051022532
215.5120289101 65.1761660136 253.3991381261
228.2543217403 68.7854627672 242.3890858896
209.5728829081 151.8834359834 226.7638600755
215.4629868792 84.6773149031 232.4409087320
217.1391588320 150.9497423906 225.3142624788
210.3499072753 61.5207327774 259.0979724081
215.3831493969 151.9016678387 225.0238888810
215.6129875685 66.4257517442 246.8126009277
222.1942969881 72.9466718844 242.5894290821
205.5088226218 126.9865566515 230.3578751509
208.7027425110 133.5886100468 197.5341479736
205.7771427521 158.1338460793 220.8292935628
213.7682556771 129.9025108017 235.8171733309
227.0563781221 70.7742461806 242.2545637103
206.3944952945 152.1703591140 205.6026495657
204.5863092247 60.7320500987 256.3440113625
215.4772170391 58.3841170823 251.8615490893
205.3374460740 155.8307374903 218.8503435722
224.9129666572 77.5346108457 233.8542792870
202.1256131457 150.9875056947 201.6833170207
238.8176537463 70.5402182196 236.8017534363
225.6134183050 83.5139940608 231.1816850643
209.4689623894 158.2302678515 214.1370580572
209.8575122476 63.8398935793 257.8596186920
226.2027661988 88.8546289800 241.1945376325
214.7169138717 114.1390872437 227.5706133735
207.1935799805 124.3769779880 230.5273898444
206.5034886412 55.4070720543 254.5802578128
207.6481438707 136.1493355795 235.8808715853
229.5418260936 66.6417635467 236.3129083026
209.9540851205 147.1634321531 226.3904833920
207.6165482722 136.0010179190 237.5958670017
204.4124266227 155.8697907492 207.6680383832
213.8687580408 147.7080213480 222.0289392948
215.7104494724 85.0590195458 231.1203363663
225.0581302365 75.7667139937 248.1829649522
211.5376742765 63.2266614118 254.7136027065
225.8450848774 82.6234168853 229.0805665645
221.2827836041 78.1702793927 245.1530503625
212.0013013634 99.7046110010 226.4692039021
209.0532139333 156.8176020477 218.4291821662
207.5671943962 149.8951201698 227.8202633904
206.2715189080 141.7434428627 190.5884550893
232.8489760699 70.5914952275 237.8418727505
214.1010794226 113.0656595518 227.6809275427
213.1139389791 118.3877785401 229.7893782741
227.6880498291 77.8391398069 233.2561024717
226.7557508251 75.9637343620 248.4564089633
215.1923375797 70.1720240955 259.1763439224
223.7893489483 71.1581180534 242.2523270058
219.8814308431 70.3418710946 249.2877546176
211.7132220564 61.4422010921 252.8918414119
206.7972906989 145.9452248365 196.1586457852
203.5439631545 151.7617741829 210.1455162813
211.7305561301 69.6023976411 259.4133891302
209.9051243876 152.4196442812 225.2560000078
222.8522329211 77.7882297674 253.3016430976
216.7809065769 95.1175330838 226.6966186063
204.2757587967 52.5446592684 254.9391579209
221.1182982548 79.6090056301 231.3578202127
214.9703697970 116.8796271366 226.3510544323
204.8920221373 157.1602314269 217.4755983920
206.6883113556 150.2847512043 216.2866312439
209.4317126803 145.9258622229 199.4753707136
208.6225972852 146.4709574530 231.4850553494
202.6057967306 155.6152012654 226.6553994878
212.1457047019 99.4756024754 226.8871624012
222.1175991345 87.5018384373 230.5440274361
204.9791206957 146.1301003349 210.1013107686
215.4779877406 96.4225776224 219.8732200521
233.4284926706 74.7872746032 236.8354512329
214.5950951617 104.4769036810 223.9978294099
237.1138621808 74.6851057518 232.6380432020
201.6849933791 159.1704801642 209.5151559629
209.7823643902 139.4020426188 233.9643875289
223.6776899236 75.6222573998 233.1156472926
228.8767061888 67.9319521790 239.8378251834
217.1391588320 150.9497423906 225.3142624788
215.8029006763 111.6312651875 229.1859506151
224.0770785314 83.8214315301 232.8347641852
208.8688203923 140.1393747209 189.5448268988
226.2618171792 64.1985934372 254.8681904499
207.2850371014 73.9251396518 259.2317069229
212.3724417806 141.1334920107 235.2794513608
209.7801861781 137.5778456468 230.9922621957
209.8826712885 136.2051205579 187.5113475803
207.2850371014 73.9251396518 259.2317069229
227.0395394306 80.9989420241 227.7763583341
208.0190951069 129.4607572195 228.5241866828
209.0683903062 92.1291833658 226.6525854666
203.4396368929 131.6495265834 237.7053972204
229.4664822109 65.6163599088 235.8685852674
219.9046612253 105.4830401704 225.6703603655
208.6808338124 147.0653135956 230.6224221957
213.3413643848 104.3174977328 223.7842229044
208.7621652069 133.4109245125 193.7767588477
228.6213770725 81.9983253053 230.6469683764
220.0017231877 67.0873519229 254.0978786569
210.1366473170 93.3364589967 222.0684338555
216.5665728625 97.5854199303 225.6663910415
206.1605434880 72.5309462526 257.5116212547
206.9024224051 60.2616462321 258.9724053066
215.0696377946 67.4034629575 246.0723099787
220.5278120962 77.7113394411 232.0369751757
230.3810121114 78.4184320384 229.3344964590
209.9182395459 63.7064264962 254.1592518342
208.1382177946 149.2848435922 203.6027074665
231.9992446020 78.0921343613 239.0018732494
234.3985460976 66.6248283804 233.4969389961
204.3769028783 150.9507594761 199.9736082882
204.3849331827 138.1078548484 194.0098630518
210.0677330643 142.9141029169 227.7673255815
214.4025015966 154.5254395448 228.2620143439
205.3484382077 159.6304821067 220.8023211693
212.7528890234 101.1081383369 226.4674744017
212.7965779755 119.1343603405 238.1261467619
209.5208509811 143.2626278807 202.8442648678
224.1303906848 71.9244176094 237.1337070767
218.1409252477 67.3582490993 251.3820691570
213.5349595373 103.5643130840 229.3413968038
208.2468734831 156.2500602461 225.9531354929
202.3404638831 143.8112762733 193.1368880832
209.5430605893 112.9384455477 229.6054654334
207.0507380353 136.8352723330 195.5350896370
211.4762853579 155.5200854159 223.3357520416
214.2309018367 56.5598114038 251.6169283091
237.5448423729 73.0042591643 230.3848628393
224.9516525371 79.0565578848 232.6749656933
215.9367117332 64.1124956063 250.7123902334
217.9593606192 153.5337221539 223.8844529674
209.2636265769 124.6804756082 227.7883860431
209.2227468882 144.4342968557 237.5904989528
214.1051229171 58.1197062866 256.8597181886
203.2264757823 160.6431135175 225.1525327775
224.6198812144 70.1326815333 236.7501895874
216.7551298452 97.4166387659 225.7609240284
214.7396628069 127.7856949517 234.0049091071
204.5276583114 146.9278548755 194.3528446119
202.9739190595 146.0652427031 200.6850183519
236.8789363937 73.9841820771 229.8160079943
209.5879527956 152.5203652184 230.4231277890
203.6348909495 151.7349935350 208.7813803965
220.9532190628 73.7976574410 247.7287256255
226.0308182159 92.0186424902 237.9542281099
229.5852674037 78.7182009951 235.2335094887
206.6998548189 132.7358522581 194.5601091960
223.5576878478 72.8369875829 238.4289030879
219.4857256884 89.2800338101 233.7345848458
225.6371239839 72.4004655505 241.7041490535
223.7148780477 75.7098055017 247.8044563217
207.7903501207 55.3534826729 257.1867586465
208.7631832127 105.5786385784 229.4276274620
226.1416650632 66.8948870707 244.5787712958
224.4531183773 70.4477505931 235.3719486198
210.0914084423 142.2898093670 228.2606050017
211.8197158532 129.0713251226 235.9375191391
204.2290742320 145.4884890861 202.9738345482
211.3611899229 90.3605214421 221.5986203633
203.8204730949 151.2180565721 203.5270591961
222.8166511803 81.6058645378 229.4715101971
200.0017091065 146.7228041719 196.3312155767
237.3875138943 77.7630034843 231.7287399575
208.5582669523 142.2299472136 205.6487585495
212.3389101571 124.1127186295 231.0062089546
205.8548126614 134.1629562026 197.3036113895
227.8918296799 78.1626374130 229.8259183527
222.7166164166 68.3945588749 242.0656843608
224.1408667268 70.6233141831 252.4569961930
220.9002483865 76.6114678448 242.8731889390
208.0505966538 70.6823047620 260.7178465602
201.6749221102 142.3511224448 199.2851096130
202.6250958924 152.0136004331 217.2709416634
221.1182982548 79.6090056301 231.3578202127
209.1492295320 145.9996777664 199.9841591547
211.1022674555 101.1152930425 222.5241381626
219.4041448112 104.1197302719 223.7231425132
208.0497915181 155.0329983966 228.3811658423
204.3638058591 141.1799924875 192.4639059725
207.9670834471 55.9719413458 258.4678863726
214.6467879051 59.7073373930 253.7395854315
233.3617718861 72.4273769761 241.9647144722
238.8441288720 68.7606789214 241.2915278963
229.6840745437 64.6931554879 239.2315234169
231.3265551797 64.0371855670 234.5581805591
213.0749143388 86.4521087167 225.2088755993
224.4049231211 84.0896152483 233.4476043552
212.2938400836 113.1156817841 222.6903839984
208.8227305459 135.9091879545 238.3464310328
216.3159211248 64.7170912676 254.0341861971
210.9272735861 144.1722647806 227.9360295574
222.6005656010 73.7783246307 253.5171028788
239.8251280617 62.3896451272 238.8398238940
209.6148938903 96.7512461877 227.8680054969
209.5076917269 69.0817340459 260.7474616467
204.6773298222 126.9918063925 229.9485729977
210.8263627971 137.4651579030 236.3067724411
209.3400558182 112.6554170130 228.1308341824
208.3866632201 58.2803799549 258.2934593160
214.3882271263 81.9726032076 226.3612595750
210.3534853132 147.1611282323 204.7772840880
212.7901750302 136.9807842062 233.4657907537
212.4049559838 107.5074799216 225.3214891171
227.1432866765 71.0382826512 241.9098171291
238.2754499559 73.2823238991 229.5990186931
216.5941523173 105.5072963762 223.1009063056
207.9535429421 86.9417252710 222.8227931532
234.7172338718 76.4176964090 231.6529147671
223.5889778778 70.9998473175 239.9764525188
232.7753952315 74.2831450016 236.3056325615
205.5480590954 140.6840705375 198.1875149960
225.6684778162 86.3022201950 241.0512147867
221.5041592348 76.0849939892 249.1355286968
205.3145555755 140.6787015982 203.5257056892
212.4425334714 56.5919460968 254.3536766739
219.5432570380 117.7718084561 224.2560731348
233.0255360655 79.0351994700 240.5488134174
209.3575341446 90.5530408651 227.9845771921
212.0648692675 106.0955421236 224.4530926145
240.7783300648 76.7230940324 231.6106969442
235.2054698768 76.6340200742 236.1686226591
237.7331452836 78.7811360669 235.8455947550
231.8787589610 71.0896360210 241.1213166857
205.4386963950 134.9848823666 235.8083367687
230.0330974342 81.0402747938 236.1199101923
234.3775613596 80.8084771921 235.5674447301
203.9954893579 129.7877111222 236.8681481585
235.1727140773 73.9006470122 232.8770667619
204.1143229152 149.8704358331 207.3067476532
208.3085751822 139.3546766713 189.1285848234
218.3338099225 90.3388743643 229.8695301260
201.8974725815 131.2562217656 233.1046273520
208.0974192147 128.8299163506 233.1544750137
210.7742269413 137.9994828668 230.9790358046
217.2554431934 113.2872209936 229.3009294485
229.6840745437 64.6931554879 239.2315234169
217.1389499660 110.3259621679 224.1626227129
208.1273137973 137.5315316364 195.6192321826
209.2567665856 70.5904474282 261.4684050385
210.3130405435 150.9178699689 209.5271111520
200.1452413319 144.9690769890 193.3833345425
213.4376732783 123.4607645928 231.8124726393
216.5893316707 151.8098378742 225.7744529121
199.4972946713 143.6323921100 198.0056786675
212.2806927772 107.1786023572 224.3339483980
203.3207389082 152.8397743794 214.9107883573
223.6438797515 76.6407445120 234.1267562600
203.9957692078 143.5418704877 206.1262975015
215.1460781658 117.5110224400 230.9820472730
224.5515474184 80.8011447370 237.7140815862
218.1409252477 67.3582490993 251.3820691570
209.5728829081 151.8834359834 226.7638600755
209.5413483568 150.0716239553 204.0728257794
218.6162385725 71.3253033903 251.7432200217
203.8735911154 141.4635473754 203.7450199952
208.1639310531 153.9298082250 219.6705991692
212.9543845742 66.1065910188 258.2678731441
205.7888375584 59.0711979989 259.0634968731
209.4135805829 109.6050532378 229.0063758333
223.7823933330 82.4535487993 229.3347299449
226.7487553067 78.3168059948 253.8525531158
204.8808715705 140.7211073030 203.6718167953
205.2976702074 124.4876106348 226.9324110702
210.5990150048 118.4023102868 236.2077248670
210.2077418130 140.6541061789 238.6131394273
228.9266883669 79.5403573047 239.2184671202
239.8439452099 71.4832833283 238.3486936043
227.6702510404 73.4748781395 243.1702937925
208.9823125063 150.9068760244 207.1320709230
206.1482486949 146.8895507780 233.8262100010
214.6528624637 116.9534674450 231.1202807465
210.4332996640 136.2375247296 236.2445556041
210.8307835114 97.9655042357 222.4248503091
213.1799152028 89.9050378623 236.4260872918
224.2971535219 71.6093485495 238.5119480444
213.4485239030 66.5520228081 253.0127035731
208.7988752008 157.0071285305 209.5816101165
206.8116637009 158.7708901855 211.2447501032
218.0260142050 84.4546084590 231.4139062771
213.9887760604 66.4796074807 254.5466075029
216.8222251353 119.4009432008 232.5772951249
214.5870829055 103.9484452366 224.2106470023
223.7369918150 82.4094937320 231.9663676825
235.3171745681 77.0356844195 232.4597735887
229.1697498093 65.0937125465 236.8508172365
204.6338494494 61.2719448856 257.2065195047
211.0161181784 92.2117125160 227.2014214602
210.0041139080 139.8814771963 227.9020402095
210.6203349272 117.7432172491 229.4986614187
208.5570439132 133.3861795848 236.3859447799
241.2272390255 74.3468939485 232.2213187060
208.3341778409 147.6330722670 236.0897055839
221.9925802738 66.4703575391 240.5460073808
227.1528009809 90.8027044939 240.1021636118
225.1720760344 82.0799126037 227.3589503975
231.5093988393 79.9317935809 240.8510195887
211.3412566407 62.1000666073 254.8883731270
223.4148622530 70.6385124874 241.2625902941
215.3692698609 121.2253590244 237.9561679841
234.7379527571 66.5854911605 233.3721656349
214.0753919037 115.6998631887 226.6703351990
205.8679408055 158.7318128748 214.9110151311
210.2640545825 110.5418063122 226.0935632955
220.7247502627 70.1965655134 248.7080004489
214.5372640528 148.9966403500 223.3254765631
213.6388454059 108.9575590165 229.7186255777
216.0718485500 103.8764434430 225.4959715968
203.8204730949 151.2180565721 203.5270591961
204.4468374951 129.0100266728 228.6504466435
224.9705276793 65.9263935952 248.8011296508
209.7618526004 135.2764685308 192.9290470254
214.5292649892 121.6473120763 233.4012313865
217.5621274625 104.2535574716 230.1387051505
209.2636265769 124.6804756082 227.7883860431
210.1995303792 136.0208820040 186.2103296526
206.3422055579 131.0893468939 231.9914281582
204.5123461271 154.0757482230 215.5423563764
214.7130263182 85.9044176422 231.2143867053
212.3851957304 127.4793710996 235.3161670017
202.7013783019 54.5492837871 256.8683908475
205.2995262780 60.2822201893 253.9170629060
217.2064130639 114.7640286820 230.7670428748
209.5932116479 120.8630989639 232.6589017336
210.8190348150 109.9611327637 229.5752143277
205.2953455270 144.3781789442 231.0782931122
214.0228439730 91.7635714365 221.6842071341
210.8539122339 94.8220117603 224.8373294983
206.2343032772 146.4222656006 194.9370414699
203.9007090394 155.5259127407 207.6140119478
225.9437546691 85.7893466064 237.7429644206
215.4620869834 90.3628771301 230.4883162370
225.0115030304 75.0365183543 241.2866396471
208.4927757733 155.8204960284 210.1535850170
219.8874642831 106.0047832425 223.5182424445
203.7533398938 152.9549964002 201.6832811985
213.0787811874 156.6616415276 226.1297794647
218.0980870273 151.5248314980 225.4627486764
234.3569341258 67.8585827261 239.5575326099
226.4177877144 81.7108469117 227.7853705534
204.0891735381 146.0001933864 202.7997182678
225.7975959105 74.5390749602 248.2660099087
234.5983155275 78.3118430521 233.1896441866
212.7615874846 68.1963896040 259.3369453492
211.1022674555 101.1152930425 222.5241381626
226.0950549282 64.5136620694 253.4899505022
219.7989891895 75.7129074616 244.7120335263
213.2768349214 112.7923842567 226.2704160312
210.9472065939 139.4264677972 238.6961828297
237.3128845887 78.1826996483 230.7312455560
202.8941446607 53.8222895005 256.7596209130
207.2204032728 143.3728722386 192.2083396585
204.4488282465 54.2115021029 258.3379922961
231.7007684226 75.8557257404 236.0687632689
222.3235404846 79.5585597668 228.2123270968
222.7144850441 65.3701179303 248.8494189745
215.7718285558 157.5125757238 227.4251436320
209.7982524117 150.2784716247 227.1166079483
212.2459761655 82.9203319338 228.4154839725
216.9391455497 86.7758811402 227.7246221451
230.5929716344 76.7980914844 236.8536957309
212.8113869341 99.8428988702 226.3699043180
237.5703748155 67.4359091698 241.0651600940
214.5162106222 87.4462548581 233.2160717644
210.1279462605 140.5210994361 235.8402974053
201.6648153260 143.6710792330 192.1756260984
215.1334023789 112.5355856875 224.6079768667
206.3927465789 137.3639104346 187.9694367191
203.1299182837 57.2247119510 258.6151173413
210.5396683306 111.4498175940 226.9118245531
224.6953343663 84.2155448958 233.4911689767
214.5034652885 127.9755536727 234.0448789511
210.6328242838 117.3838238261 235.1966143455
199.0927888740 142.3165193142 197.6741766791
228.5185052050 72.2633487082 247.0430709944
206.5214030863 59.7947785562 258.8163918280
202.7469802920 157.1470088396 211.2225875788
207.9419886338 151.5660176064 203.7406450267
203.9260603391 139.0598109319 195.6681515659
207.0019817053 138.9537652124 238.5242907691
210.6422655107 125.7907955391 228.5909317508
224.5280943953 85.6562696637 239.5292077330
212.2851541846 118.9748793444 237.7614154040
241.4381699413 68.2444116198 239.2241333734
230.3244166837 71.6834702999 238.6253847196
206.8512970663 152.5740536382 211.4788054752
200.1482339835 141.4244985201 193.7536882194
206.0213749243 157.7786226464 211.0562497869
210.1718708175 143.5288650025 237.6529780018
212.3488983087 141.4502858702 234.4085306895
219.1023833338 115.2081304052 229.6291611016
223.1662466467 69.1310019599 250.4638925324
205.5775262255 156.7190372502 227.3842204584
224.7506209341 62.5212266617 249.9210798797
226.8009416522 83.9202832231 235.7366372144
209.9229889973 140.9030277546 235.9115368209
222.9422966473 68.3967596321 245.1030653731
215.7104494724 85.0590195458 231.1203363663
214.4140460930 68.0705586468 260.3652127579
241.4381699413 68.2444116198 239.2241333734
214.2164307937 56.7429410808 254.6535302123
238.4733183260 76.9747097709 229.5528966534
226.0163307351 85.1705008488 237.5110594278
231.3525324176 70.1059511675 236.5446689769
211.4118444419 137.6102985737 189.8162956812
228.1496947912 70.2809270095 244.5868636758
212.2405560436 138.2859681226 231.1036317931
212.5516785448 132.5681109169 236.1338737354
223.4502327844 74.9146112650 252.8902105125
202.3609646366 52.9511945170 253.7800935982
239.4260448281 63.3079124101 236.5861213504
207.3340709627 130.8368530491 234.7095262021
230.4596080645 77.3695431053 238.5282873699
206.6377649829 160.5345087558 223.0991489479
238.7691300732 71.0844895198 235.3155551885
209.3400558182 112.6554170130 228.1308341824
210.2119776051 128.5312365139 234.8748274071
210.6562483406 134.1324277432 235.3654914266
212.6445502506 95.4557115884 226.6962034461
209.1938836293 143.1488933355 238.4129072207
217.9039474128 71.1911455420 253.6638902365
224.5505514016 78.4148261691 248.9649372759
230.8435927384 68.3726291548 235.5950086122
210.6960614226 112.1444395960 231.6837187941
211.3675718597 109.4562378275 230.2222777256
214.9580398256 113.8208303229 227.7436538999
209.6396551537 139.1202122012 239.4809303245
216.1810183545 114.9055252155 233.6630678314
204.9107344890 137.5201912055 189.1172477065
210.0578025841 92.4252395493 223.4468627553
233.9336386215 81.8337645930 239.7376109884
206.6422055049 141.5253143564 197.4136116486
224.5513260494 64.0601261492 237.2759995298
202.4520186173 132.2000673302 236.5091320042
209.5139535677 135.6363987892 189.4790083213
208.1639310531 153.9298082250 219.6705991692
232.5982445441 69.7368851497 236.9710899099
211.0582054860 122.2380674678 230.7548371875
214.6054158092 99.9727704908 227.4608441311
207.7503862860 62.4428781249 254.5278549799
208.2642846824 144.0155281263 236.5912550164
201.9347753152 56.1245131870 251.3426851238
209.3672361141 148.8933157778 227.6123442221
218.2995304832 103.1052927753 227.3405774612
228.0042619850 80.7160959593 234.9972338831
208.0378129372 55.7351871528 255.8661866695
235.1330153250 67.9506837600 235.9402031268
201.8444800632 143.3247119494 199.2767925330
224.0313276210 70.2937501683 250.6073579420
208.6351714699 136.7147655684 230.5288031950
228.7331007335 66.1936392607 237.4929543007
205.8679408055 158.7318128748 214.9110151311
215.1053426383 107.0983523446 227.4971821579
232.2194482387 70.2260402840 237.9380827276
201.5008678548 55.2092059651 253.6747659854
234.5336487634 69.1084140317 241.8382924146
237.6359901327 69.1088231438 235.3840373718
212.2895896726 156.9446108211 224.7276636821
228.6908447983 75.0264627381 250.9287896231
215.9913281095 115.1029422238 234.4377055253
226.3679620545 72.5574170120 250.7355330560
226.4847459363 82.8814145841 229.4356361233
226.9465734701 78.0026852240 254.9071932159
207.7074778535 135.9742359679 236.2317342254
206.6673746299 148.1803741192 198.1614554086
202.8224688182 133.4061636883 236.5271334105
212.2141764166 67.3032286679 258.5807850586
213.2583034312 61.7105157637 254.4822700860
228.4442536526 67.3012109212 236.4543168375
217.0017451634 88.6160835073 226.1457198556
208.2622534715 66.0150527859 256.1282895378
217.3301198223 71.3757782024 252.2553425803
225.6105642976 69.5077455727 237.4458820006
202.1256131457 150.9875056947 201.6833170207
