307.2756042480 68.1159133911 155.6990051270
294.7338256836 79.8172073364 166.4611968994
238.9038085938 5.4772047997 193.3011932373
243.2834014893 18.1798686981 194.2026062012
294.4216613770 76.8073730469 166.9300079346
234.1189727783 18.2992649078 177.5989990234
247.9633941650 28.7498703003 176.3526000977
240.6599884033 26.1952362061 177.9774017334
234.8508605957 6.0729699135 171.5399932861
248.9067077637 29.8097267151 172.2500000000
254.0908660889 44.2929687500 171.4899902344
237.4184722900 9.9362792969 167.6697998047
243.9786071777 35.6256103516 174.9676055908
251.7588195801 18.1240272522 175.0999908447
246.4426422119 20.3867988586 178.7929992676
297.1889648438 52.8481826782 149.5070037842
242.3946685791 33.1923446655 171.1499938965
228.0317687988 12.5268049240 166.3710021973
295.8282775879 48.8333778381 149.2259979248
286.6114196777 50.0900001526 150.0487976074
300.1207275391 59.2299995422 150.0126037598
243.5159606934 29.1288013458 172.1168060303
244.9633941650 21.6898689270 187.0626068115
266.1532592773 45.1681060791 167.5240020752
245.2874298096 31.5098667145 170.6300048828
246.5586242676 31.1017723083 168.8659973145
262.7299804688 46.5152359009 162.3573913574
290.1488037109 45.1440277100 152.6600036621
237.8782806396 7.0933752060 186.5659942627
282.9946899414 81.4023513794 166.4499969482
285.6632080078 46.6345787048 156.8079986572
232.2272338867 7.3853554726 157.9400024414
295.2749633789 84.4069213867 164.7653961182
242.8327789307 13.4189949036 175.9761962891
249.2239990234 39.9622039795 170.5400085449
254.3000030518 36.8808441162 172.1999969482
283.0126342773 84.4067993164 179.2929992676
220.3747863770 3.7053234577 154.0010070801
244.6974182129 36.0898628235 170.8300018311
238.8338012695 10.4872045517 177.0811920166
287.7863159180 84.5287017822 165.0749969482
274.4453125000 36.3569221497 163.0839996338
246.6338043213 36.9272041321 175.1811981201
284.4472045898 87.1253509521 174.5700073242
293.9099731445 48.9952354431 147.9073944092
239.4955749512 11.4059171677 178.0789947510
236.2187500000 6.0159964561 174.0186004639
243.0039978027 21.5622081757 180.8000030518
232.0017547607 16.5168056488 186.3810119629
250.3172302246 30.6553554535 167.4499969482
291.8302917480 45.6798400879 151.1250000000
222.2067108154 6.6997265816 166.3000030518
283.2147827148 79.4253234863 174.7510070801
225.0716857910 3.5973677635 157.5000000000
304.1982727051 63.5533790588 152.0159912109
242.0443115234 14.2140750885 172.8724060059
291.0263061523 72.6387023926 161.7350006104
273.0240173340 43.4122047424 163.6800079346
239.7082672119 15.4573059082 194.5410003662
300.0382690430 73.6633758545 156.4259948730
278.9682922363 43.3133773804 155.8860015869
300.9019165039 65.3689880371 150.3680114746
297.4134826660 56.5630493164 162.1660003662
294.6239624023 75.0699996948 159.4338073730
241.4583892822 10.1379623413 169.0059967041
251.6249847412 45.3869247437 174.6553955078
291.6757812500 49.5858993530 151.7030029297
218.8967590332 8.3020162582 156.4146118164
265.4172058105 46.0453529358 165.0500030518
215.2752838135 4.7869238853 160.1840057373
239.7808685303 14.4429702759 193.7099914551
298.7214050293 74.7200012207 156.7088012695
232.7042999268 8.0240755081 161.6524047852
251.7588195801 18.1240272522 175.0999908447
249.0251464844 23.3299999237 173.3730010986
286.8316650391 47.3173675537 152.6300048828
255.3767089844 45.2397270203 170.9299926758
235.1689453125 14.6281824112 186.7870025635
282.4038085938 45.7472038269 160.3211975098
283.4139709473 44.7400016785 154.0438079834
240.6472320557 21.6753559113 180.1000061035
238.6997528076 14.6000003815 170.4300079346
299.3397521973 75.0899963379 155.3899993896
247.0872344971 14.4753551483 188.8500061035
301.6097412109 70.3600006104 153.5200042725
244.6539611816 27.0200004578 166.7938079834
240.3755798340 7.3359174728 186.0989990234
286.7236328125 52.7769851685 150.2895965576
282.4940185547 45.8722076416 148.2600097656
217.4946594238 3.1023464203 158.9199981689
260.3351440430 39.7099990845 167.9530029297
224.9718627930 4.9175252914 163.2119903564
298.3167114258 78.6097259521 160.1900024414
305.5072021484 61.5753555298 151.2500000000
229.6213989258 8.8299999237 164.2588043213
239.8333129883 8.0026950836 174.4279937744
289.8674011230 53.7798652649 152.1000061035
247.6749877930 34.4769248962 174.7453918457
238.1740722656 10.6628427505 191.5899963379
273.4714050293 37.0699996948 158.0988006592
286.8952941895 81.1269226074 168.3040008545
236.0688171387 11.0140266418 179.8000030518
247.5089569092 38.6181831360 169.2070007324
241.7552947998 11.3769235611 175.5940093994
237.0014038086 5.0999999046 189.2187957764
280.0453186035 43.5269241333 158.1540069580
266.8720703125 42.6303901672 162.4669952393
233.5582733154 9.3733749390 183.4160003662
299.1782836914 55.1133766174 158.3759918213
249.7316894531 17.3173675537 183.3000030518
250.0246582031 18.4523468018 174.5399932861
298.2719116211 55.5089874268 158.7980041504
213.9274291992 6.2798657417 156.4900054932
248.1292114258 20.8875923157 185.5281982422
238.5082550049 23.9873065948 182.0410003662
241.9486083984 16.2356109619 190.1576080322
291.9427185059 78.1001052856 166.5889892578
233.7321319580 6.5369358063 163.0131988525
241.8802947998 13.3998394012 194.1349945068
249.7249908447 30.0469264984 175.5853881836
228.8220672607 4.8780503273 165.1520080566
275.9500122070 39.3308448792 162.5700073242
301.4108581543 61.2929687500 154.6999969482
229.4688262939 3.1440267563 159.5699920654
300.2398071289 62.2657165527 156.3717956543
228.7597503662 4.8000001907 155.4600067139
246.3302917480 37.4098396301 170.4250030518
283.4647827148 84.0753250122 177.0910034180
236.9617614746 14.2368049622 174.2710113525
232.2567138672 6.5597267151 173.8000030518
270.9053039551 41.3269233704 163.8939971924
214.3625793457 8.8599996567 155.9280090332
233.8679199219 17.6576213837 180.8470001221
303.5971984863 66.0853576660 146.2300109863
243.8382720947 31.7933750153 170.8560028076
291.3153076172 77.9969177246 167.5039978027
243.8425903320 16.9200000763 180.1679992676
246.2517547607 18.8768062592 182.5110015869
291.1034851074 76.9430465698 167.9759979248
233.9046630859 9.2123470306 173.5200042725
303.6004943848 63.7669334412 156.8973999023
231.9457550049 8.7559022903 188.0530090332
306.0432128906 68.1945800781 154.9379882812
238.1657562256 22.4059028625 180.8229980469
233.9046630859 9.2123470306 173.5200042725
289.1936340332 53.4569854736 152.2695922852
230.0051422119 12.3699998856 164.7030029297
287.4421997070 81.7598724365 167.9700012207
251.0086059570 39.3756103516 169.9875946045
231.9667053223 9.0897264481 152.9400024414
232.8974304199 19.0598659515 178.9400024414
278.8014221191 49.5800018311 154.2687988281
236.7038269043 3.9784781933 165.3914031982
243.7859649658 39.7088012695 172.3768005371
215.3359680176 3.3388016224 155.9067993164
244.2167053223 20.9197254181 186.8399963379
232.2272338867 7.3853554726 157.9400024414
245.5536499023 43.1678276062 172.2239990234
296.3822021484 52.1898689270 153.5800018311
304.0608520508 58.0729675293 162.1399993896
218.8716888428 2.5973677635 156.8200073242
246.2787475586 26.3959960938 175.5286102295
292.1108398438 77.3929748535 168.0500030518
238.8186187744 16.1917724609 171.5759887695
277.4946899414 81.0823516846 174.1000061035
288.7907104492 51.6066436768 155.0260009766
266.8720703125 42.6303901672 162.4669952393
213.6427307129 11.4601039886 158.7989959717
278.2457885742 78.3658981323 173.8630065918
280.7038269043 49.9572067261 158.3511962891
219.6008605957 6.1829700470 160.1299896240
244.6907196045 36.6366424561 174.5760040283
289.8738098145 48.1384773254 154.7014007568
241.7827758789 35.5689926147 176.3861999512
286.7097473145 75.9400024414 162.5800018311
241.1949920654 12.7869262695 185.0553894043
242.8999938965 38.1008453369 171.4799957275
245.0852813721 12.4669237137 193.3040008545
243.4947814941 36.0953216553 168.1909942627
295.1267089844 49.8897247314 153.6499938965
239.2997589111 21.0000000000 179.8200073242
263.9566955566 49.8697280884 166.3000030518
245.2874298096 31.5098667145 170.6300048828
263.9608459473 49.4229698181 168.7500000000
304.3282775879 58.7933769226 152.1459960938
244.3992614746 23.5692005157 177.1242065430
214.7313995361 5.4699997902 155.2588043213
300.8433837891 73.5598678589 161.7526092529
246.0820617676 22.0680522919 174.8619995117
236.3633117676 7.9226951599 171.4380035400
233.6889648438 10.7992649078 164.4489898682
250.9374237061 38.1498641968 171.6699981689
231.2986145020 12.2656116486 188.4676055908
243.7859649658 39.7088012695 172.3768005371
264.9642944336 45.8740730286 164.3023986816
296.4872131348 54.7853546143 151.6600036621
297.7414245605 70.2099990845 152.7187957764
243.3482818604 11.0833749771 188.8560028076
239.0894012451 15.7725353241 174.6040039062
304.3372192383 73.1553573608 154.3300018311
232.9508666992 13.7829694748 185.0599975586
244.3174285889 25.4298667908 179.0299987793
293.8408508301 48.9429664612 154.2099914551
236.5499877930 4.4052367210 165.0773925781
248.7067108154 18.8497257233 183.8600006104
291.5482788086 46.3333778381 148.4059906006
217.4946594238 3.1023464203 158.9199981689
248.2782745361 26.3733749390 166.3659973145
260.3582458496 43.7273063660 171.7510070801
228.0317687988 12.5268049240 166.3710021973
271.7472229004 46.2253532410 163.3200073242
239.8264770508 6.3012347221 173.6999969482
302.0099792480 59.2352371216 149.3873901367
242.6097869873 20.4457149506 178.0118103027
232.0574188232 12.4798660278 183.4600067139
268.5046691895 42.6223449707 165.9100036621
280.9692382812 87.5892028809 177.6242065430
254.2836456299 45.0178260803 167.9140014648
297.7459411621 68.6287994385 156.9768066406
291.9646911621 48.4423446655 153.2599945068
302.4321289062 55.7169380188 153.9731903076
287.2341003418 88.4628448486 168.2500000000
286.1292114258 44.4075965881 155.5782012939
293.9666137695 83.9816894531 164.7857971191
274.1402893066 43.2898368835 167.4850006104
271.3708496094 45.8329696655 171.4299926758
273.2917480469 42.0068054199 161.7310028076
290.0284423828 84.9062805176 166.7197875977
285.0455932617 43.3659172058 159.2890014648
237.5299987793 15.9552364349 179.8973999023
231.8367156982 7.9997267723 159.3399963379
235.2379150391 17.1976222992 179.0569915771
228.2388153076 8.5840263367 168.0000000000
275.0240783691 43.4428405762 161.3300018311
281.9389648438 79.0981826782 173.4570007324
222.0927276611 6.4101037979 166.0289916992
301.5466003418 61.1516914368 152.5157928467
295.2973937988 56.6398658752 153.0599975586
277.1640014648 41.5422058105 157.1399993896
221.5288238525 2.7640266418 166.4899902344
225.0418701172 4.7575254440 161.8719940186
295.9697265625 76.3600006104 158.2500000000
244.7908630371 24.1729698181 175.6299896240
300.6440124512 54.6022071838 157.8200073242
247.4183959961 34.2379608154 170.5159912109
230.0846557617 2.9823465347 166.4199981689
243.4947814941 36.0953216553 168.1909942627
262.7702941895 38.3398399353 173.0549926758
282.5689697266 81.1892623901 173.4689941406
263.8421325684 38.8369369507 170.7231903076
251.6249847412 45.3869247437 174.6553955078
229.7117614746 13.9068050385 165.9210052490
246.4288177490 35.9640274048 174.8000030518
244.1838073730 34.7972030640 175.2012023926
245.9283905029 25.5679626465 180.6860046387
297.1274108887 56.8198623657 159.9700012207
236.4089508057 16.5081844330 177.0269927979
234.9372253418 14.7753553391 188.1500091553
240.7072296143 10.2453546524 171.8099975586
232.3940734863 12.7528429031 167.4599914551
298.8574218750 78.4198684692 156.0500030518
274.4453125000 36.3569221497 163.0839996338
302.6040954590 66.5828399658 156.5199890137
242.2116851807 13.4673681259 171.6000061035
245.2582702637 32.3533782959 170.9160003662
224.1221313477 3.9669358730 163.9431915283
238.9140777588 4.3328423500 192.3600006104
234.0217590332 8.0768051147 192.0310058594
247.4613952637 28.3299999237 165.4588012695
305.5072021484 61.5753555298 151.2500000000
257.4714050293 43.5499992371 165.3787994385
293.8992004395 51.2975959778 156.3582000732
306.0432128906 68.1945800781 154.9379882812
245.3536224365 25.9069824219 175.8495941162
301.7048034668 61.6353225708 155.2209930420
235.3240661621 7.6828422546 193.8399963379
308.4266967773 59.1197280884 158.5500030518
238.3446655273 5.4823465347 170.7799987793
297.9421386719 54.1769371033 153.4031982422
301.2616882324 69.5773696899 153.1600036621
244.4820556641 21.5480518341 179.3920135498
285.9351501465 76.7399978638 162.3730010986
273.4714050293 37.0699996948 158.0988006592
233.4983825684 5.5979614258 161.1360015869
231.4274291992 8.7798652649 162.6300048828
261.4216613770 41.7973670959 164.5299987793
268.0464782715 42.0612335205 165.6800079346
233.4957580566 5.4559025764 192.8430023193
261.4359436035 46.5388031006 167.8968048096
235.2121429443 4.8069357872 171.4531860352
301.3564758301 54.6712341309 156.4700012207
245.6788177490 20.3040256500 182.4400024414
235.2121429443 4.8069357872 171.4531860352
251.3351440430 37.7299995422 167.3030090332
296.8639831543 58.6899986267 158.4938049316
245.1486053467 24.7456111908 178.1175994873
231.7686004639 6.5456109047 170.2476043701
305.8516845703 60.8393554688 160.1604003906
235.3572235107 7.9253554344 166.6399993896
231.4274291992 8.7798652649 162.6300048828
253.0292053223 43.2875938416 173.8881988525
253.9289550781 23.7581844330 175.5269927979
244.5097503662 21.3799991608 180.4800109863
245.4221954346 21.7798690796 175.9700012207
263.3382873535 41.8433761597 165.9059906006
241.3286285400 28.2217712402 181.4759979248
306.1466979980 63.2097244263 154.9400024414
235.7064666748 2.9212350845 169.8600006104
267.5466003418 46.3516921997 164.1357879639
276.9266967773 45.0800018311 155.5520019531
213.0972290039 9.8553552628 156.6999969482
237.6879119873 5.5776214600 193.7969970703
247.5116577148 30.8093566895 173.9004058838
238.3446655273 5.9123463631 169.0500030518
247.5827789307 18.7589950562 186.6161956787
275.9833679199 46.9798660278 160.6826019287
237.5446624756 6.4223465919 188.5800018311
300.4187927246 76.0540237427 161.0500030518
280.9357910156 84.9959030151 166.8529968262
304.7478942871 78.4176254272 161.3569946289
239.2997589111 21.0000000000 179.8200073242
240.4339904785 20.0022068024 182.0000000000
303.4893798828 68.8325347900 150.8440093994
238.9088287354 3.0240268707 191.8000030518
295.4488220215 51.2040252686 154.0999908447
230.9159698486 10.4988012314 187.1068115234
267.0856018066 42.1059188843 163.4989929199
296.5418701172 53.4175262451 150.0419921875
232.7814025879 12.8900003433 176.0088043213
237.7308654785 10.4929695129 171.5299987793
306.0549621582 69.7969207764 152.5354003906
297.2736206055 60.0469856262 158.7796020508
229.9916534424 8.3393573761 160.0004119873
273.4414062500 40.7200012207 156.8287963867
299.5382690430 72.7633743286 157.6159973145
273.8236389160 44.4569854736 157.4196014404
253.1592102051 40.9975967407 172.7881927490
262.3340148926 42.3622055054 166.3200073242
280.7038269043 49.9572067261 158.3511962891
278.5699768066 53.0852355957 154.1973876953
254.8689727783 22.7592658997 175.1589965820
239.4020538330 8.4903879166 183.9770050049
243.9632873535 27.5681037903 180.5240020752
260.8839721680 45.5900001526 161.9738006592
305.4499816895 71.3652420044 152.1174011230
296.1040039062 47.8722076416 150.7500000000
299.7467651367 80.8020172119 156.0846099854
293.4072265625 74.7053527832 159.8800048828
243.0039978027 21.5622081757 180.8000030518
274.3566894531 41.3400001526 156.2019958496
229.6152954102 8.0169239044 168.1340026855
230.3225860596 6.1399998665 153.9880065918
211.8457641602 6.5159025192 159.1329956055
244.3452911377 38.2369232178 171.1540069580
235.6389465332 9.4881830215 187.6470031738
302.2497253418 65.4100036621 145.9500122070
244.8017578125 16.8068065643 190.6809997559
244.4338073730 6.8372049332 171.9812011719
228.2674255371 7.5098657608 159.9100036621
254.2388153076 37.5740280151 172.7299957275
235.7064666748 2.9212350845 169.8600006104
247.5838012695 24.5672054291 178.5711975098
234.9643096924 13.9840755463 176.4624023438
284.9031982422 84.1445770264 175.3479919434
290.4999694824 76.4952392578 162.1673889160
240.6782836914 11.1633749008 173.3260040283
263.7886047363 48.0856094360 170.6376037598
248.8899993896 27.4708442688 170.7700042725
226.7959594727 4.3288011551 157.3868103027
244.9855804443 19.9959163666 178.7790069580
221.0674285889 7.4498658180 159.6800079346
300.9316711426 54.8273658752 160.1399993896
289.8999938965 84.4052429199 165.4173889160
233.9297790527 2.4557147026 166.6118011475
276.2733764648 52.6298675537 156.8825988770
242.1059570312 32.5388031006 172.2168121338
243.9782714844 36.8433761597 168.3659973145
270.4639587402 45.6599998474 158.1238098145
231.4946594238 4.5923466682 154.8099975586
236.1997528076 9.2500000000 183.4400024414
214.3679199219 7.9376215935 160.7569885254
216.7794036865 9.9425354004 158.8540039062
245.2336273193 29.3569812775 167.8795928955
239.2051391602 21.5900001526 180.0530090332
213.0314025879 8.6499996185 156.2588043213
214.7313995361 5.4699997902 155.2588043213
237.6879119873 5.5776214600 193.7969970703
303.6638183594 66.9972076416 156.5211944580
288.1889648438 80.5992660522 163.9389953613
249.9192047119 31.1475925446 171.8981933594
275.4340209961 48.7322044373 157.5800018311
245.6788177490 20.3040256500 182.4400024414
279.7963256836 77.6986999512 172.6450042725
292.3836364746 55.1669845581 154.1295928955
245.3732757568 42.2281074524 168.7740020752
243.9367065430 43.1997261047 171.3000030518
244.2259674072 38.3588027954 172.8468017578
263.6772155762 46.1353530884 164.7500000000
236.0179138184 6.8776216507 194.4669952393
261.0446777344 46.8523445129 166.2400054932
294.8388061523 52.0440254211 156.3799896240
286.0557861328 74.8959045410 166.2530059814
243.3139953613 10.7522068024 189.4100036621
246.3222045898 31.7898693085 170.8799896240
290.7493896484 53.6725349426 150.2340087891
250.6897888184 37.8057174683 167.3818054199
230.0947875977 2.1553232670 160.8309936523
232.8974304199 19.0598659515 178.9400024414
222.4574279785 6.9198660851 161.0899963379
273.3184509277 45.5762786865 158.7798004150
250.0992126465 15.2675943375 181.7682037354
274.5286254883 52.5417747498 156.9359893799
232.0540771484 6.9428424835 160.1799926758
241.4892120361 8.4775943756 184.9481964111
216.1622009277 2.7298691273 156.9299926758
242.0565795898 19.3616924286 188.4757995605
296.8374023438 58.5498657227 155.3899993896
217.5967102051 9.0897264481 158.3499908447
245.5536499023 43.1678276062 172.2239990234
247.6521301270 33.9169387817 171.8231964111
298.9333801270 60.9298667908 153.1826019287
238.8338012695 10.4872045517 177.0811920166
246.4340667725 37.2728424072 175.3600006104
274.2582702637 38.7633781433 157.7359924316
291.4640197754 45.2822074890 149.8000030518
299.3898010254 57.2857170105 150.9217987061
246.3321380615 17.1769351959 185.6931915283
246.5686035156 24.3556098938 178.4976043701
250.3659667969 40.0088043213 168.9568023682
245.5536499023 43.1678276062 172.2239990234
304.0916748047 73.6893539429 156.6304016113
219.1739501953 6.8499999046 155.2638092041
243.9317626953 19.1868057251 182.8510131836
298.2648010254 51.8553199768 155.1710052490
252.6043090820 21.3040752411 173.1224060059
288.7563171387 46.5286979675 149.0350036621
233.0255737305 1.9359169006 161.2089996338
244.6567077637 17.1597270966 188.3099975586
271.9103088379 40.7098388672 168.6450042725
299.9440917969 74.9828414917 161.0499877930
304.9138183594 66.1272048950 156.6311950684
238.3449859619 14.7069253922 189.7653961182
267.5567016602 44.9799995422 161.1419982910
302.2246704102 63.3823432922 148.4700012207
299.3397521973 75.0899963379 155.3899993896
255.6552886963 41.5269241333 170.8339996338
292.9908447266 80.1129684448 166.4299926758
288.0117492676 52.2168045044 149.4710083008
285.0527954102 45.1589927673 160.0561981201
234.5467071533 15.3897266388 189.5500030518
273.8327026367 46.7201004028 167.0789947510
229.5014038086 11.1199998856 164.5787963867
305.4499816895 71.3652420044 152.1174011230
231.9457550049 8.7559022903 188.0530090332
283.1967773438 90.2520217896 166.4645996094
234.0021972656 8.7398691177 175.2200012207
234.4091339111 8.0658607483 171.0740051270
277.3846740723 45.9223442078 155.5899963379
280.6897277832 84.6600036621 171.9900054932
302.6040954590 66.5828399658 156.5199890137
245.4797515869 38.1899986267 167.8600006104
287.2140197754 74.7322082520 163.1399993896
234.3151397705 6.5399999619 190.8130035400
235.3572235107 7.9253554344 166.6399993896
250.9516906738 29.7373676300 168.2899932861
294.7332153320 81.5545806885 165.5179901123
233.2837982178 2.8672049046 173.6712036133
266.1882629395 41.3033752441 164.6759948730
280.6257629395 49.5659027100 152.0330047607
293.6988220215 48.1140251160 153.8199920654
298.3104858398 54.8069343567 157.3973999023
239.4020538330 8.4903879166 183.9770050049
301.7336120605 61.9369850159 152.6595916748
252.4933013916 43.7226943970 173.2779998779
239.6843109131 9.1540756226 168.5823974609
298.2708435059 56.6629676819 162.5000000000
248.1552886963 14.5469245911 183.3939971924
240.5686187744 41.7317733765 169.5759887695
289.9106750488 52.9210243225 156.9701995850
285.0155944824 43.2659187317 156.7290039062
244.9208679199 39.7829666138 174.6499938965
276.6821289062 36.6769371033 159.9131927490
233.8439483643 8.3900003433 175.9237976074
304.0608520508 58.0729675293 162.1399993896
305.4464721680 69.4312362671 156.8000030518
283.3372192383 47.7553558350 147.9800109863
244.3072357178 34.6153526306 170.0299987793
232.5063018799 13.8287000656 176.4349975586
304.1597290039 60.9000015259 150.9700012207
302.4321289062 55.7169380188 153.9731903076
243.1174163818 6.8798661232 167.5500030518
240.3755798340 7.3359174728 186.0989990234
300.6063232422 68.0687026978 156.5350036621
233.8372344971 8.9353551865 152.0000000000
248.0849914551 29.0869255066 177.2953948975
245.1197509766 23.8299999237 173.3899993896
244.9633941650 21.6898689270 187.0626068115
298.1851501465 70.3600006104 151.6829986572
218.3731842041 3.3245782852 154.6279907227
223.2294006348 7.5225353241 164.1640014648
285.8374023438 51.4998626709 152.0800018311
249.0747833252 35.4853210449 170.7409973145
281.3914184570 48.8899993896 147.6887969971
230.1259613037 6.1988010406 154.4968109131
249.3716888428 39.1673660278 171.3399963379
234.5067138672 15.1697263718 178.7099914551
282.5097961426 82.7267532349 165.3899993896
297.5289611816 49.4281806946 150.9769897461
280.5697326660 48.0299987793 147.1699981689
300.6238098145 75.0972061157 160.7911987305
251.3351440430 37.7299995422 167.3030090332
245.9839935303 36.9822044373 168.4199981689
249.8886108398 20.7656097412 176.2976074219
237.5016632080 12.4293575287 185.4004058838
240.9586029053 19.4956111908 186.4976043701
221.2136230469 7.2469825745 157.5596008301
234.8464660645 9.1712341309 179.5400085449
234.7672271729 12.3153553009 173.6000061035
283.1589660645 48.9292640686 147.4389953613
269.9340820312 45.6428413391 166.1899871826
238.6139984131 5.9622068405 187.7400054932
297.4236145020 58.1969833374 153.5296020508
230.4440765381 13.2128419876 181.1100006104
235.8172302246 10.6353549957 172.4000091553
275.0688171387 35.1240272522 160.1999969482
306.9467163086 68.4097290039 150.4900054932
237.7188262939 5.0840268135 170.3199920654
256.7986145020 43.1956100464 170.2276000977
245.0238037109 17.9472045898 187.9611968994
242.4440002441 13.1122064590 186.4199981689
287.4072265625 88.9053573608 166.0100097656
242.1159667969 16.1188011169 184.6567993164
231.8240661621 3.9628424644 167.5399932861
234.3879241943 13.7976217270 190.4869995117
297.3657836914 69.2759017944 153.7129974365
241.3659667969 33.2088012695 173.3868103027
305.3016662598 76.9473724365 159.8800048828
219.7274169922 6.8998661041 158.7299957275
299.1140747070 60.3328399658 159.6299896240
235.5686035156 8.1656112671 193.2476043701
246.6632843018 16.0181045532 179.4340057373
227.6057586670 7.5559029579 166.8529968262
295.7673950195 77.4198684692 159.0899963379
268.1216735840 42.2273674011 166.3099975586
238.9097595215 6.6599998474 167.6500091553
231.7982788086 2.4133749008 164.6259918213
232.3726348877 2.6468000412 162.2830047607
223.7040710449 6.4028425217 165.1799926758
240.0021362305 11.0069351196 174.0031890869
239.9252929688 10.8869237900 177.0940093994
303.2716674805 80.5593566895 160.0503997803
247.3033905029 36.7698669434 175.3825988770
229.1767578125 10.9420156479 155.7046051025
261.2157897949 47.1159019470 166.7230072021
287.2592163086 83.4475936890 172.1582031250
282.9002990723 46.3898391724 149.8750000000
303.8200073242 63.2508468628 149.4400024414
231.8686065674 11.7556114197 189.6175994873
250.5797576904 36.3600006104 169.4400024414
244.6974182129 36.0898628235 170.8300018311
232.0017547607 16.5168056488 186.3810119629
305.6087951660 57.1340255737 155.7899932861
267.5489501953 44.6581802368 169.5269927979
253.7816619873 45.2993545532 170.2203979492
289.3099670410 48.4052352905 152.5873870850
249.4738006592 23.3372039795 177.7512054443
252.4933013916 43.7226943970 173.2779998779
287.0740051270 50.1022071838 149.6500091553
232.7639923096 10.2122068405 183.1800079346
241.8108673096 33.9829673767 174.6900024414
231.4274291992 8.7798652649 162.6300048828
231.1502838135 13.4498395920 181.1649932861
228.9782562256 15.5073060989 181.5709991455
217.5008697510 5.8229699135 159.1399993896
223.7321319580 2.7069356441 162.0731964111
240.3821411133 6.8969359398 190.6531982422
230.7257537842 6.4259028435 153.2429962158
243.9274291992 42.1598625183 172.2200012207
235.1689453125 14.6281824112 186.7870025635
281.3182678223 43.4133758545 157.1459960938
303.4243164062 71.9440765381 154.1623992920
277.1640014648 41.5422058105 157.1399993896
291.7227172852 52.7101020813 149.7089996338
230.4933929443 18.2698688507 182.1126098633
246.3321380615 17.1769351959 185.6931915283
236.7649841309 11.8169260025 170.6653900146
240.9798126221 34.2167510986 169.6399993896
245.0574188232 38.0998649597 173.6800079346
250.4214019775 20.2099990845 172.6688079834
240.2272338867 23.6253566742 178.8800048828
296.2816772461 56.6593551636 154.3104095459
292.1108398438 77.3929748535 168.0500030518
239.1679229736 8.7276220322 191.9169921875
240.1808624268 10.3729696274 191.1900024414
243.8579101562 14.2776212692 194.7269897461
237.7921447754 5.1069359779 168.2131958008
265.4839782715 43.5800018311 160.8137969971
305.6943054199 61.8440742493 151.6923980713
232.9508666992 13.7829694748 185.0599975586
235.2379150391 17.1976222992 179.0569915771
286.7097473145 75.9400024414 162.5800018311
291.8864746094 50.0412330627 155.1000061035
299.5733642578 79.8198699951 158.0026092529
242.2727355957 28.5101032257 181.9189910889
294.7553100586 50.7969245911 154.7640075684
294.5787963867 72.5440292358 162.4799957275
236.0266876221 8.2600002289 172.0820007324
288.7786254883 53.2817726135 148.8059997559
297.8917541504 71.8968048096 152.9010009766
223.0092163086 1.6975938082 161.6381988525
259.4159545898 39.8588027954 169.9568023682
271.3567199707 46.8397254944 164.7200012207
247.1974182129 43.3898658752 170.6399993896
231.5898132324 -0.8832484484 170.0000000000
244.5097503662 21.3799991608 180.4800109863
294.8203125000 47.3798370361 153.6849975586
244.0586090088 29.5456104279 174.1576080322
275.4340209961 48.7322044373 157.5800018311
246.3222045898 31.7898693085 170.8799896240
237.4583892822 12.3179616928 172.3459930420
290.4097900391 50.6057167053 156.7418060303
284.7849731445 90.5669250488 167.6153869629
264.7197875977 41.9667510986 168.0000000000
306.1416625977 60.6573677063 152.0899963379
243.5466766357 20.3799991608 182.6119995117
214.8327789307 5.9389939308 161.5261993408
249.4721374512 15.8969364166 182.0331878662
231.4859619141 9.9888010025 188.2568054199
286.0557861328 74.8959045410 166.2530059814
237.8182830811 3.1433749199 190.1259918213
239.2172241211 11.9653549194 172.4100036621
237.3155822754 10.9859170914 182.0690002441
212.8486022949 7.0856113434 160.6376037598
287.7863159180 84.5287017822 165.0749969482
222.2067108154 6.6997265816 166.3000030518
223.9236450195 7.1278257370 159.1640014648
236.6621398926 11.5169353485 178.7631988525
243.3197479248 5.8200001717 166.7100067139
294.8203125000 47.3798370361 153.6849975586
239.4072265625 10.8253545761 169.5700073242
296.2816772461 56.6593551636 154.3104095459
254.3000030518 36.8808441162 172.1999969482
239.4972229004 36.7153549194 168.9400024414
221.3286285400 6.9717721939 161.3959960938
298.5453186035 74.5369186401 160.8939971924
284.5843200684 49.8540725708 149.1123962402
280.7806701660 86.5210266113 179.7102050781
305.3016662598 76.9473724365 159.8800048828
226.7959594727 4.3288011551 157.3868103027
293.7221374512 80.9569320679 167.3831939697
300.9316711426 54.8273658752 160.1399993896
244.7208709717 14.3529701233 182.7099914551
296.8416748047 75.4473724365 164.4300079346
247.4613952637 28.3299999237 165.4588012695
286.0397338867 50.4399986267 151.2400054932
246.7979125977 15.6076221466 193.1169891357
219.4246673584 2.9823465347 160.1000061035
292.2373962402 78.1098709106 166.6500091553
241.0967102051 16.5997276306 172.9199981689
217.0886077881 4.9956111908 159.4575958252
295.4967041016 77.1900024414 160.7619934082
287.0551452637 86.2799987793 164.2630004883
228.5382843018 7.8033752441 165.8659973145
245.9997863770 26.2957153320 176.9118041992
280.4759521484 47.6788024902 149.9568023682
231.4716644287 7.9693570137 160.0004119873
232.5867156982 9.0097265244 163.4700012207
235.9372253418 17.8953552246 176.7799987793
247.3621368408 22.9969348907 179.6831970215
248.1638031006 16.6672058105 184.3011932373
271.3567199707 46.8397254944 164.7200012207
234.5872344971 15.0653553009 179.2100067139
236.7162933350 3.4886996746 190.9550018311
296.0288085938 74.6140289307 165.2700042725
231.9736175537 7.7069826126 167.9795989990
288.9572143555 86.0253524780 164.8500061035
247.6749877930 34.4769248962 174.7453918457
267.8704833984 44.7769355774 165.3873901367
241.4116668701 9.9993572235 170.7704010010
249.7316894531 17.3173675537 183.3000030518
228.2440643311 9.8928422928 168.5599975586
242.4016876221 9.7973680496 187.3600006104
270.1867675781 47.1120147705 159.2746124268
265.1033935547 46.0998687744 165.4326019287
234.3836212158 12.1069831848 173.4795989990
272.8116760254 41.4673652649 161.8399963379
296.5040893555 79.4528427124 165.3600006104
241.0521392822 7.8269362450 188.4832000732
305.4533081055 71.1326980591 157.5279998779
274.3646850586 49.1923446655 158.4199981689
287.4108581543 86.8229751587 167.9700012207
232.1043090820 6.9740753174 157.7324066162
245.9440765381 6.5428423882 170.1399993896
300.9633789062 63.9798660278 154.9826049805
288.6508483887 46.5629692078 152.9400024414
297.6149902344 52.4069252014 150.4953918457
243.8239898682 4.6122069359 167.2700042725
250.3538208008 36.7584762573 172.6513977051
277.3388061523 41.0240249634 160.0899963379
236.3055725098 2.0059168339 167.3789978027
251.0272216797 26.0953559875 174.6699981689
300.4072265625 78.0353546143 155.4900054932
241.7713928223 14.3500003815 186.1488037109
232.8616943359 6.4673676491 158.7799987793
298.1282653809 73.5233764648 157.4759979248
287.4272155762 78.2353515625 162.6399993896
246.4967651367 28.7720165253 176.1446075439
247.7221374512 34.6769371033 173.1531982422
301.8699645996 80.2752380371 155.3173980713
281.0189819336 80.4292602539 172.2389984131
239.8917694092 16.4968051910 192.5110015869
280.9692382812 87.5892028809 177.6242065430
241.7117614746 17.8268070221 192.5010070801
271.4974060059 46.5498657227 170.0299987793
296.7420654297 75.5780563354 157.8520050049
255.3447875977 44.3453216553 166.6909942627
231.1082763672 2.9333748817 163.3759918213
244.5546569824 23.0823459625 174.7899932861
233.1487426758 8.7259960175 177.6885986328
246.1231842041 20.0645771027 184.0679931641
294.6239624023 75.0699996948 159.4338073730
234.3879241943 13.7976217270 190.4869995117
237.1186218262 15.3817720413 173.1759948730
242.3638000488 25.0372047424 184.4011993408
281.9172058105 48.7053527832 147.4499969482
267.0355834961 46.6659164429 170.4689941406
282.4546813965 45.9023475647 154.1399993896
299.9440917969 74.9828414917 161.0499877930
289.5716857910 53.7593536377 153.6804046631
242.4997558594 22.7700004578 180.2400054932
283.6340026855 81.8722076416 173.5000000000
232.5916595459 9.4993572235 154.9504089355
212.6651458740 7.5999999046 157.1029968262
285.5659484863 77.1388015747 166.0568084717
253.0116577148 44.6693572998 171.3904113770
231.3088226318 2.9840269089 164.7399902344
234.5872344971 15.0653553009 179.2100067139
288.0251464844 48.2799987793 148.2230072021
233.0255737305 1.9359169006 161.2089996338
303.8200073242 63.2508468628 149.4400024414
224.8239593506 6.1599998474 155.6238098145
218.3731842041 3.3245782852 154.6279907227
235.1067047119 8.7397260666 193.0000000000
268.5597534180 42.5999984741 160.9800109863
303.6004943848 63.7669334412 156.8973999023
254.5782775879 41.3133773804 168.5659942627
249.2083892822 26.9279613495 173.4160003662
284.5826416016 43.7268028259 158.0729980469
242.3616943359 12.0973682404 176.2299957275
233.0479125977 4.9676218033 174.4969940186
228.5382843018 7.8033752441 165.8659973145
305.4816894531 69.5193557739 151.8104095459
249.7249908447 30.0469264984 175.5853881836
243.0040740967 21.2828426361 186.0999908447
269.7820739746 42.3380508423 160.8720092773
240.0765838623 12.2116928101 185.6457977295
249.9121398926 27.5569362640 171.9031982422
286.4189453125 47.4981803894 150.7469940186
300.0239562988 79.3499984741 154.9338073730
300.6949768066 62.2269248962 152.4153900146
289.0727844238 47.7989921570 155.6561889648
308.6387939453 56.7540283203 158.8300018311
235.3738098145 13.0672044754 186.6712036133
244.5546569824 23.0823459625 174.7899932861
296.7687988281 48.0040283203 152.1499938965
285.3199768066 89.7252426147 165.6973876953
250.8340759277 28.5928440094 167.9899902344
265.1567687988 49.5920143127 168.9346008301
234.5467071533 15.3897266388 189.5500030518
282.8764648438 43.7512359619 157.9600067139
283.2147827148 79.4253234863 174.7510070801
282.3140869141 44.7928428650 160.2299957275
281.3859558105 46.2088012695 154.9268035889
301.2617492676 80.4968032837 157.5709991455
243.9542999268 15.4440755844 186.6024017334
229.8008728027 1.7129697800 171.8799896240
240.9079132080 21.9276218414 183.7070007324
265.2067871094 45.0320167542 161.9645996094
213.2239532471 5.6199998856 158.0738067627
242.3804626465 17.7869358063 189.7274017334
299.5640258789 76.1522064209 155.7700042725
238.3857574463 20.5059032440 182.0830078125
252.9346618652 20.1523456573 177.1199951172
297.0308532715 77.6629714966 160.7500000000
274.3451538086 38.0800018311 157.9430084229
234.3151397705 6.5399999619 190.8130035400
285.1743164062 87.5540771484 164.8824005127
287.7746887207 74.6223526001 167.7400054932
295.7027282715 55.0701026917 150.3190002441
243.5874176025 31.4998664856 171.0899963379
232.0597534180 5.3400001526 153.4100036621
255.7889556885 21.4281845093 176.3769989014
296.2142944336 78.8540802002 161.2023925781
275.9819335938 48.1989898682 158.1280059814
305.2752990723 63.7669258118 154.2839965820
236.7567596436 14.3920154572 188.6146087646
292.1108398438 77.3929748535 168.0500030518
240.2246551514 18.1923465729 185.2299957275
297.2921447754 78.1869354248 163.8731994629
292.2008666992 49.5329666138 154.0999908447
241.8943023682 11.8340749741 187.9123992920
248.4867095947 31.2697257996 170.8099975586
249.0747833252 35.4853210449 170.7409973145
245.4897613525 30.4500007629 169.7900085449
232.8546600342 10.8923473358 174.7200012207
260.3351440430 39.7099990845 167.9530029297
250.1388244629 28.9040260315 169.1299896240
294.3151550293 53.2000007629 147.8830108643
271.7472229004 46.2253532410 163.3200073242
298.5453186035 74.5369186401 160.8939971924
232.2037963867 10.3872051239 168.3211975098
275.0240783691 43.4428405762 161.3300018311
293.4007263184 83.5466461182 166.2460021973
278.2251281738 48.9300003052 155.5030059814
263.7886047363 48.0856094360 170.6376037598
266.3778991699 45.3476181030 171.5569915771
230.4388275146 11.9040260315 180.5500030518
233.4197540283 11.6400003433 173.3200073242
291.7227172852 52.7101020813 149.7089996338
230.9159698486 10.4988012314 187.1068115234
232.8952941895 15.2669239044 180.9840087891
296.1040039062 47.8722076416 150.7500000000
249.7913970947 22.3400001526 172.8188018799
250.4214019775 20.2099990845 172.6688079834
291.8936157227 55.2069854736 151.8896026611
231.8307189941 7.3566446304 161.1560058594
273.9383850098 44.8679618835 157.6559906006
295.3147888184 73.4153213501 160.2010040283
232.6120605469 9.3380508423 176.3120117188
295.0463256836 51.4486999512 148.6950073242
229.4267120361 7.7397265434 160.7500000000
262.5522155762 41.7098693848 163.3999938965
301.2589111328 70.5658340454 160.9420013428
243.3308715820 24.6629695892 184.8600006104
245.2298126221 12.8167514801 179.9100036621
212.2551422119 9.5900001526 156.3630065918
218.3252868652 2.1869235039 158.1940002441
280.3516845703 51.6693572998 156.9904022217
244.4340667725 19.8628425598 187.6799926758
289.3099670410 48.4052352905 152.5873870850
234.6340789795 15.6428422928 188.4799957275
304.9138183594 66.1272048950 156.6311950684
284.2543029785 86.8740768433 172.0023956299
291.6757812500 49.5858993530 151.7030029297
274.1478881836 45.1876182556 168.2969970703
249.1488189697 20.8440265656 176.7299957275
286.8616638184 85.8393554688 169.0604095459
217.5967102051 9.0897264481 158.3499908447
244.3174285889 25.4298667908 179.0299987793
239.5446624756 13.3523473740 192.8699951172
230.4388275146 11.9040260315 180.5500030518
273.9440002441 38.5622062683 157.7799987793
243.9786071777 35.6256103516 174.9676055908
292.3057861328 47.8558998108 152.8730010986
261.0446777344 46.8523445129 166.2400054932
301.3088073730 54.7340278625 159.2200012207
240.9049835205 19.6669254303 189.2854003906
240.7897491455 39.9300003052 168.0900115967
218.9472351074 5.4353556633 154.2500000000
246.4492187500 17.3775920868 192.6681976318
241.0759582520 3.9688012600 170.6567993164
236.5592041016 8.0575942993 177.4581909180
291.8538208008 49.8872032166 151.4911956787
234.7672271729 12.3153553009 173.6000061035
256.8446655273 41.6523475647 165.7799987793
282.2767028809 47.5697250366 159.1100006104
242.0051422119 16.2900009155 191.2830047607
283.7238159180 83.9572067261 176.5211944580
234.0217590332 8.0768051147 192.0310058594
237.4192047119 3.1475939751 166.2281951904
230.5467071533 14.3697261810 167.1399993896
224.8988189697 2.8940267563 161.1799926758
295.4938354492 81.6984786987 163.9514007568
298.8592224121 74.5475921631 163.0182037354
261.5487976074 41.2140274048 166.8199920654
249.4652862549 21.2169227600 176.8440093994
231.2916564941 10.5293560028 156.5104064941
245.6921386719 15.2869358063 188.3432006836
238.1097564697 7.1700000763 187.1800079346
291.1716613770 77.2193527222 164.4403991699
249.5759582520 40.4688034058 170.1668090820
291.2140197754 79.1622085571 163.8399963379
289.9649658203 77.3369216919 164.0853881836
287.4108581543 86.8229751587 167.9700012207
231.1539916992 2.5222067833 165.5800018311
239.5866851807 13.3199996948 187.0419921875
229.7413940430 7.1399998665 162.4888000488
252.3282775879 35.7833786011 169.2859954834
280.8108520508 44.9029693604 159.9499969482
234.9292602539 15.2791996002 181.1442108154
257.9140014648 41.1922073364 164.9400024414
237.8236236572 10.7669830322 171.6396026611
239.5816650391 14.7193565369 176.6404113770
304.0328063965 75.7089920044 161.9362030029
236.1013946533 7.6100001335 189.6188049316
290.4382629395 73.1733703613 162.6259918213
290.0992431641 53.9892005920 154.8842010498
248.7674255371 31.0398654938 168.0099945068
213.2239532471 5.6199998856 158.0738067627
281.3621520996 47.0769386292 157.1631927490
275.5791015625 44.5458602905 160.5540008545
276.3882751465 40.9233779907 157.5159912109
229.2097625732 7.6799998283 163.0000000000
233.3391265869 14.1558609009 183.2039947510
267.1628112793 45.9489936829 165.8161926270
263.6772155762 46.1353530884 164.7500000000
243.3927307129 18.1601047516 193.7189941406
228.1291351318 7.8458609581 159.7839965820
272.4879150391 43.8376197815 171.4069976807
274.7389526367 45.0681800842 169.3369903564
242.7407073975 20.4166450500 187.8560028076
264.4153137207 42.0569229126 168.1739959717
242.9094085693 38.2225341797 172.2140045166
213.3640747070 10.0728425980 160.3600006104
278.6191101074 47.4158630371 159.7740020752
241.4872283936 15.9853553772 171.5200042725
280.5436401367 88.1778259277 176.4039916992
276.6821289062 36.6769371033 159.9131927490
294.4840087891 77.1222076416 161.2700042725
239.5446624756 13.3523473740 192.8699951172
288.7233886719 53.5098686218 157.1325988770
271.5140075684 36.8822059631 161.5200042725
261.6372070312 44.7253532410 167.6200103760
276.6821289062 36.6769371033 159.9131927490
248.9116821289 24.6273689270 173.0800018311
270.4639587402 45.6599998474 158.1238098145
217.4432830811 8.8981037140 156.4739990234
272.4803161621 41.9398384094 170.5950012207
299.2872009277 60.7753524780 157.3899993896
228.8259582520 5.9288015366 164.7568054199
287.2174072266 82.5098648071 165.4400024414
248.1292114258 20.8875923157 185.5281982422
292.4053039551 73.6269226074 166.0039978027
241.2939910889 38.7222061157 168.6500091553
274.1402893066 43.2898368835 167.4850006104
221.6666870117 3.4000000954 157.6020050049
237.5446624756 6.4223465919 188.5800018311
288.9967041016 53.5297279358 154.2799987793
278.2457885742 78.3658981323 173.8630065918
292.3836364746 55.1669845581 154.1295928955
259.1614074707 42.6800003052 163.5088043213
243.4567718506 19.1620159149 192.2846069336
304.0256042480 73.9159164429 161.1690063477
241.3416900635 9.3273677826 172.6499938965
235.2920684814 7.2880506516 173.9020080566
303.8314208984 62.0200004578 152.0088043213
239.5446624756 13.3523473740 192.8699951172
243.3908691406 15.2129697800 181.9299926758
289.5587463379 51.2959976196 155.7185974121
248.2099914551 33.6352348328 172.8273925781
244.9208679199 39.7829666138 174.6499938965
265.8500061035 42.1908454895 170.3800048828
241.3567047119 16.4297275543 189.5999908447
301.2286071777 67.1756134033 156.0675964355
263.3516845703 41.0073661804 173.7700042725
225.0418701172 4.7575254440 161.8719940186
244.5097503662 21.3799991608 180.4800109863
215.1525878906 7.7500000000 155.9980010986
285.0321350098 83.1869354248 174.2531890869
292.0616760254 78.5273666382 165.8099975586
240.9586029053 19.4956111908 186.4976043701
246.9088287354 12.7240266800 190.5299987793
283.3936157227 89.4069824219 166.0095977783
244.6974182129 36.0898628235 170.8300018311
231.3600006104 12.0408458710 180.7200012207
306.3587951660 60.8440246582 155.2200012207
285.8574218750 89.2898712158 166.5700073242
255.6740722656 42.5028419495 171.1899871826
303.3859558105 57.5388031006 159.7068023682
297.3120727539 52.6603889465 154.4770050049
234.1967163086 15.6797266006 180.6100006104
241.6597595215 17.0900001526 191.8700103760
237.7816925049 5.0373678207 167.6399993896
282.5583801270 87.6779632568 175.6759948730
294.3467712402 76.5220184326 160.5846099854
234.4091339111 8.0658607483 171.0740051270
248.0440673828 29.8828430176 174.7099914551
238.0037994385 7.9872050285 193.7012023926
237.6317596436 37.4668045044 170.3110046387
245.7413940430 24.0900001526 172.9588012695
228.6357574463 13.9259023666 180.3529968262
241.9397583008 14.3199996948 185.8600006104
280.9908447266 46.6229667664 159.6699981689
242.9333953857 21.9398689270 179.1626129150
219.4246673584 2.9823465347 160.1000061035
227.9085998535 6.8056111336 160.9076080322
236.1459655762 7.8388013840 187.9268035889
298.3031921387 53.4445762634 154.3079986572
230.3013916016 10.0100002289 164.2388000488
237.0339508057 12.9399995804 187.4638061523
233.3466796875 10.3100004196 174.4920043945
284.3283691406 50.6179618835 153.7859954834
280.2098083496 85.8757171631 179.5818023682
296.8731994629 77.3045806885 164.9879913330
254.6539611816 46.0000000000 165.9237976074
238.6707153320 12.3766441345 184.7960052490
285.1632995605 86.2226943970 174.8679962158
282.8327026367 52.5201034546 152.4389953613
303.9042968750 79.5640792847 157.7823944092
302.0514221191 68.0999984741 152.4588012695
291.0933837891 83.1998748779 164.7226104736
261.4840087891 36.9422073364 170.3399963379
278.7886047363 80.9856109619 176.0075988770
292.3559570312 48.4988021851 151.8768005371
294.9621276855 74.3869323730 164.5932006836
261.4840087891 36.9422073364 170.3399963379
271.5740966797 45.7828407288 165.5599975586
238.8952941895 3.3569235802 192.3939971924
302.6228027344 63.6089935303 157.9061889648
213.6427307129 11.4601039886 158.7989959717
295.4938354492 81.6984786987 163.9514007568
213.9579162598 9.9276218414 160.0169982910
230.3886260986 2.9717721939 170.4759979248
239.4140014648 5.4522066116 168.2100067139
247.2849884033 20.2069263458 185.4653930664
300.7742919922 78.0840759277 155.9024047852
302.1284484863 60.2362785339 150.4297943115
292.3890991211 55.2558631897 154.1640014648
275.1818847656 43.8875236511 165.1419982910
271.1282348633 38.6873054504 164.1510009766
231.8717651367 18.8568058014 178.4110107422
230.2298126221 11.8167514801 178.3399963379
235.7367095947 13.1797266006 176.0800018311
275.0122070312 39.7698707581 156.9299926758
306.8621520996 58.8069381714 154.7131958008
230.7136230469 9.1269826889 153.5895996094
250.8582611084 38.2273063660 170.5510101318
248.7472229004 43.0053558350 170.0800018311
247.0607147217 43.4666442871 173.3160095215
232.8974304199 19.0598659515 178.9400024414
286.0397338867 50.4399986267 151.2400054932
262.5143127441 42.1640739441 168.1423950195
243.3927307129 18.1601047516 193.7189941406
256.9459533691 41.2988014221 166.5668029785
253.9289550781 23.7581844330 175.5269927979
243.0879211426 35.7776184082 174.5769958496
224.8988189697 2.8940267563 161.1799926758
297.0008544922 56.1029663086 161.3699951172
230.2816925049 3.9773676395 158.7299957275
247.4965820312 34.1416931152 173.4357910156
249.6588287354 26.0640258789 166.8300018311
235.5686035156 8.1656112671 193.2476043701
245.5897827148 31.6857147217 174.3618011475
237.0607299805 7.1300001144 171.9326019287
290.1351318359 47.2400016785 148.2830047607
246.6672210693 15.4553546906 179.1600036621
232.9327239990 9.3801040649 153.6489868164
301.5466003418 61.1516914368 152.5157928467
301.6097412109 70.3600006104 153.5200042725
295.3833923340 55.8598670959 157.6926116943
242.6338043213 6.8972048759 174.0411987305
238.7346649170 20.2523460388 181.2200012207
304.4940795898 77.4228439331 161.2799987793
285.9486083984 78.9056091309 167.4176025391
296.4133911133 59.1598663330 161.5626068115
282.0220642090 84.2103881836 177.2070007324
246.1789703369 18.6292648315 182.0390014648
305.6972045898 63.4853553772 152.3400115967
300.0382690430 54.1533775330 153.0659942627
211.9874267578 10.8998661041 158.6800079346
297.7528076172 75.1989898682 164.9362030029
227.6374206543 8.6898660660 156.3000030518
305.1567077637 67.5797271729 155.4900054932
246.3302917480 37.4098396301 170.4250030518
297.3657836914 69.2759017944 153.7129974365
286.6849670410 87.8369216919 172.0753936768
297.1574096680 78.3798675537 159.3500061035
261.8186035156 48.3056106567 169.2575988770
303.5114135742 60.7500000000 151.2388000488
238.5640716553 10.5328426361 177.3699951172
299.1782836914 55.1133766174 158.3759918213
252.6043090820 21.3040752411 173.1224060059
298.5538330078 76.6572036743 161.8011932373
246.4967651367 28.7720165253 176.1446075439
233.2664642334 3.3212347031 163.3200073242
229.7413940430 8.4399995804 153.7888031006
301.6574096680 60.0298652649 154.5899963379
247.2599945068 22.1452369690 184.3773956299
303.2482299805 58.9373054504 161.9810028076
263.4227294922 50.0701026917 167.1289978027
302.0138244629 57.4372062683 155.4812011719
289.7927856445 85.6689910889 170.1761932373
305.8926391602 68.2467956543 155.7229919434
272.9914245605 43.0000000000 157.0688018799
223.1864776611 2.0012350082 160.1500091553
248.3567047119 43.6197280884 171.4799957275
276.4993896484 52.9325370789 158.3639984131
274.2582702637 38.7633781433 157.7359924316
247.2599945068 22.1452369690 184.3773956299
299.1755981445 52.0359153748 157.0890045166
305.5121459961 71.5469360352 157.1831970215
239.3997802734 34.2257156372 174.8518066406
248.8704681396 27.8569355011 177.1974029541
236.5833892822 13.4098682404 190.5326080322
285.0014038086 82.8700027466 165.1287994385
