138.9267120361 107.5197296143 108.5199966431
141.5527801514 79.4389953613 90.8461990356
137.8921356201 101.3269348145 103.3731994629
128.5889739990 99.2692642212 100.6890029907
183.0852813721 112.7769165039 100.8540039062
140.8040008545 73.2822036743 93.2400054932
137.3699951172 82.6508483887 99.1300048828
161.2836456299 104.7178192139 104.4640045166
133.5738067627 88.7472076416 97.7012023926
197.8399963379 124.0852432251 127.8674087524
171.2055816650 104.7259140015 103.6589965820
189.8094024658 125.2225341797 104.5439987183
156.7589569092 100.6081848145 108.0769958496
143.2855834961 103.1659164429 115.0790023804
149.2497558594 101.4000015259 113.5799942017
198.1116943359 118.4573669434 126.3799972534
189.5916595459 124.3093566895 105.7603988647
199.2952880859 117.8269195557 150.6840057373
175.9788208008 101.2840270996 99.7699966431
149.1997528076 105.4899978638 113.9899978638
133.4472351074 101.8853530884 102.0499954224
186.2488250732 119.8140258789 107.1199951172
169.6789550781 101.4381866455 96.6069946289
172.6517639160 111.5368041992 98.6009979248
150.7657623291 106.1359024048 117.8730010986
140.4872283936 81.3753509521 96.6099929810
136.3827362061 85.3501052856 86.0589981079
184.1333007812 117.8626937866 105.4680023193
196.5036315918 122.3169784546 135.1396026611
198.2564697266 117.9112319946 134.7700042725
137.3688201904 84.0340270996 99.4399948120
130.8772277832 97.7153549194 99.0000000000
142.2082672119 76.4973068237 72.5810012817
141.4067687988 106.0920181274 113.5446014404
146.8416595459 106.8093566895 120.7603988647
183.8297576904 119.8300018311 98.8799972534
179.5379180908 108.3976211548 100.6070022583
143.7534790039 101.6230468750 123.7060012817
154.5274200439 106.2598648071 111.9199981689
146.1716918945 72.4773712158 73.8700027466
203.5189666748 121.8792648315 131.7890014648
152.2082672119 105.8773040771 119.6409988403
151.0774230957 107.9998703003 118.0299987793
153.2340698242 73.3528442383 73.1399993896
145.5189361572 74.1258392334 75.8519973755
133.9482574463 85.0773086548 85.3009948730
188.7947845459 118.9953231812 97.7809982300
134.1613922119 83.4100036621 82.3588027954
142.2716827393 107.4973678589 116.2200012207
140.7420654297 80.0680541992 81.5820007324
195.9738006592 126.0972061157 152.2111968994
193.5816650391 128.9393615723 151.4304046631
125.0219268799 91.4489898682 100.1179962158
139.0479125977 106.2476272583 121.2370071411
171.3504638672 109.7269363403 98.5174026489
154.0607147217 104.3866424561 112.8460006714
153.1616668701 78.1993560791 72.7603988647
195.4986114502 123.1556091309 148.7276000977
185.0489501953 116.9881820679 96.9369964600
164.4682769775 96.8033752441 106.0960006714
158.0017547607 109.1368026733 106.1309967041
142.2816925049 74.2473678589 93.8000030518
141.9219207764 72.7789916992 72.7979965210
148.1889495850 83.1381835938 84.0869979858
158.4013977051 102.8199996948 106.8288040161
136.7397613525 77.5899963379 88.5400009155
199.6938018799 120.9572067261 139.0411987305
163.2457580566 99.5759048462 97.0429992676
175.0543060303 109.6440811157 87.4023971558
192.6246643066 124.9823532104 148.0299987793
137.8389739990 110.1992645264 116.2990036011
179.5286254883 119.6617736816 98.0060043335
150.4188232422 100.3240280151 115.5399932861
144.7282562256 105.2273101807 122.8509979248
130.8716888428 98.4373703003 101.3000030518
183.5108642578 123.6029739380 110.5400009155
176.7618560791 107.4575271606 91.9220046997
138.8916931152 102.0473709106 105.9300003052
151.4797515869 102.3799972534 105.5999984741
145.3640747070 72.9528427124 75.2700042725
182.3352813721 114.3769226074 103.5040054321
171.0716552734 108.2193527222 98.4403991699
191.0991363525 130.3258666992 147.7640075684
137.2440032959 76.3822021484 89.1000061035
150.9508666992 107.2829742432 119.4300003052
137.3888244629 96.8740234375 109.3299942017
134.7546539307 108.1423492432 117.4099960327
194.2422027588 121.2598724365 128.6900024414
142.1322021484 79.4698715210 80.4899978638
168.9520568848 107.9880523682 95.2620010376
196.7302856445 117.3998413086 151.1750030518
170.2814025879 106.9000015259 94.6688003540
135.8806915283 106.3610229492 113.9901962280
147.4107208252 82.1566467285 79.5260009766
138.5222015381 102.8398742676 115.5599975586
134.4172210693 89.0953521729 95.0499954224
176.6789550781 101.3681869507 98.6069946289
124.6951446533 96.1299972534 99.5129928589
169.5359649658 106.6588058472 93.4667968750
133.5286254883 84.0317764282 82.9360046387
138.0352935791 76.6969223022 98.7440032959
136.7072296143 102.5653533936 101.5799942017
173.2731933594 107.9145812988 96.9280014038
163.3908691406 104.2229690552 106.1200027466
171.0197601318 108.4000015259 89.9300003052
195.4836273193 135.8469848633 143.9196014404
193.5567169189 119.2897262573 139.9599914551
182.1849975586 121.3569183350 107.2254028320
136.8597564697 109.6800003052 115.8899993896
192.6797485352 114.7900009155 126.5400009155
132.2366790771 99.3300018311 100.6920013428
199.9099884033 123.4452362061 141.7073974609
195.8827362061 130.6701049805 127.1090011597
190.5146636963 130.7323455811 147.6199951172
130.6339569092 83.3499984741 90.6438064575
182.4316558838 119.6893539429 97.1703948975
189.2357635498 125.2759017944 127.8730010986
145.2439575195 103.5800018311 111.5138015747
185.0266876221 125.5299987793 111.4020004272
133.3152923584 97.9169235229 105.6840057373
161.1016540527 110.0693588257 109.3503952026
162.0621337891 106.0369338989 106.2732009888
204.8221435547 121.4569320679 133.8731994629
136.8839569092 107.2600021362 110.9338073730
137.9472351074 80.7453536987 94.1199951172
167.1816558838 105.5193557739 98.6604003906
152.5021362305 79.0869369507 80.0131988525
172.7597503662 109.9400024414 97.0499954224
133.2459564209 82.1988067627 84.6268005371
198.6943054199 135.5540771484 145.1324005127
147.3697509766 75.6999969482 70.9499969482
182.5446624756 119.1823501587 121.4799957275
129.4921264648 94.2469329834 103.6531982422
157.7174224854 108.9398651123 105.5999984741
157.8467102051 106.5997238159 111.5699996948
153.0472259521 77.7653503418 70.7299957275
135.8097839355 101.2957153320 111.7718048096
191.5947875977 126.9953155518 143.4010009766
132.6483917236 94.3579635620 97.5960006714
192.2786102295 132.0956115723 149.0175933838
132.9243011475 96.8840789795 99.1424026489
164.2916564941 105.0893554688 105.6003952026
199.8139953613 117.0022048950 140.4499969482
183.7759552002 127.8188018799 113.7267990112
191.1499938965 125.6952362061 118.2473983765
168.8297882080 105.1757125854 102.8917999268
195.2427368164 128.5801086426 119.3290023804
126.6113967896 92.6800003052 93.5487976074
184.4149932861 117.1269226074 105.6653976440
147.9343109131 83.8540802002 81.7024002075
136.0538024902 80.1272048950 99.1811981201
131.9566802979 95.2900009155 98.2419967651
198.0489501953 115.8081893921 142.2669982910
199.3089752197 134.8792572021 146.2289886475
142.6116638184 83.4993591309 84.4003982544
134.9438018799 83.9272079468 100.4412002563
133.8725891113 82.2300033569 81.5080032349
178.3252868652 106.6469192505 100.3740005493
194.5986022949 120.6356124878 130.9676055908
131.0339508057 102.3499984741 103.3738021851
196.8540039062 115.8022079468 147.3099975586
161.8459625244 99.4988021851 104.9468002319
141.8657684326 74.9159011841 71.3630065918
156.2218627930 102.9775238037 107.1119995117
151.8340759277 71.4628448486 73.4300003052
136.2197570801 84.7900009155 95.7200012207
166.6736297607 105.6469802856 100.6996002197
164.3840789795 101.9228439331 107.9400024414
137.3688201904 84.0340270996 99.4399948120
192.4339904785 123.1922073364 118.8199996948
145.2097625732 101.4800033569 118.2200012207
181.4994049072 120.0525360107 99.4339981079
198.0226440430 118.2167968750 133.4830017090
194.5986022949 120.6356124878 130.9676055908
185.5036315918 122.6369781494 119.6796035767
130.8616638184 98.0893554688 100.9503936768
138.0027770996 82.8289947510 88.5461959839
153.6179199219 100.5276260376 110.1570053101
147.1772308350 77.2353515625 71.3899993896
196.1879119873 128.2976226807 152.2269897461
172.9872283936 107.1053543091 95.5899963379
152.6416931152 70.9873733521 72.0299987793
192.6517639160 127.4968032837 116.2509994507
183.7759552002 127.8188018799 113.7267990112
193.3959655762 116.0888061523 142.6768035889
151.2774200439 103.4398651123 106.4400024414
140.6267089844 102.4397277832 108.9899978638
126.5617599487 95.5368041992 95.1809997559
187.4938049316 125.0472030640 117.2211990356
145.7098083496 100.3267517090 118.8799972534
199.2502899170 120.1298446655 151.3549957275
146.5139617920 105.2399978638 113.0338058472
168.4240722656 104.8428421021 103.4700012207
128.8139953613 89.3022079468 96.4600067139
165.5452880859 97.0169219971 108.3640060425
134.8999938965 84.9652404785 90.5474014282
141.8974304199 83.3098678589 83.0699996948
146.2197875977 78.0857162476 76.4418029785
145.5588226318 99.2740249634 121.9699935913
128.6267089844 95.8297271729 95.5499954224
191.5525817871 127.5800018311 115.9479980469
162.5389556885 105.5981826782 107.3969955444
135.8447875977 103.8153228760 112.1910018921
137.7192077637 81.7775955200 90.6581954956
134.8021392822 87.1369323730 94.1131973267
155.1432800293 104.5381011963 105.6839981079
160.3649902344 106.1569213867 112.3054046631
170.4131927490 102.3045806885 103.0879974365
126.5172195435 97.6353530884 99.8199996948
176.0821380615 108.1569366455 88.7631988525
136.4797515869 79.8099975586 88.4700012207
151.4438171387 77.9984817505 72.5313949585
144.3992156982 104.3075942993 113.9281997681
162.1989440918 107.2658386230 110.4919967651
195.1125793457 115.6600036621 124.4380035400
194.2907257080 123.2600021362 121.8825988770
160.1049957275 103.7369232178 113.0854034424
194.5257568359 116.2359008789 148.8330078125
139.1397552490 80.6999969482 96.3299942017
162.9386138916 104.1356124878 100.0876007080
143.2465820312 107.5916900635 115.7658004761
192.9451446533 125.9599990845 115.0329971313
162.6046600342 98.5623474121 109.0299987793
138.8916931152 102.0473709106 105.9300003052
148.2386016846 74.1556091309 72.0176010132
171.8739929199 106.0022048950 93.2300033569
133.6439514160 80.1600036621 88.1338043213
162.9674224854 100.3698654175 108.4700012207
163.1146545410 99.4823532104 97.6100006104
129.7289428711 93.6481857300 95.5869979858
140.3140716553 80.9328384399 98.8499984741
181.7206878662 120.5310211182 108.0701980591
198.8289642334 134.9692687988 144.0789947510
171.6997528076 112.3099975586 91.8600006104
139.3439941406 79.8922042847 82.7700042725
174.0447845459 103.4753189087 95.1409988403
173.0833892822 110.4298706055 96.6026000977
173.6008605957 107.6429748535 94.0500030518
140.9097900391 103.6157150269 114.3118057251
179.3572235107 113.4953536987 94.9599990845
145.6055755615 83.5659179688 86.0390014648
184.6759643555 123.4588012695 115.4067993164
150.8786163330 107.4217758179 113.5660018921
137.3688201904 84.0340270996 99.4399948120
182.3649902344 119.3769226074 95.8354034424
151.2674255371 108.7898712158 116.4700012207
167.8143005371 104.5240783691 96.3924026489
150.0449981689 78.9569244385 77.4253997803
135.6697540283 105.5400009155 118.5499954224
148.7713928223 103.5299987793 112.2588043213
150.5940704346 76.5628433228 83.2400054932
154.3879241943 105.7176208496 120.0470046997
148.1559600830 78.3688049316 81.8167953491
133.2683868408 90.5479583740 94.2060012817
182.6536560059 121.8878250122 101.3840026855
171.6913909912 111.5100021362 91.7188034058
133.8134765625 81.6630477905 85.8460006714
180.9721374512 111.3769302368 97.6332015991
196.8002929688 124.5898437500 150.2850036621
133.0533905029 104.3998718262 109.2925949097
138.1282806396 76.1333694458 88.8460006714
191.8359680176 125.5587997437 118.0968017578
187.9997863770 119.0557174683 104.3518066406
143.5855865479 77.6559143066 87.6090011597
193.4582672119 116.5673065186 129.9609985352
184.6172332764 117.8053512573 95.6099929810
194.3297576904 118.7600021362 149.0000000000
143.3036193848 77.6969833374 73.6196060181
146.0333099365 78.5926971436 82.8479995728
187.2740020752 118.9822082520 116.5400009155
192.5819244385 133.1189880371 148.3580017090
125.9046630859 91.7623519897 101.0800018311
150.6689758301 81.8592605591 80.4790039062
186.1492156982 116.4875946045 98.7381973267
149.6840667725 104.4128417969 117.5299987793
175.6889495850 107.0181884766 88.2569961548
198.6388244629 115.5240249634 127.2899932861
144.3592071533 106.7675933838 114.6481933594
162.4516906738 107.4273681641 110.5699996948
149.4067687988 80.6720199585 72.6045989990
148.8708648682 105.8329696655 116.2300033569
145.5099945068 71.9008483887 74.9000015259
185.0266876221 125.5299987793 111.4020004272
195.5382843018 121.9533767700 125.3460006714
194.0787506104 121.5659942627 130.4085998535
200.4567108154 123.5197296143 149.5999908447
150.0720672607 101.4280548096 113.1220016479
200.7938232422 117.9384841919 138.0014038086
196.1879119873 128.2976226807 152.2269897461
171.1708679199 111.6229705811 90.0200042725
186.4433898926 120.6098709106 109.5225982666
132.3588256836 90.2240295410 98.8399963379
173.0392150879 110.3675918579 96.5981979370
156.8316955566 102.1173706055 111.2399978638
196.8002929688 124.5898437500 150.2850036621
142.5659637451 102.4688034058 118.9967956543
189.3888244629 117.9440231323 101.3099975586
147.8957672119 79.7958984375 82.1030044556
196.7752838135 113.6969223022 142.5039978027
187.3391265869 124.5858612061 118.5340042114
162.5266876221 101.2699966431 101.8519973755
138.2042999268 105.8440780640 106.0923995972
140.5632781982 80.9580993652 96.3740005493
192.6059570312 124.3688049316 146.1468048096
193.6417694092 117.6068038940 127.9309921265
196.2984619141 124.2662811279 122.2998046875
175.2236175537 113.8969802856 95.5396041870
137.2989501953 84.2281875610 83.6769943237
136.7474212646 107.5098648071 114.5299987793
143.7267608643 86.4920196533 84.5046005249
196.9766845703 120.6399993896 142.7720031738
135.6832733154 86.8581008911 95.6439971924
127.0146636963 89.0323486328 99.1100006104
199.4283905029 120.2479629517 130.2960052490
175.5713958740 108.4100036621 96.1388015747
168.8297882080 105.1757125854 102.8917999268
138.3738098145 99.9772033691 111.6311950684
175.3316650391 111.1893539429 100.0303955078
152.4488220215 105.8640289307 119.1499938965
189.7617645264 127.8968048096 127.0609970093
175.9721374512 103.7369308472 96.4132003784
186.7697601318 120.1900024414 115.9799957275
193.5308685303 125.0429687500 129.8999938965
154.9237976074 104.5772018433 119.8511962891
185.8088226318 117.4040298462 104.3499984741
190.5689544678 119.7981872559 105.9570007324
172.2233123779 108.5326995850 98.7480010986
154.8689575195 106.2981872559 114.5769958496
199.4516906738 116.3573684692 126.4499969482
176.1133880615 109.2198715210 102.9725952148
135.2008666992 105.7529754639 108.7700042725
172.8713989258 108.5500030518 86.9487991333
194.4917602539 136.5968017578 147.7610015869
192.6316833496 121.5273666382 119.4599990845
194.3908691406 126.1229705811 128.4900054932
194.0008697510 119.1029739380 151.2399902344
148.9974212646 106.5498657227 114.8300018311
137.6236267090 83.1169815063 83.7096023560
151.5218658447 80.8875274658 80.4920043945
153.4542999268 76.0840759277 69.4924011230
198.8783874512 120.3579635620 126.6959991455
198.3988189697 132.9740295410 149.2700042725
193.7425842285 119.3700027466 140.1479949951
133.3466796875 80.8000030518 90.6220016479
138.8151397705 108.7500000000 115.9329986572
185.9725799561 122.9400024414 96.7680053711
138.7682800293 75.9133758545 90.1959991455
135.0157623291 97.4659042358 109.6430053711
196.4613952637 120.8000030518 143.6788024902
184.7706909180 122.1810226440 113.4301986694
133.4472351074 101.8853530884 102.0499954224
145.4899902344 77.5552368164 73.9774017334
150.7116546631 80.4393539429 83.0203933716
142.9907073975 82.5166397095 85.4560012817
179.9443054199 112.8640747070 96.2723999023
159.6682739258 104.4733734131 105.3659973145
191.7502899170 124.7998428345 128.6849975586
185.3821411133 116.6869354248 98.2532043457
181.9916534424 118.2093582153 103.0503997803
125.7486038208 95.1956100464 105.4675979614
151.2274169922 101.6598663330 108.4400024414
196.7021331787 126.7869338989 119.7332000732
185.2613983154 124.3799972534 111.6788024902
135.8851470947 109.2200012207 115.8929977417
169.8836517334 107.7778244019 99.6740036011
150.5800018311 78.1152420044 75.5074005127
187.7743072510 123.8840789795 108.1024017334
146.6239929199 101.0122070312 116.6000061035
203.5639953613 119.4422073364 134.6900024414
184.7386169434 123.3817749023 100.0559997559
177.4652862549 106.6669235229 99.3140029907
149.4483947754 104.1079635620 112.4659957886
195.9383850098 125.5579605103 143.6660003662
147.7440643311 81.4328384399 85.7000045776
176.6789550781 101.3681869507 98.6069946289
191.6851501465 125.8000030518 124.4629974365
195.2943115234 129.8440704346 125.0923995972
200.5699920654 117.9952392578 136.9273986816
193.9579162598 127.7476272583 122.1370010376
157.5908660889 108.2229690552 107.0000000000
147.7764739990 101.3912353516 116.3200073242
142.6747894287 77.4753189087 85.6910018921
134.6220550537 78.8380508423 91.8819961548
182.6313934326 119.8899993896 101.1688003540
156.4152832031 102.8069229126 112.6240005493
189.3820648193 132.5080413818 147.0220031738
139.6588287354 97.9240264893 108.9499969482
184.7386169434 123.3817749023 100.0559997559
197.0643005371 116.5340805054 139.7823944092
195.3414001465 120.1900024414 148.5787963867
130.5059661865 98.4488067627 104.7768020630
163.3508605957 100.5729751587 98.4500045776
186.8246612549 129.3323516846 111.1900024414
144.1938018799 79.7872085571 84.8611984253
131.8107299805 84.0299987793 90.8825988770
192.8439941406 124.4422073364 115.7800064087
137.6236267090 83.1169815063 83.7096023560
139.8140716553 81.8328399658 87.5500030518
153.2416839600 71.3173675537 67.3400039673
132.6251373291 103.3199996948 104.3229980469
136.8440704346 105.7728424072 121.0699996948
170.8297576904 101.9899978638 94.4300003052
147.2689666748 84.4692611694 82.8690032959
141.2784576416 81.4262771606 87.2598037720
134.3667602539 106.9220199585 104.0446014404
141.5620574951 77.2080535889 82.3119964600
189.1088256836 123.3740234375 112.1800003052
147.2940673828 102.4528427124 118.5600051880
193.8488159180 113.7140274048 128.5000000000
152.3372344971 106.3353576660 112.4599990845
151.8988189697 103.3240280151 117.7599945068
195.9774169922 121.7798690796 140.6999969482
143.4608612061 106.2229690552 119.7000045776
136.3446655273 105.2623519897 117.0500030518
130.3567657471 84.8020172119 91.7946014404
157.4899902344 102.8352432251 107.8174057007
135.8639984131 100.6822052002 101.8600006104
132.2355804443 81.8759155273 93.3290023804
166.0552825928 100.1769180298 98.2540054321
140.8016815186 79.5973663330 98.9899978638
146.5927276611 106.6001052856 122.0390014648
151.9040679932 104.6328430176 118.3199996948
194.3016662598 128.8593597412 118.5503997803
136.4472351074 83.4753570557 92.0099945068
138.5947875977 71.8653182983 90.4609985352
136.5843048096 83.3440780640 92.2923965454
131.9083862305 91.9679565430 95.4560012817
174.5363006592 99.9687042236 97.7949981689
190.0689544678 119.3481826782 100.3769989014
140.6032867432 102.0881042480 107.4140014648
135.1127777100 104.2489929199 109.6761932373
135.6967163086 86.4197235107 85.1500015259
139.4346618652 103.3123474121 117.5199966431
183.7762908936 117.5287017822 119.5849990845
194.9797515869 120.4599990845 126.0599975586
181.9092559814 121.5991973877 105.9841995239
151.4743041992 80.5740814209 78.6523971558
187.9416656494 129.8793640137 114.8703994751
163.0921325684 102.7569351196 108.7732009888
194.0136260986 136.4969787598 145.4496002197
148.8621368408 74.2769317627 73.3232040405
155.5831909180 75.9145812988 72.6180038452
192.9834747314 134.9730529785 149.7859954834
196.1727294922 136.9300994873 148.9789886475
147.9343109131 83.8540802002 81.7024002075
199.7489471436 133.6381835938 145.2969970703
186.8246612549 129.3323516846 111.1900024414
138.5222015381 102.8398742676 115.5599975586
195.5459594727 119.5888061523 145.9468078613
195.4988250732 117.6840286255 150.9599914551
154.8040771484 103.6928405762 119.8100051880
197.1347808838 116.6253204346 137.0610046387
135.2055816650 95.9959182739 104.5189971924
144.3040008545 74.7422027588 69.9000015259
139.4743041992 106.5840759277 108.5624008179
163.8416900635 103.7473678589 107.7300033569
194.7138061523 131.9171905518 149.4711914062
158.3208618164 106.1129684448 110.2800064087
131.5959625244 98.5388031006 105.7567977905
133.4119262695 79.8089904785 84.4179992676
190.5259552002 123.9088058472 122.9468002319
131.8914031982 102.1900024414 103.7488021851
158.1307067871 105.1666412354 112.6660003662
174.8936309814 112.7269821167 96.3896026611
137.5716552734 106.8393554688 108.3603973389
137.5472259521 85.7853546143 97.7599945068
191.0838012695 122.1872024536 121.6511993408
151.5027313232 73.8801040649 68.3390045166
185.5851440430 129.7899932861 110.9229965210
169.3564758301 101.2212371826 104.1800003052
128.1791229248 91.4458618164 101.3940048218
191.3643035889 122.9040756226 118.0223999023
156.0389556885 103.4181823730 116.3669967651
139.8472290039 107.9553527832 114.0299987793
196.6152954102 122.1669235229 127.6140060425
125.9046630859 91.7623519897 101.0800018311
179.9916839600 112.5773696899 95.8000030518
146.2246551514 76.9223480225 80.4199981689
137.4582824707 78.6933746338 83.2360000610
200.6740722656 122.4628448486 150.4399871826
197.3008728027 121.2829742432 138.8600006104
128.0638122559 97.4872055054 104.8311996460
190.4179229736 128.3676147461 115.5170059204
136.6208648682 106.7929687500 115.9300003052
190.7733917236 129.2298583984 130.8526000977
139.3007202148 82.2366409302 90.0159988403
193.4582672119 116.5673065186 129.9609985352
163.2072296143 104.6653518677 106.8899993896
133.2359619141 78.5388031006 97.3667984009
185.7297515869 122.4100036621 117.1599960327
135.3197479248 108.8899993896 116.0099945068
134.6927795410 80.1489944458 98.9161987305
189.9216918945 124.2073669434 111.3400039673
185.1652832031 116.7469177246 104.3240051270
202.2962951660 119.1487045288 132.1950073242
128.6916809082 93.4273681641 104.1900024414
165.1797485352 100.1900024414 95.2599945068
129.3274230957 98.0998687744 99.5600051880
201.4392089844 116.7375946045 138.0782012939
174.4808654785 102.7029724121 100.0500030518
145.1372222900 106.5553512573 117.7399978638
135.2055816650 95.9959182739 104.5189971924
194.2907257080 123.2600021362 121.8825988770
139.3172302246 106.9053573608 107.1199951172
145.6274261475 77.6198654175 71.9500045776
192.9874267578 126.7898712158 147.4700012207
140.7689666748 109.7292633057 116.3390045166
185.7388153076 119.2740249634 105.2899932861
187.1847839355 117.1153182983 101.5009994507
132.5086059570 84.1056137085 99.9876022339
180.3840789795 112.1728439331 99.0500030518
130.5397491455 84.5500030518 93.6800003052
138.5198059082 97.7067565918 107.7099990845
148.4436187744 105.2469787598 113.6196060181
126.5639648438 95.8700027466 95.2038040161
188.0955810547 117.2959136963 103.4189987183
145.3787536621 102.7559967041 114.4386062622
194.4497833252 115.6657180786 130.4018096924
127.9016571045 96.7393569946 97.6303939819
195.3452911377 125.1569213867 151.6340026855
173.2731933594 107.9145812988 96.9280014038
173.7814025879 109.0999984741 97.3087997437
152.6236267090 105.2869796753 109.6696014404
139.5279235840 102.3176269531 111.5270004272
131.4799957275 91.5352401733 92.9174041748
202.7289733887 123.7292633057 132.4989929199
146.7027282715 85.3600997925 84.8990020752
139.6943054199 75.7240753174 90.2923965454
183.7216644287 119.1693572998 99.1604003906
196.4640045166 113.4222030640 140.5200042725
188.9382781982 118.7933731079 103.9160003662
164.6297607422 100.9800033569 101.5099945068
197.5474243164 123.8198699951 145.1300048828
152.3416595459 77.7193527222 73.9104003906
129.7259674072 85.1688003540 94.0867996216
142.0532836914 76.2281036377 91.3639984131
183.7947845459 113.7053222656 104.1309967041
186.7972259521 124.1253509521 98.0599975586
192.8739929199 122.6022033691 127.9499969482
194.2897491455 120.4300003052 141.2200012207
192.4962921143 121.8386993408 148.4550018311
135.1072235107 82.8853530884 81.7299957275
156.2321319580 103.8069305420 117.5831985474
152.8408660889 105.3329696655 109.9500045776
139.0243072510 80.8240814209 96.1223983765
139.1718597412 101.1675262451 106.3120040894
149.8217620850 73.5468063354 67.1210021973
129.5259552002 84.3787994385 95.3367996216
189.7617645264 127.8968048096 127.0609970093
162.9674224854 100.3698654175 108.4700012207
134.3643035889 101.3640747070 101.7523956299
200.2531890869 119.0545806885 131.3880004883
198.8543090820 121.1440811157 127.6723937988
184.1289672852 118.3192596436 95.7190017700
146.9067077637 84.6797256470 85.6500015259
193.4602813721 122.0298385620 150.4850006104
149.7092132568 78.7775955200 76.0581970215
134.5866851807 102.9899978638 102.6419982910
191.8046569824 123.0623474121 128.7899932861
175.3799896240 106.0408477783 93.3500061035
200.3152923584 119.2269210815 135.3440093994
148.2386016846 74.1556091309 72.0176010132
202.2962951660 119.1487045288 132.1950073242
196.3886108398 120.2456130981 148.2176055908
195.5389404297 134.7858276367 150.2619934082
156.4591217041 103.9358596802 113.3940048218
195.0416564941 129.2693634033 120.6403961182
189.4989318848 123.2958374023 108.2719955444
196.3797607422 133.7799987793 142.3300018311
193.3489379883 128.4258270264 121.4919967651
126.1133880615 96.3398742676 98.2725982666
199.3472290039 133.6753540039 146.4000091553
172.7613983154 104.1299972534 94.5988006592
171.0716552734 108.2193527222 98.4403991699
150.7197875977 99.3357162476 112.0618057251
192.7227783203 135.5789947510 149.9962005615
187.6382751465 118.8633728027 116.8859939575
129.4197845459 84.3057174683 98.2518005371
161.1016540527 110.0693588257 109.3503952026
169.9327850342 109.4489898682 98.8961944580
135.4686126709 104.1356124878 110.2875976562
152.4332733154 72.4880981445 68.3639984131
186.2416534424 131.1193542480 114.1803970337
170.6274261475 103.0498657227 95.2700042725
196.2484588623 124.1262817383 143.7297973633
194.4408721924 117.9929733276 149.1799926758
160.4027862549 102.2889938354 114.2361984253
173.8557586670 108.1158981323 100.6529998779
142.1322021484 79.4698715210 80.4899978638
171.8008728027 107.5429687500 89.1700057983
182.5446624756 119.1823501587 121.4799957275
155.8389739990 101.9392623901 106.8590011597
128.3097534180 90.5100021362 95.9000015259
163.7882843018 100.5733718872 102.3559951782
197.7208709717 124.3129730225 138.0099945068
188.1172332764 120.8653564453 116.2599945068
164.2863006592 97.6387023926 103.6949996948
185.2613983154 124.3799972534 111.6788024902
194.4739990234 120.9422073364 126.4900054932
196.9416961670 128.0673675537 125.4899978638
133.8336181641 85.1269836426 83.7196044922
195.3279113770 124.8076248169 151.9869995117
175.2108612061 113.4429702759 97.6300048828
141.4397583008 83.6299972534 79.6100006104
200.1252899170 118.4769210815 148.4040069580
204.1555786133 120.2559204102 138.4290008545
151.5027313232 73.8801040649 68.3390045166
134.8821411133 87.9769363403 95.4332046509
149.3813934326 75.9499969482 70.9487991333
180.9721374512 111.3769302368 97.6332015991
170.3236541748 111.4078216553 91.7740020752
138.6282806396 77.4933700562 84.6859970093
136.3600006104 79.2508468628 85.3700027466
175.1927337646 103.5901031494 99.4189987183
186.7697601318 120.1900024414 115.9799957275
186.3274230957 124.7798690796 109.1399993896
192.7049865723 129.4969329834 151.6454010010
136.2392120361 82.1675949097 98.7182006836
144.9549865723 78.3969192505 75.8954010010
147.3940734863 79.7528381348 82.4000015259
161.7200012207 106.6708450317 111.2600021362
191.8188171387 120.6940231323 120.2999954224
160.1667175293 110.1497268677 110.8899993896
197.3008728027 121.2829742432 138.8600006104
190.0208740234 124.8029708862 127.6700057983
150.4984588623 79.3662796021 71.2798004150
164.4682769775 96.8033752441 106.0960006714
126.7882843018 90.4433746338 96.5960006714
175.7667083740 103.6497268677 99.4899978638
192.7497558594 122.9800033569 147.8300018311
140.5572357178 77.9453506470 90.1299972534
189.8536529541 134.8578186035 146.2939910889
130.9759674072 100.9788055420 106.0167999268
192.4197845459 121.5357131958 146.1717987061
125.4234695435 93.3030471802 101.5459976196
130.8772277832 97.7153549194 99.0000000000
140.7794036865 109.8825378418 117.8939971924
171.4997558594 111.2799987793 87.7799987793
144.4697875977 102.5557174683 113.4318008423
142.9486083984 104.2356109619 120.3575973511
196.5643005371 127.9440765381 144.4624023438
135.9386138916 100.1556091309 111.1775970459
174.0043029785 111.6140747070 87.7523956299
180.7740020752 114.3822021484 97.8300018311
192.6286010742 118.0356140137 143.3376007080
137.6236267090 83.1169815063 83.7096023560
136.9165802002 106.2416915894 105.3058013916
186.1092071533 118.7075958252 106.3881988525
147.9421386719 101.9769363403 121.1931991577
129.6516876221 94.2973709106 94.9899978638
189.8094024658 125.2225341797 104.5439987183
172.6767120361 107.9097290039 99.2200012207
193.4846649170 118.3723526001 128.2200012207
190.8192138672 120.3175964355 98.5481948853
194.2159576416 118.8688049316 129.6068115234
133.0147857666 91.2953186035 99.8610000610
157.4859619141 107.1788024902 108.0767974854
165.2740020752 101.1522064209 101.2100067139
150.2133941650 102.8898696899 111.9325942993
196.4802856445 133.4998321533 149.3849945068
136.2527770996 105.7889938354 106.3461990356
149.3216857910 74.7573699951 77.0800018311
132.0997619629 101.2099990845 101.7699966431
134.0188293457 97.8140258789 106.9099960327
139.8372344971 99.6753540039 107.2699966431
145.6127777100 85.3589935303 86.8061981201
175.9840698242 102.5928421021 100.3300018311
182.6313934326 119.8899993896 101.1688003540
143.3397521973 80.8099975586 79.1199951172
154.8602905273 102.2098388672 117.5849990845
127.5797576904 89.7799987793 97.7099990845
197.7208709717 124.3129730225 138.0099945068
154.2507171631 77.9066467285 73.3460006714
193.2722015381 122.0998687744 125.6299972534
193.6574249268 125.7598648071 128.5000000000
135.7786102295 108.8956069946 120.1276016235
197.7597503662 122.8099975586 132.4199981689
194.6316680908 125.8193588257 129.3104095459
192.3046569824 125.0423507690 145.7899932861
148.7713928223 73.5999984741 68.3888015747
181.0967102051 118.2297286987 103.0400009155
136.0872344971 85.8053512573 83.7500000000
172.4567108154 112.5697250366 89.4599990845
163.0897521973 104.0199966431 97.8699951172
189.9946594238 133.0423431396 144.9600067139
195.5459594727 119.5888061523 145.9468078613
139.5967102051 82.8897247314 86.7099990845
163.2459564209 100.7088012695 97.3468017578
138.2042999268 105.8440780640 106.0923995972
169.7908630371 111.2129745483 95.0300064087
194.0039978027 115.5822067261 137.9799957275
149.2872314453 80.5153503418 77.0699996948
163.3908691406 104.2229690552 106.1200027466
189.0107116699 125.8166427612 117.8059997559
183.9526367188 118.4167938232 107.6529998779
193.1839904785 113.5822067261 127.1000061035
190.1166839600 133.4799957275 145.2019958496
134.6967620850 78.2720184326 91.4445953369
148.2459564209 77.1388015747 82.5667953491
138.2138061523 108.7172012329 120.5811996460
199.4616851807 120.8073730469 129.2100067139
194.6452941895 125.0269165039 119.0040054321
135.4907226562 104.3199996948 102.8025970459
132.3317565918 104.8568038940 105.5410003662
177.9092102051 109.5875930786 93.1981964111
192.0314025879 126.8499984741 148.7088012695
152.6852874756 73.8869171143 74.3640060425
190.4336242676 135.2669830322 145.0296020508
196.7552947998 115.0469207764 130.1439971924
173.0467071533 113.1597290039 95.2099990845
135.1072235107 82.8853530884 81.7299957275
136.7839508057 77.3199996948 95.9838027954
141.8252868652 102.4169235229 117.4739990234
135.7988281250 76.6540298462 97.8399963379
190.2649841309 135.8569183350 149.4553985596
150.7874298096 106.7198715210 113.0200042725
178.9667053223 114.1097259521 96.3600006104
136.3959655762 76.8787994385 90.2068023682
135.1174163818 109.9498672485 116.8499984741
151.2872314453 73.4053573608 66.1999969482
138.2138061523 108.7172012329 120.5811996460
157.8114013672 104.0500030518 106.1088027954
151.2836303711 77.8269805908 71.3996047974
189.9946594238 133.0423431396 144.9600067139
150.4216613770 106.5293579102 116.2003936768
126.5172195435 97.6353530884 99.8199996948
148.8621368408 74.2769317627 73.3232040405
136.5752868652 99.9769210815 104.7340011597
136.9346618652 77.6823501587 87.6699981689
142.6714019775 81.2699966431 79.2788009644
191.2521362305 121.8269348145 104.8532028198
133.6349945068 94.7169189453 101.3954010010
169.3688201904 99.8740234375 101.6699981689
179.9374237061 117.9998703003 102.2000045776
176.7736206055 113.7369766235 95.7695999146
187.9955749512 120.3759155273 121.9589996338
183.7740020752 115.9222030640 95.8899993896
187.9774169922 123.5198669434 102.5900039673
148.4097900391 77.1457138062 83.7418060303
149.2333984375 79.6898727417 74.5225982666
201.4416961670 119.4273681641 146.7200012207
147.9316864014 83.1473693848 85.0900039673
174.7788238525 105.6140289307 89.6800003052
172.6188201904 106.0040283203 93.5199966431
142.0940704346 103.5128402710 117.4100036621
149.6840667725 104.4128417969 117.5299987793
131.6520538330 82.3380508423 94.3619995117
139.6040649414 106.4628448486 111.6600036621
132.9243011475 96.8840789795 99.1424026489
198.6440734863 116.8328399658 127.8499984741
187.0627746582 120.5289916992 113.9061965942
133.9521331787 95.3969345093 100.5032043457
153.6588287354 73.5840301514 71.1699981689
191.7746582031 124.9023513794 116.6200027466
148.4097900391 77.1457138062 83.7418060303
159.0074310303 109.9198684692 110.0500030518
142.5659637451 102.4688034058 118.9967956543
193.5213928223 125.5800018311 143.8787994385
187.9997863770 119.0557174683 104.3518066406
139.3238220215 105.4884796143 112.3213958740
130.8716888428 98.4373703003 101.3000030518
189.3719177246 124.1789855957 127.0779953003
196.7302856445 117.3998413086 151.1750030518
148.0006866455 78.8710250854 74.2001953125
174.3816833496 104.2773666382 98.8099975586
140.5021362305 105.0969314575 109.9232025146
189.7440032959 124.7222061157 112.7800064087
150.3867645264 103.8720169067 110.0145950317
194.0008697510 119.1029739380 151.2399902344
141.2097930908 78.1057128906 86.8418045044
139.7872314453 81.7253570557 90.4300003052
182.9882812500 115.1233749390 97.3460006714
151.1082611084 107.7173080444 119.0909957886
145.1372222900 106.5553512573 117.7399978638
137.8838043213 106.6672058105 121.4911956787
131.5166778564 89.6699981689 93.8420028687
165.1436309814 104.1569824219 96.3796005249
151.0902862549 75.6498413086 82.5650024414
182.4755859375 118.1159133911 107.6090011597
150.9897613525 105.6600036621 112.1800003052
191.8067169189 129.7797393799 120.0599975586
193.1114044189 128.7500000000 124.6388015747
162.6874237061 104.3098678589 102.3899993896
181.5752868652 113.3669204712 102.6640014648
137.3272247314 102.0153503418 103.0599975586
144.1986083984 102.9256134033 123.0075988770
197.0899963379 123.4852371216 121.4474029541
196.0521392822 125.2369308472 122.8731994629
177.8674163818 118.4098663330 97.1900024414
196.4879150391 135.3976135254 150.1969909668
135.7088165283 98.9340286255 107.7999954224
154.5172271729 105.6653518677 107.9899978638
141.7899932861 80.0452423096 87.7774047852
138.2399902344 83.4352416992 85.4774017334
179.2767028809 120.1497268677 97.1100006104
169.4638214111 102.6984786987 104.0813980103
198.2627258301 135.8601074219 146.1089935303
174.2498016357 105.8167572021 90.9700012207
145.6208648682 83.7329711914 86.2100067139
148.5088195801 73.9240264893 77.9199981689
129.3894042969 100.2525329590 102.6839981079
196.7021331787 126.7869338989 119.7332000732
130.6686096191 85.5756072998 99.3876037598
153.6588287354 73.5840301514 71.1699981689
139.3292083740 103.8875961304 103.4381942749
194.3482818604 121.2833709717 126.0960006714
185.7388153076 119.2740249634 105.2899932861
144.1938018799 79.7872085571 84.8611984253
165.4933929443 104.8398742676 105.3825988770
151.4940032959 104.4522094727 112.7400054932
198.0800018311 114.6408462524 128.2599945068
183.9597625732 122.3499984741 105.1500015259
187.6382751465 118.8633728027 116.8859939575
147.8559570312 72.3888015747 70.6567993164
188.7831878662 121.7045745850 110.5480041504
127.7625885010 98.0599975586 99.8280029297
129.7367095947 93.9197235107 95.1599960327
201.5102844238 121.9598388672 138.3150024414
136.5879211426 78.8976211548 99.2070007324
148.2218627930 101.9675216675 119.8320007324
199.7537994385 119.1672058105 144.9212036133
195.7643127441 129.0440673828 145.1723937988
179.5302886963 106.4998397827 99.7949981689
183.6374206543 124.3198699951 109.1399993896
146.2246551514 76.9223480225 80.4199981689
199.9088287354 117.7340240479 130.5099945068
188.1797485352 122.4599990845 101.7500000000
150.7197875977 99.3357162476 112.0618057251
144.1938018799 79.7872085571 84.8611984253
146.7940673828 105.8528442383 123.1600036621
131.9591217041 83.7558593750 95.4540023804
129.8774261475 87.1498641968 95.3100051880
154.5918579102 105.2075271606 114.0419998169
132.9243011475 96.8840789795 99.1424026489
166.2772216797 100.0453567505 107.7799987793
203.5189666748 121.8792648315 131.7890014648
180.7916870117 107.9873733521 96.6299972534
157.9359588623 105.2188034058 106.7267990112
192.8327789307 129.0789947510 131.2361907959
198.2531890869 126.2545776367 146.7279968262
192.8255767822 127.2859115601 130.4689941406
135.8286285400 82.6717758179 96.5960006714
197.9739990234 115.3922042847 125.8899993896
131.4943084717 97.0940780640 98.6823959351
184.7402801514 117.7198410034 121.6149978638
189.3279113770 130.3876190186 113.7570037842
136.8597564697 109.6800003052 115.8899993896
143.6008605957 101.5529708862 123.7300033569
175.6943054199 109.7040786743 88.6424026489
132.5363006592 82.0987014771 97.2549972534
171.3708648682 112.6529693604 94.1000061035
125.1159515381 92.5188064575 98.2467956543
124.9674224854 98.0198669434 100.3800048828
200.1013946533 123.1500015259 133.0588073730
180.6746673584 112.5223464966 101.5699996948
158.6133880615 103.1998748779 105.8125991821
192.6059570312 124.3688049316 146.1468048096
182.2091217041 121.5258636475 109.1539993286
200.4567108154 123.5197296143 149.5999908447
144.4697875977 102.5557174683 113.4318008423
129.8597869873 82.3257141113 92.5618057251
134.3536224365 103.4369812012 102.9196014404
175.3518676758 101.1475219727 96.8320007324
200.6043090820 122.0640792847 132.6224060059
145.4059600830 74.1688003540 76.6467971802
176.3779144287 109.5376205444 102.2770004272
154.1091308594 105.6558609009 111.4739990234
157.8686065674 108.9456100464 109.4375991821
136.5531921387 99.4245758057 104.6579971313
176.6982727051 106.7833709717 99.3859939575
155.6116943359 103.2173690796 118.4100036621
194.4017639160 136.1068115234 144.1910095215
155.8389739990 101.9392623901 106.8590011597
199.8821411133 119.6569366455 129.0331878662
190.8192138672 120.3175964355 98.5481948853
185.2986145020 121.4756088257 121.9476013184
149.4820556641 101.6580505371 116.2919998169
191.9972229004 122.4453506470 118.6199951172
145.2097625732 101.4800033569 118.2200012207
192.0591278076 128.4058532715 147.4739990234
134.8655853271 96.1459197998 101.9789962769
191.1499938965 125.6952362061 118.2473983765
191.5889587402 127.6781845093 113.4869995117
138.3282775879 72.6733703613 90.7459945679
196.0059661865 118.4788055420 146.8568115234
191.8240661621 122.0028381348 120.8600006104
191.0308685303 124.2629699707 149.7799987793
145.8292083740 75.8875961304 80.7182006836
129.8574218750 87.7798690796 93.0400009155
159.7988281250 100.8840255737 108.9199981689
150.1027374268 82.7500991821 82.5090026855
161.8934783936 98.8930435181 108.1760025024
127.7116622925 99.1993560791 103.4703979492
139.3939971924 101.9622039795 114.3500061035
195.9621429443 126.3769302368 117.6432037354
137.4747772217 75.6653213501 96.7509994507
162.2039947510 101.0222091675 107.0600051880
142.3917694092 77.5368041992 70.5510025024
176.4967041016 114.3897247314 97.0699996948
139.3172302246 106.9053573608 107.1199951172
184.4008636475 122.6529693604 101.8700027466
193.6763000488 124.2087020874 115.8450012207
134.0421447754 95.8069305420 103.1131973267
185.9172210693 121.0253524780 103.6099929810
143.0551452637 82.7300033569 79.4929962158
167.9140014648 99.5522079468 99.5800018311
135.4899902344 81.0852432251 88.5174026489
145.7886047363 75.9356079102 78.0075988770
169.5432739258 103.1881027222 96.2839965820
186.9182739258 119.7833709717 98.6959991455
167.1764678955 100.5312347412 104.6900024414
163.0921325684 102.7569351196 108.7732009888
141.6839599609 104.6399993896 112.3938064575
197.9440002441 117.5622024536 145.3600006104
143.6008605957 101.5529708862 123.7300033569
136.7997589111 80.6200027466 82.0400009155
131.2388153076 92.1340255737 101.3499984741
154.5143127441 107.3940811157 115.6923980713
173.5688171387 103.4440231323 99.6499938965
146.4682769775 72.7133712769 72.4160003662
190.9486083984 131.8056182861 148.3475952148
189.9499969482 121.5752410889 97.3973999023
161.7752838135 101.4069213867 110.1340026855
159.0020599365 101.3003845215 110.6370010376
184.4008636475 122.6529693604 101.8700027466
153.6102905273 98.6298446655 109.3450012207
159.9046630859 106.9223480225 110.8499984741
189.8536529541 134.8578186035 146.2939910889
144.6940002441 71.5122070312 73.3100051880
185.2613983154 124.3799972534 111.6788024902
186.4621429443 120.3969345093 104.0232009888
180.3540649414 115.0228424072 103.3400039673
146.2027740479 104.0989913940 125.0761947632
167.8143005371 104.5240783691 96.3924026489
139.9746551514 78.9923477173 82.7200012207
159.5664672852 101.1212310791 111.0800018311
185.9398040771 119.5267562866 99.5799942017
167.9140014648 99.5522079468 99.5800018311
197.2586059570 121.1356124878 138.5876007080
137.4391326904 104.8558654785 117.7440032959
189.7607269287 134.6799926758 145.9726104736
151.4939575195 100.3600006104 110.1438064575
166.9116821289 99.1273727417 108.6200027466
185.0455780029 114.0559158325 103.5090026855
182.1849975586 121.3569183350 107.2254028320
145.4899902344 77.5552368164 73.9774017334
198.2189483643 116.9681854248 148.4270019531
137.7607116699 106.1366424561 106.7459945679
162.4857635498 101.3459014893 98.1030044556
162.4516906738 107.4273681641 110.5699996948
148.1559600830 78.3688049316 81.8167953491
146.0333099365 78.5926971436 82.8479995728
201.1621398926 118.2169342041 141.1531982422
133.0839538574 79.8300018311 95.4638061523
139.6943054199 75.7240753174 90.2923965454
169.3633117676 102.9226989746 104.9079971313
144.3592071533 106.7675933838 114.6481933594
190.8540039062 123.2522048950 125.9900054932
145.7557678223 80.6459045410 83.8330001831
135.6636199951 78.2169799805 91.2796020508
150.5888214111 75.2540283203 82.6800003052
128.3182830811 88.8633728027 97.9160003662
148.2459564209 77.1388015747 82.5667953491
150.0449981689 78.9569244385 77.4253997803
165.6543121338 104.6740798950 96.9123992920
132.7372283936 97.5153503418 99.7099990845
199.0972290039 123.4353561401 144.5700073242
162.9386138916 104.1356124878 100.0876007080
183.5627288818 119.2100982666 97.7490005493
149.1507110596 79.3566436768 74.5559997559
146.8436279297 81.4769821167 78.3896026611
139.9289398193 77.0458374023 95.3419952393
130.3046569824 99.3923492432 104.9899978638
136.8440704346 105.7728424072 121.0699996948
150.7197875977 99.3357162476 112.0618057251
174.2732849121 102.7080993652 95.4039993286
172.6340026855 105.9922027588 87.4900054932
157.9674224854 104.9898681641 106.6500015259
199.9088287354 117.7340240479 130.5099945068
170.7764739990 103.1012344360 101.8300018311
194.6655731201 121.1759185791 125.0289993286
193.9188232422 121.9040298462 149.7899932861
137.7936553955 81.9378204346 88.9240036011
190.0208740234 124.8029708862 127.6700057983
200.2327270508 125.1001052856 135.9089965820
193.7208709717 119.4629745483 129.0599975586
193.6336212158 117.3169784546 126.6696014404
192.7382812500 122.8633728027 119.3259963989
201.1616821289 118.4173736572 143.2500000000
140.3140716553 80.9328384399 98.8499984741
137.5879211426 109.5576248169 119.5470046997
193.9659576416 114.2288055420 141.5968017578
174.7788238525 105.6140289307 89.6800003052
136.2197570801 84.7900009155 95.7200012207
160.6555786133 102.9159164429 112.6890029907
153.2340698242 73.3528442383 73.1399993896
195.9516906738 121.9073715210 127.0500030518
161.7974243164 99.4098663330 104.1600036621
177.9908599854 119.2029724121 97.6700057983
134.5749969482 99.3869247437 101.5953979492
133.3986053467 85.1756134033 99.4976043701
174.1982574463 109.6973037720 101.8709945679
173.0446624756 105.9423522949 89.1200027466
194.4497833252 115.6657180786 130.4018096924
198.6388244629 115.5240249634 127.2899932861
183.3436279297 121.4869766235 100.5296020508
186.8186035156 129.2156219482 115.3575973511
162.7621307373 107.5869369507 108.4431991577
198.2874298096 121.7898712158 140.3600006104
157.0197906494 108.3057174683 108.2418060303
135.8846588135 78.9923477173 87.1500015259
144.6446685791 100.7323532104 119.6200027466
191.6686096191 125.0456085205 151.8376007080
175.6146545410 108.8123474121 95.5699996948
146.3000030518 99.2108459473 123.2300033569
196.1902923584 127.2398452759 127.5149993896
182.6197814941 118.0157165527 106.7718048096
131.5166778564 89.6699981689 93.8420028687
148.7821350098 102.7069320679 116.4431991577
195.9621429443 126.3769302368 117.6432037354
138.0274200439 83.5398712158 84.0900039673
150.1151428223 72.0100021362 65.9029998779
166.6052856445 97.5569229126 106.4440002441
132.7107238770 97.8399963379 100.5025939941
200.7751464844 122.7500000000 132.0930023193
162.9714050293 102.5299987793 101.4487991333
187.2740020752 118.9822082520 116.5400009155
194.8339996338 117.5522079468 149.5599975586
159.8240661621 106.0028381348 110.5600051880
189.7846679688 123.7123489380 126.8300018311
152.6463012695 98.4387054443 107.3150024414
142.4046630859 72.5223464966 72.0199966431
145.4899902344 77.5552368164 73.9774017334
140.0220489502 78.6203842163 87.6770019531
137.7049865723 84.2769241333 87.3954010010
184.4104766846 116.2869415283 105.6574020386
197.0472259521 115.7753524780 124.6899948120
131.2567138672 97.5897293091 104.3499984741
189.3940734863 119.2528381348 101.8700027466
193.5088195801 124.5740280151 117.1800003052
193.0027770996 128.0489959717 152.7962036133
192.7751464844 118.7799987793 140.1529998779
192.4817657471 120.3168029785 141.3710021973
194.0167083740 127.5097274780 124.4199981689
151.4252929688 100.5269165039 115.9739990234
197.4032745361 116.8081054688 124.9140014648
133.2639617920 97.6200027466 99.2938003540
164.6297607422 100.9800033569 101.5099945068
170.2814025879 106.9000015259 94.6688003540
194.1867065430 135.4197387695 149.2899932861
165.8867034912 100.6597290039 109.1800003052
137.2989501953 84.2281875610 83.6769943237
131.3247833252 81.6953201294 91.4110031128
150.9508666992 107.2829742432 119.4300003052
177.7342987061 113.2740783691 94.6324005127
127.9789276123 93.1158370972 102.0219955444
198.9427337646 123.5601043701 150.9489898682
150.8462982178 70.2587051392 66.7150039673
197.5292053223 123.0075912476 131.3181915283
188.3202819824 118.6398391724 120.3649978638
195.2427368164 128.5801086426 119.3290023804
153.4082794189 99.1233749390 106.6660003662
192.9008636475 134.4729766846 149.8499908447
130.6686096191 85.5756072998 99.3876037598
140.0220489502 78.6203842163 87.6770019531
153.5052947998 74.3669204712 73.2140045166
142.9549865723 108.8669204712 115.4153976440
153.6102905273 98.6298446655 109.3450012207
181.6982727051 115.6433715820 95.3559951782
172.5337982178 110.7572021484 95.6912002563
194.2422027588 121.2598724365 128.6900024414
196.6972351074 129.2053527832 126.2999954224
190.3665924072 126.0416946411 121.5158004761
134.7546539307 108.1423492432 117.4099960327
187.8049926758 120.5369186401 103.0354003906
183.6774291992 122.8098678589 103.3700027466
140.1343078613 82.4940795898 82.8023986816
190.6136169434 129.0669860840 126.8596038818
195.9698028564 113.6067581177 125.3899993896
193.4286041260 116.1556091309 128.9375915527
151.0957641602 99.1059036255 108.5330047607
199.7736206055 124.8669815063 134.4196014404
165.9259643555 100.1988067627 101.3667984009
