196.4513376927 141.6878672253 231.0414553699
223.3632339525 139.1133815281 200.7409266030
200.8506112792 140.0027182317 229.7243108080
207.9224186302 113.2759056045 238.1165448530
215.9535892305 144.7892850431 202.8521238493
223.6685911484 65.9409280935 238.9930609979
219.1800383150 80.1604801143 224.1848321349
213.2166517369 102.8713119701 217.1816365253
217.5649660359 80.3955470172 226.8732664683
224.7290904698 64.6573817572 261.1304641966
200.8506112792 140.0027182317 229.7243108080
205.6029365153 114.9651676206 246.8932935040
217.2078127480 145.7889348232 203.9463599896
217.4086967723 60.2265206918 259.0344572957
213.6373902681 76.5843484627 220.4857511430
216.1083983348 90.6283533678 221.0777680091
211.0974435118 118.0685934512 235.4714286322
219.7207948061 76.4561918119 232.6077069524
215.9763351609 147.5861911508 197.7275187998
218.3084771206 77.0099187109 232.3841405272
212.3702492274 88.2894329512 214.4491088081
215.2122295900 82.8266796583 226.7420736240
229.8184587713 61.1127809357 244.6746258822
217.1669468356 67.2835545788 231.8601680065
216.6831484823 149.7078668126 221.7212802528
216.7281975750 148.5413952414 199.8464503019
219.4199557906 88.3041181008 218.9892957282
211.9225016590 89.4886343481 218.4981509679
215.1848446857 103.5617335472 217.5584862980
213.6043892010 90.1896028773 215.2401203949
231.8282141244 71.9033298972 251.8903072911
221.6740753884 144.7971353747 222.8662674178
221.0655337708 95.8864373844 219.5043924647
206.3758482967 140.7691100683 225.3421671116
210.9113272158 109.1692559111 235.7888497024
217.9449066449 79.7858602078 228.2419757149
214.9300741158 91.2847273613 215.8441333622
199.7597979076 124.6556089566 247.7105720747
216.8715167231 100.6719525558 216.2521698019
215.7832440972 110.8366847647 224.9154023945
216.7098966491 78.4120715550 219.3039245369
212.9372848285 116.1669445912 238.7202703111
200.9579961116 142.1919424566 234.2261231763
231.8851156554 68.9656446847 243.9930973333
213.5265159177 142.4567197615 218.8420493049
214.1529296970 77.2732546254 217.6628517585
215.0706478168 88.3696249217 221.9391624213
198.3106088257 136.5935021605 235.7802850259
213.1883782869 88.8290525670 219.0256362071
215.4965831512 89.5397855597 222.3698333940
194.9404978208 132.3233827610 236.1752415782
218.3071506475 82.6794718122 221.8484654915
198.6617099165 139.5406393297 230.1203749779
218.9818065980 149.6137161324 219.4917094906
218.9503990407 100.2457682869 215.2268457395
232.7550102265 61.6484865394 255.0325093215
211.7350401950 101.2307596546 216.0949163742
218.0627526938 111.1088156900 225.5357712054
204.4231455822 142.7928485818 224.0797890177
213.8149249351 102.7884923416 219.4558280581
211.4593064978 72.1859307266 232.4187033458
216.5350799489 98.6829554613 218.7419561422
221.1826609799 66.3080984058 232.9767945406
233.1430599197 61.3581774220 264.4397666294
217.4360051448 111.9465286399 219.4690749453
195.9872009813 132.7525153013 238.0174276124
201.2107038926 141.2704738045 228.2010822355
202.7628722800 144.1094571434 232.2037403899
213.0419275770 143.8158328192 219.8629835350
219.3398586383 113.1689130453 226.6656033215
224.6805005777 63.7544000413 261.8507539437
211.2998490721 109.3570721329 234.3961512232
219.5996799385 105.3169854162 218.7699227135
234.2351121086 67.2799392113 255.3366556102
215.1848446857 103.5617335472 217.5584862980
215.7735316983 113.0478575044 229.8834592980
215.3217066284 107.9942758794 224.1246397383
231.5800230080 69.4169946558 240.9601760731
224.1222836176 61.8942907930 258.6931830110
199.6165467487 129.2673187910 239.1703269227
197.1135100455 136.5530359674 232.0764070531
225.3226909690 59.5892334802 262.3575232246
199.5955739593 141.3867696517 233.3677400404
213.9094580502 117.8571184544 234.3927481675
198.2016448121 132.2980057094 238.7982907170
197.3546646556 137.9385116913 231.5011856427
209.9221560045 110.6366073506 237.5099608768
209.3981431384 143.2996965100 230.1190806547
218.5930606457 93.9396081823 215.2848823141
224.5790726141 65.7181314796 239.9977858574
221.3127322875 69.6726245692 234.4561307359
231.5800230080 69.4169946558 240.9601760731
224.6445491366 137.4908131488 197.4059435744
211.2471718572 86.5402686267 217.0758838549
198.7710966150 140.0774687443 237.8803915717
218.7942010498 93.8803457632 219.5495822982
211.9491657384 140.2972337061 208.2675623556
219.9103493914 74.7620798609 239.1674607414
205.3382022656 121.5896386207 242.9166064038
234.5409293159 65.2476551125 264.4088595484
225.2008513653 60.1179129166 260.0886270102
212.9482860561 87.9645693045 212.7384969329
202.4294322337 135.3607119291 235.8761007937
233.7951540245 65.6510789502 249.2288278673
217.3668044183 140.6729966721 211.5745306672
217.7135330291 103.8634996891 224.8573806663
202.7822361834 135.1966741238 232.9726681022
219.6549259029 100.1729248517 223.7141132897
214.6199170606 80.9745932579 227.3686683696
226.3683765753 142.4394052291 196.3070463390
215.9765010101 104.4374205133 217.0879321199
210.4047671067 110.1088039147 227.8287879542
218.0042671348 104.8192399690 216.4910361511
220.9570958703 95.2117262934 221.7090152575
200.6838926389 121.2963980680 243.1492500339
214.9048811247 145.0768607039 211.5493675015
222.3084885912 79.7996163833 234.5776095814
195.8015748932 130.6784766699 235.5682964558
209.3728938648 109.1748262420 229.0827599505
231.7742207461 64.9565246432 245.8926530519
225.0073774449 64.8393905420 243.5867731276
222.7698694522 141.3306485857 200.7213594192
217.3384268084 138.5540312727 212.5168432931
214.7509516168 105.1280769444 222.9080899871
218.0392826965 111.1233020918 220.6428324639
204.2297397799 127.7702087142 236.1617879901
218.0042671348 104.8192399690 216.4910361511
219.8518657628 76.8106676402 239.3449396282
213.4378754130 77.8276031602 227.8926183535
197.9292475852 122.3829869165 240.7777738831
212.1542387665 75.8885103848 230.4370488185
224.1679545097 65.3664902657 241.4801125268
225.8816159628 66.8066431244 262.2134065196
213.7647251801 142.2590476577 219.1766119632
219.0802142696 64.6134034016 236.0308942054
214.6686782780 147.5924582854 213.1113469689
207.3908911535 113.9200829923 242.2396652992
202.3134202870 124.9322425624 242.2508728772
205.8919183904 145.6660408747 228.0633141818
214.0658318219 107.1750334201 219.4920960594
219.0343344725 87.5851350908 218.6204037772
211.3430969564 79.5012164202 216.8443110300
215.5601834432 112.4994694361 236.5481577328
219.9195694111 143.5936722075 219.8412585061
210.4333376862 99.6106821765 214.8180538826
214.6663246343 102.9029719782 216.0971559495
213.1333848213 76.7747624387 229.2471405223
215.0444185836 143.4960288039 223.2048648902
213.7664321310 97.1707045911 216.4819544026
219.9994782490 145.8295577026 207.5653250398
216.7281975750 148.5413952414 199.8464503019
218.3646825440 79.4518254053 216.4138431972
217.7274266482 104.8389727404 217.5329087581
211.9353765443 112.9641373968 244.5294657566
212.0494122558 148.8877665619 213.0383129329
227.2284821856 67.1155327141 262.5556967568
202.4105457638 132.7701050930 235.4061811649
197.9650456105 123.1554753636 238.0012506656
217.2123129235 142.4487297332 218.8936598020
200.9561998663 128.8265605953 233.0210533283
196.2504664060 137.5336037961 232.8443999368
219.4199557906 88.3041181008 218.9892957282
221.9453805569 146.5683554576 221.0899790724
213.9540640200 142.0319626620 228.1480235898
212.9489564567 109.0742675220 227.9346596232
206.6841345037 141.1578331419 228.1017512637
225.5706018726 65.3211369418 241.5559977061
218.8564988446 101.8420734790 224.4865833124
214.8502753375 74.6190621102 221.3473730419
214.0663014018 114.4610673843 232.4234831668
205.3382022656 121.5896386207 242.9166064038
210.0224948346 118.5645530641 239.7792359289
229.7063401294 69.0183221908 239.7711463066
215.6689579835 75.1589835296 222.5302415933
236.0497792086 64.3056879107 262.7936362947
223.5809420856 101.2021919264 219.2880349113
206.9654668927 115.8852699228 240.3913595791
197.5259434060 131.9968938979 232.9744933015
217.3281888560 80.3108795782 224.5141678508
218.9320326690 106.3324091278 217.9519332183
213.4899970185 97.2465603557 219.5728336150
208.2549450146 113.6271100322 243.7357956602
216.3035723533 140.9818929048 224.8206130211
208.5310089029 143.3006356940 215.9786839201
217.1670018917 83.4319033414 223.3981707178
227.6343974202 66.1877995058 248.8214694194
231.9844311821 67.7997907097 247.7734536778
212.9660885599 141.0842825642 228.5155632547
198.4792486839 137.1340999379 230.5256940851
215.9920275462 147.0518746944 201.0044841979
201.6346302722 121.3603053122 242.0935859283
205.9465859210 115.6015193073 247.6039186540
214.0907938345 83.5348231586 217.2426364926
220.5258234958 93.8132272730 219.4890922525
208.6231723161 120.7343720803 251.0099353644
209.2086900808 111.7926603179 237.0031257651
221.7545086132 146.4834701953 200.9749789187
231.5608711193 61.8464141045 243.6864694187
209.7100332793 112.4146721423 245.0343417519
207.0605044414 112.1629264017 243.8959051033
225.2643054952 140.8006227678 198.4131219948
220.5185385500 145.5562694850 203.1393532884
207.0856422580 145.4170290247 215.8922647728
217.5381999191 80.5796376011 214.8057843046
207.8634009157 146.8504181694 212.9220267993
201.6608878557 119.3423777106 244.5035914700
214.2779655234 144.2606856007 210.2342854104
228.0411639396 61.1573990385 265.5707913149
224.2460427706 61.2319955111 265.6066752893
199.8948216256 145.3390361274 232.8659869161
201.6959632263 121.6687728848 250.1348923066
214.0519554260 99.3977973938 219.7527602890
210.5440498541 113.1889538289 237.9258582158
221.4508104518 137.7865590482 198.3097236520
229.2523163914 64.0204221090 262.2017479910
216.5906343060 84.8063156633 214.9034643225
221.2706583563 111.5427355167 228.2503412257
207.9255381657 108.3626842260 230.6431653610
222.2352257880 144.7492410347 221.2784578262
218.6924613689 149.6311359559 201.1045696335
217.0369755860 136.3085559563 210.7895213549
213.1260478182 112.0290130670 230.8909184268
215.1809028760 147.6207489213 217.8806998550
231.4502919683 64.0173903611 251.6458083601
216.4969779704 112.2375067693 220.0121632837
214.0364255940 98.6408756934 208.0610757554
225.9522126567 65.0948969233 262.3967683199
196.9030539911 120.8728358965 245.9093327023
211.3967314909 86.9899049636 217.5530239344
211.9726402218 118.0502147744 241.2952910217
206.2968017749 117.8290190342 250.1050270088
198.4125182053 136.2699213336 232.7751592018
213.4884217153 79.2968978295 228.7304488899
217.7031548571 97.9981715311 211.8380620659
201.5612579384 127.1722621918 235.2464915825
208.9570025512 117.6676023668 231.5528266257
221.1933582136 146.5313645354 202.5627885103
218.3024598018 87.3638855500 221.8198774853
215.0121940500 100.5931651494 219.6785319447
220.8934292156 62.8186178560 262.8191271393
216.5277707117 147.9296371796 218.2229974292
207.8245166674 112.4761681038 245.2405707514
205.2961092611 131.0402742870 238.6628441388
196.8122801889 124.2993203943 247.7063299344
225.6889107504 69.6761608507 243.1756485544
215.3548125458 143.8058486681 208.7795356954
213.2166517369 102.8713119701 217.1816365253
234.9058449152 66.4007976003 263.9358453113
214.7345253874 102.6913464500 216.1984917355
198.1356279200 125.2119257174 244.0250235022
216.3426795308 138.3171192659 206.5639592908
202.7672604652 125.2535447665 244.6467848781
206.3758482967 140.7691100683 225.3421671116
223.7003327351 100.8308533573 217.9850774631
196.0036691009 142.6602221120 232.6061151658
214.2069225718 103.6106072824 215.2314034467
207.1241706215 146.8174631265 213.6787365220
218.8121527652 145.4555140866 227.3000115026
198.9079599017 129.2185037665 231.6777880803
216.2743753228 99.4194562019 217.6154497096
214.9677765574 107.5405703542 228.9345276844
213.0437886491 102.0000869250 211.5171492661
218.5668673343 56.6635483490 258.2160635428
229.1505962342 69.4923866712 254.1002528875
213.6842849992 82.3123082317 225.7879692534
196.6113900076 122.0071136887 245.7539854881
229.2007949715 75.3954021794 241.2058883907
198.4415515406 134.7852321299 231.8671335955
230.2527551331 61.7826436022 254.2759139526
219.1981607357 62.6486344801 241.6831912071
220.1952157608 63.0148895773 262.8584760451
207.4975767070 148.0626160411 221.8374311697
212.9791576001 84.9622777596 215.9683331732
219.3896328070 70.9392007839 243.9400071546
205.4701743185 120.4898774859 238.9808140905
213.1333848213 76.7747624387 229.2471405223
201.2337768610 134.0269182117 236.3065865519
209.7970930077 104.8959902914 232.9503018822
212.8047423221 107.3274468235 229.5306292257
233.1219953506 60.7881322023 245.3184764005
197.4204436542 124.4190118109 240.8602143707
214.6992437091 143.7098864968 223.0791388301
214.7285160007 105.1892514331 220.8036972420
221.9040652912 136.4365848912 205.5068076419
214.4437143869 98.4696486083 217.9723574367
208.7034152912 147.9176028681 215.2893727903
221.0149007357 54.2572470612 258.5023797362
219.4189881790 144.0194904967 198.0049209420
218.5733645117 80.9637959127 239.2909296794
201.2535582074 139.5934431106 235.2006858601
207.7888366727 108.7938334838 230.1993057151
210.9113272158 109.1692559111 235.7888497024
221.2817509756 138.5065320227 196.3662596279
201.4785699331 128.9272841555 241.6576452048
222.8100174074 65.3657468337 258.3232522193
201.8239081435 138.2350685382 228.5303410372
220.5346434586 60.5796050240 263.7952046247
200.3972798625 136.1267694480 230.0693507458
214.7508348768 106.4021164923 228.2353178554
234.8321019642 66.2398465772 252.7706407452
211.1158370155 75.8176763842 231.9343559614
218.2093813855 70.9264652267 234.1881257300
216.8951801808 103.4492174820 224.4116081352
218.7518188754 65.8331290194 234.2692962530
198.5437593690 144.5091720096 226.1815177546
217.9414793188 83.6640841720 223.4753172436
215.8318425998 136.4508421308 208.6006713147
215.0786647724 144.6323093614 228.4259272654
200.8269240501 138.0332391827 229.3845991403
235.0427399016 68.0054970735 254.9341243534
222.1372473998 54.0458392734 259.3575704592
213.4084733322 140.1616673036 212.6122359125
211.7720857160 142.7793078727 230.1267066040
208.4045964552 147.9764107465 212.1227046193
221.0655337708 95.8864373844 219.5043924647
226.8640745039 69.4177271132 245.2387528598
195.9723710627 133.2573604338 234.9212695819
235.3806646103 68.0165743063 260.1057254798
217.3681966358 111.9474269419 227.9866396782
216.7281975750 148.5413952414 199.8464503019
211.7295818639 113.4961198682 231.7585971916
225.9057159882 143.0117635835 198.9749315771
210.8997120553 142.0978481158 225.2855527633
214.7509516168 105.1280769444 222.9080899871
217.7122401406 107.9728625269 230.3021838432
212.9660885599 141.0842825642 228.5155632547
221.0228870564 71.4917389921 234.2676519821
208.4652714906 120.7029214999 245.3344179305
212.6096165604 85.0246186111 218.4146458332
231.3364083406 68.0004210855 246.6140427092
226.8640745039 69.4177271132 245.2387528598
217.3776893327 76.8468487015 236.9345614553
198.5973506345 136.5634272310 232.4242563657
211.9690741029 143.2939463844 217.8079862550
212.6413238983 116.4825150784 235.2664096102
218.2253426304 143.0927958334 198.5566702061
226.5009749684 59.5727227095 265.6382079303
216.4321078305 100.3886004995 216.3653450638
226.4668663877 142.9638692434 197.3871219855
217.3369562750 68.9947325535 231.9534335580
211.1158370155 75.8176763842 231.9343559614
232.0626918565 71.2075469950 256.5963944768
208.2038105236 116.9858670538 232.4681425981
202.9733683874 125.0961969224 237.7412272634
196.6839536086 142.4137860196 227.9073092381
216.2438023872 74.2394860287 234.1543299476
209.7891900004 120.9622047255 245.7767321777
234.4111956845 62.7327794665 263.5661125238
205.3067537488 118.2081184277 240.1832200065
217.0219958824 103.8648284073 225.0603841038
203.0807206115 144.5498992215 228.2187669109
222.2479695635 110.2091121540 230.1518445882
208.8636051265 143.8672104466 220.6755746835
212.8335075592 141.0467293390 211.5158435692
218.0589639815 142.3722111597 203.7155085467
211.1510979844 121.2158240189 248.7364604682
197.8051794089 140.6266570608 227.7202290962
216.5355860482 69.8099977934 231.9624640338
213.6686352318 107.0609912860 230.4609337175
199.6708881491 127.1987920447 242.1772365989
213.0419275770 143.8158328192 219.8629835350
207.9044555342 141.9132220802 224.2396570512
209.5785336963 113.5370504430 230.7539843037
212.9479693154 107.4573337591 235.7951954375
220.0928803232 104.0958968132 224.0300568085
196.0400405150 140.2802166753 232.4854605574
216.0862563611 98.6018705575 209.0184111424
213.3169517967 146.3904345701 217.9943811055
220.5019497663 139.2319968611 198.5424765538
204.9088038325 120.2252712609 241.5667655409
212.8451154147 105.6949187234 233.6123425543
229.5859962239 73.3931577759 238.5721456467
222.7572184548 69.5347211811 236.7158659199
214.7953844716 109.0791971716 236.4944827095
233.9449053054 69.1991487384 262.2196074879
215.9321803526 142.4680399712 224.8807886064
213.4817138907 108.9856340121 223.2507394133
202.0908621547 118.6367454703 243.8087325867
218.4290822469 69.9832454446 230.6262289094
219.4093622778 111.2770494425 231.6621419107
201.5612579384 127.1722621918 235.2464915825
221.3529239818 144.1867207427 198.7202810458
216.0902468963 102.3404507707 214.3406943926
211.2406369535 148.3284682356 218.4528976483
218.1376501988 109.9365525604 231.1161275345
216.6076573607 112.2964019507 220.5881077196
200.1493124465 141.2124731975 227.3497273366
217.0077430198 141.0057081466 226.9993745261
214.2067902373 83.0437257689 226.6842869098
221.3199000393 54.7192697001 257.4238121646
210.8927054795 98.6298870300 213.3852911393
213.8056913373 145.2052008160 211.7448240674
219.7486060916 102.0290980603 215.4671313846
214.1747268064 97.9906304314 217.4793434303
216.0736171158 99.8540471320 214.7458090947
203.3768836018 123.1967826236 242.8416312265
215.3411922202 91.6363685751 214.3618066929
215.5400026977 137.6095593798 213.3844313507
215.3414010344 77.6756567818 233.0895790530
206.4349267126 113.4634245212 239.6276100438
212.9660885599 141.0842825642 228.5155632547
212.8938671724 85.4467966789 214.6868392040
206.2459300893 111.7832209785 242.3839238951
215.3945272138 105.7589018707 218.4023314704
219.9493101937 138.7968000694 203.6739269674
199.5951305557 125.1037210454 248.4259875224
207.8286603980 117.7729310962 238.7440126101
223.3374071633 138.9225152959 208.9981864412
211.2539136658 110.8285937695 244.8293227299
220.1669731560 139.8134334934 208.3768817622
204.3873627275 140.8301074802 224.9127309386
212.3326988160 82.6404128832 220.0705379736
211.4666342731 99.1780668239 213.2117863846
209.7169267296 147.6298818531 216.2821350663
218.5089353831 91.3406214393 216.3914898131
229.2880607019 61.8546067296 263.4203027364
196.9016336411 129.3993322908 240.1714424053
217.2056863159 147.4782645227 217.7279458640
218.7020141567 70.5316115424 233.8515870763
218.3938185193 79.9841857200 221.3421859596
219.1316058360 142.6572894755 215.1434668028
229.0485866644 73.0709762678 244.3748011480
215.4234131912 84.8300323597 213.7844846073
231.9388423345 67.6832937808 262.5591429311
215.9701130641 145.2814870928 201.7680072259
218.9130003814 141.0648430131 209.9518992263
220.5813035266 78.4436027451 233.2554457813
219.8022631460 59.8077091197 263.1302566070
200.4009488177 144.3130415154 233.5688696617
218.7683740617 135.9237249963 206.5873837995
218.0270756295 83.9986961814 216.3140966785
208.8306489950 115.6044172780 243.6113982758
216.6048942452 99.7185593312 208.5806821519
232.4546057281 70.3649881906 240.3576452464
203.1640845298 118.5385315298 242.3928712154
212.8936370872 105.3891755467 233.6273038906
217.2334333642 139.0029287319 199.2955101798
206.9762870913 115.5167763119 242.6513411996
222.0053247532 147.1678732805 202.1150680245
213.1333848213 76.7747624387 229.2471405223
225.2488672215 68.8488856487 239.6450535766
225.7189948960 69.2996483790 244.8877634878
232.1997751329 59.9511178573 261.7225314096
210.4085441310 118.0157391928 239.1185472865
234.2026431369 65.3341447706 250.1985257043
226.5009749684 59.5727227095 265.6382079303
210.7023545902 99.7879927122 211.7240056179
217.3496521071 79.2324671501 226.8120565863
205.0558165448 140.9062581943 229.5981884543
214.1941122605 98.0644733677 217.4839047670
213.6308621708 112.8791206639 235.5211196295
229.2880607019 61.8546067296 263.4203027364
206.2557630716 121.8910645800 246.8434560148
219.4486575565 80.2025086741 217.9869596951
218.9817220757 139.0338368665 208.7935600955
235.9188215292 70.2751703421 255.3998579478
216.7776263763 74.4235685458 235.4354875123
215.7832440972 110.8366847647 224.9154023945
198.2842880278 125.1991386487 235.7776411121
216.6179007158 141.2364296642 224.5523154139
226.0096306569 65.8341972460 260.5601003624
227.9407666945 72.6167811646 242.4250330614
223.3105937358 67.3203588275 236.6262113822
212.6234046455 94.3448726191 216.0534274366
209.4431874169 143.7615141029 213.3849200655
197.9067739008 123.7312220481 244.3679335870
211.8364307044 137.3802260712 212.5614108754
230.8143487005 65.5890013749 255.9502088693
208.9805822133 141.1721042808 225.4603896945
202.7430202788 145.5980177070 231.2387490743
229.9786573982 66.1992952609 243.2717136830
217.1396558952 97.5303019968 216.2617878587
216.8951801808 103.4492174820 224.4116081352
204.0246075939 127.9005642733 240.7654500933
215.6998742392 95.2318535921 220.2077891144
209.7638418561 112.3303234248 244.4966442238
217.5456444210 68.9954838021 243.1482803012
221.0002298078 100.2067631509 216.1841811266
219.2344356910 78.1347144869 232.9131482071
222.6290800052 67.5467938356 244.7200336582
212.4091175411 111.2023272500 244.4395996866
218.3071506475 82.6794718122 221.8484654915
219.7433833002 77.3162095607 222.2305058640
215.5448883533 99.4816999275 219.6795944865
209.9506292609 111.0505823354 239.4682017586
232.1411734076 69.3691003158 239.3723664815
218.3002270374 95.4115255251 222.7281808163
197.0780417512 127.0209378490 239.1576551990
213.4347736628 101.0484373544 208.1585601393
218.2000337670 56.2447812196 262.2151194265
222.5465717239 72.3098485151 234.7466698136
222.0363133724 66.4558744120 243.1862165789
231.9496593074 67.3148028328 264.8191098773
206.2122748651 115.2035346098 241.3066755516
210.4949425755 144.2333164939 213.2732481866
220.0337135956 135.9165365518 206.3214518824
222.5494104078 139.5074660964 194.9823507344
228.7966477713 67.1648228439 239.9633519790
223.6721654248 55.4230049787 262.4322239598
229.2432077815 69.2696507219 254.2349677745
211.0972325709 147.7011071339 220.9578824520
198.5273280364 121.1490560565 245.2218276849
212.5911143693 80.3011366851 214.7893664173
218.0509505380 146.9097035671 218.8427369268
203.4566759736 132.3649961659 239.6330605512
230.5682979133 65.7099044350 256.9691547471
215.9541970820 78.7765637500 231.0993212038
197.5259434060 131.9968938979 232.9744933015
217.4942664034 143.6872378215 201.5157113653
220.4125311902 136.3667240372 208.9489756108
214.6120289709 140.3314822920 213.4761374934
216.4591046160 91.3796265753 215.4341544261
212.3351876280 110.2744095147 229.2252864173
221.4654773166 69.2382052400 244.0193605859
217.3024726057 84.5240132299 216.0643951978
215.0788613083 85.2199009198 221.6677473158
198.6196141874 141.4430431734 238.0019917705
209.9507674214 117.8250269470 234.3160733951
221.0969797853 65.8385122094 234.1750598148
214.2111260929 77.2958399190 229.3926190849
196.3645395911 123.0277436761 245.9965774961
214.8805853530 101.5455433668 221.1630299889
220.5125330086 139.2785478006 201.6431442087
215.3733934465 76.3747363907 225.2511227955
209.3460336122 120.2380211578 243.3719218636
234.0566801610 62.8826665560 246.3424441112
212.1933080286 80.3579160801 218.3060780794
220.2988951068 96.6970745284 218.7177994159
207.8476713913 116.8603208980 238.7896683532
226.6234443822 63.0236878434 257.3355341098
218.4031692770 137.4601930590 212.3754475923
223.7003327351 100.8308533573 217.9850774631
219.7717528691 69.3766145853 240.0266185420
219.0397710468 63.9716628938 239.8611684128
233.7951540245 65.6510789502 249.2288278673
219.1912374222 66.8354556569 237.2744415456
208.5528488988 109.1070751859 231.5439713632
209.7050226993 119.1860163067 242.8109521225
218.3051232111 143.7851016713 213.5354079102
213.6389332152 147.8029252373 221.7278278160
213.7941705597 83.9864252915 219.7697626036
213.1432620744 112.5008826456 236.9987959179
218.0227748461 62.8119691424 262.6773851118
205.8084931664 128.7420174908 237.7380186683
212.1933080286 80.3579160801 218.3060780794
233.3612342488 68.7008361495 252.8463620067
231.3816901044 66.0808825807 261.9528479912
198.9145520250 135.9273303787 236.2179209856
216.0999575077 111.2691467708 221.3867589915
211.2969349781 73.0178391849 228.7486231350
217.3014627289 141.3069673164 212.4434728743
207.7520522924 146.7074074154 221.7838694926
219.6802212412 70.9094919935 231.2960532333
210.4949425755 144.2333164939 213.2732481866
213.6273292954 142.7670168259 216.3119756807
225.5921370180 143.1234378836 192.7315529652
196.4104028255 131.2829218316 235.4536886700
200.6706932229 123.6413892208 250.5445734420
218.7574591623 105.5009752821 215.5757201788
215.2022524419 136.3434795551 209.9326558704
214.7733555585 141.9932046382 215.6178764399
194.6778438641 127.7089772020 234.8964954427
217.1119321489 145.3738752519 210.5724069962
217.4419065373 75.0020276752 228.7873397842
209.0747284437 118.4668010748 245.1482102091
231.1509403587 74.8810638896 242.7219434837
207.9224186302 113.2759056045 238.1165448530
211.0660348646 114.6238327476 243.1812299671
228.8960084701 65.9554839625 254.2838626642
204.0957201649 118.6761547707 247.4660903681
199.9032014594 125.0438911733 246.7876700092
206.4657034652 147.1286383684 223.0914031660
212.7645823397 112.5233857213 232.0880682170
199.8834357367 131.0135390912 232.0802612398
210.1692754586 147.3579716770 223.9144236414
218.0182601393 109.5513235388 220.4495431091
218.3528040456 141.4828093614 226.9358589857
206.2235106364 115.6985396597 248.8901836327
210.1914521446 113.6758392127 243.7837607939
217.7976346923 66.4872098114 233.7881228543
211.2555277841 143.4265294591 221.5906663505
221.0817102827 149.6100216398 218.9420946367
211.4991959715 143.3603592843 221.8187464039
202.7368818104 140.7035541531 226.5523630491
223.2800521494 103.4685669500 217.7117839481
218.5997058101 78.9522862638 216.9765378993
202.8934761965 125.6160094664 236.2143466137
198.3603294295 127.9007762242 239.9777310165
207.1040737508 143.2769835408 215.3428554207
203.3814831064 123.9284205990 246.3093694985
220.1866189239 81.4493271377 237.0539353966
226.1939897910 70.1047308279 240.4076304414
213.0684113783 82.5769949202 224.6807389933
219.8542345241 136.4755900272 204.5494722549
212.3435341794 71.1923924829 232.0142958193
216.4613317226 108.2474008667 231.4933640503
217.4942057739 57.0677458276 260.1161460394
221.9189197112 143.4174154435 199.8138681378
224.6445491366 137.4908131488 197.4059435744
218.9391648472 58.0613726438 264.4879516773
219.2345577599 54.5685009426 262.9500221257
215.8318425998 136.4508421308 208.6006713147
223.1546306033 54.6843497035 258.2806846051
211.2969349781 73.0178391849 228.7486231350
202.7672604652 125.2535447665 244.6467848781
231.4083139018 66.7770878024 259.3365080751
233.8889861089 67.1689568225 264.0751906869
213.0001190129 111.8702991830 244.3880700558
232.7597070887 69.0644278659 250.2147806141
203.6087188083 134.0688619280 234.5807269948
218.0461910821 147.0985507343 197.7736200743
199.0219387744 123.3465204203 237.8476871975
215.9465574273 107.2324001423 230.3375804620
222.2595368009 58.8075899059 263.5661417778
211.2998490721 109.3570721329 234.3961512232
199.7215806261 134.8887399652 236.8710808231
210.5800176084 149.3762147269 214.9244330401
220.1798991607 71.7249385981 238.7864553716
196.6991924031 132.6586868280 235.0427973100
212.4079298379 109.6938315181 236.6947184770
213.4912808559 95.1981598977 216.9013519396
197.6182768146 124.6294882112 238.1790068837
211.3873351733 140.1124737876 226.9393325765
221.5584416137 72.6501206034 237.3041088826
222.7864525816 142.5831060796 194.2890359285
210.1321222968 73.6888877529 228.8488037339
220.5003472437 105.3905409474 225.3109242248
202.1028619874 142.7740258090 233.2419848422
220.4176778164 72.6115449967 233.7745276132
213.2385203826 111.7318254686 240.7303851384
199.3627218730 121.2286635458 243.0738377628
226.2261784288 67.5152622861 241.5465569391
200.4009488177 144.3130415154 233.5688696617
216.6065132863 91.6122894768 214.9527586062
219.7884144173 142.4266454633 207.4818760792
213.6604031546 147.2993373652 212.6413376291
233.3150622910 60.3265756444 262.4189589081
229.6967498943 65.6151983545 252.1328059098
198.1604932266 138.3530715817 236.8804365256
215.1492505501 70.2184219088 231.8931634663
198.6707861269 124.0444637502 245.7125992351
217.9528538535 66.7205708494 246.5885749067
213.5265159177 142.4567197615 218.8420493049
229.0485866644 73.0709762678 244.3748011480
214.6812363613 107.2564792405 229.7466285487
214.1762634196 148.0684801145 227.3611763708
217.1564572614 77.2654355075 234.4391834675
196.2937601375 123.6405588254 246.2449995858
214.1715144940 145.6750813103 228.5390111467
217.1284742168 74.0061398003 227.8020610194
218.4072049113 83.5867944671 221.9640930612
232.9753152906 64.4492027670 244.2700487255
201.5000247193 140.6241100309 235.8917273120
216.8385159953 110.7154874055 217.8068628873
197.3546646556 137.9385116913 231.5011856427
235.5286520248 65.6180907891 250.0384273009
221.6416168969 101.3480366054 220.0319614389
204.4562919670 117.5585013153 245.1459331625
203.6087188083 134.0688619280 234.5807269948
222.7572184548 69.5347211811 236.7158659199
198.3761637150 123.5071165774 236.5189239962
217.1007586022 143.8972075868 199.5321617638
224.6805005777 63.7544000413 261.8507539437
199.0658424364 118.9941482769 245.1345828911
217.0396177810 81.3581487971 222.8647523272
218.7683296668 82.3416615715 218.7233067026
210.0472039877 144.5513328583 230.3557686885
217.8420643932 91.0153335580 217.9522872412
207.1682918815 146.8267009199 224.8426673479
205.0133110987 129.9446902479 236.8416718437
206.6084947141 116.6685222969 240.2268188165
196.4365171304 142.1927010275 227.9452932265
219.5948122917 81.2138493756 220.3313655952
206.7983071046 120.4122142594 241.7160779964
230.4359772165 72.8408319791 244.4864320423
197.1080376274 140.2137473402 229.9618097231
228.2494438060 62.3328731194 265.1381333287
216.2743753228 99.4194562019 217.6154497096
215.7642335212 98.2090656907 217.9039077268
208.3060987069 114.2281686001 235.3034645647
202.9288749307 125.5482994567 240.4711070421
202.2669034836 141.7445021971 224.2048569910
229.8184587713 61.1127809357 244.6746258822
214.6061392885 135.8335915035 212.0820226862
218.7832276135 146.3276827078 218.6763873549
214.5866306254 83.9933679282 217.5084255824
235.5176380309 71.0301995788 253.5620390119
219.0768288348 79.5330213878 220.6570099055
217.2212208086 109.5222801289 224.0051595436
229.2424776877 62.6973798921 258.2229252407
221.5564589420 138.5051554839 199.6127111052
206.2843096175 146.9598192115 225.4841432867
220.0725949182 144.0630938187 219.0962953368
219.8411143294 86.6050246293 221.9959085516
212.4676809847 78.6968046668 215.8688194723
223.6718270639 69.9532171686 242.8998373434
228.9985343306 67.9908112278 255.1713897249
228.3560897658 67.1489412818 262.6830256920
208.7097620955 146.5971102444 212.0361592881
213.3181845110 111.1247465075 241.8673538042
208.4635766351 113.9881842202 235.5168706242
215.7230599820 142.5097526521 224.7184619415
202.4834851538 127.4665261573 235.4943878242
221.7519253630 144.2593890195 193.5541185551
207.0272131844 147.4010570543 226.7006998147
217.5456444210 68.9954838021 243.1482803012
218.1376501988 109.9365525604 231.1161275345
198.4221180090 131.7049616644 232.4150667745
231.6235750102 66.1679961376 244.0399414796
228.3899499817 66.5039496504 240.9481111501
214.7559111618 84.8412392620 214.0465988378
215.4078315397 135.9910409210 212.7152809285
229.2308397310 65.9552676141 264.3849834496
219.5908842122 139.4006997970 202.4406428612
197.5089896692 130.3331550347 233.2918881842
222.8434792797 70.3030904793 244.0188701177
218.2359916731 99.6911720946 213.5130418870
232.3667755109 65.3200456081 247.8362814865
221.3529239818 144.1867207427 198.7202810458
232.9753152906 64.4492027670 244.2700487255
231.9051308399 65.3303577782 261.3260115775
220.7492411750 56.2018365510 264.2475738601
212.4736466772 111.6039075498 237.7838930561
218.3811319981 65.3078619741 235.6190905806
216.9144732737 75.4449301067 224.9199829733
220.3535711888 57.6121928397 256.3425437356
218.1652723525 66.9616427030 236.8521709246
196.4513376927 141.6878672253 231.0414553699
223.1131906505 54.7661111195 259.4515785217
218.3487471095 102.6533299479 215.3243301235
215.0121940500 100.5931651494 219.6785319447
212.1741392093 119.0728454290 237.8198409639
218.3625456235 57.8264244763 264.7906460029
220.9682589216 78.1895801931 233.4840633331
207.6339644040 147.0184363546 229.5290028177
209.7970930077 104.8959902914 232.9503018822
213.4743014803 100.5641153258 220.4852690946
198.7940663733 127.6031730233 240.4641399017
224.4218263221 142.7879407727 193.9927100035
210.2114633580 71.7732795869 231.8708913582
218.0042671348 104.8192399690 216.4910361511
227.9167620318 63.7081290022 257.2417806331
232.6288380252 68.0653861017 262.6639684734
216.3233290625 109.5935685981 237.4485870802
217.2658197488 98.2066182580 221.0507934346
215.3548125458 143.8058486681 208.7795356954
214.0144035797 102.1069239161 210.5329102971
218.5733645117 80.9637959127 239.2909296794
212.2315782576 114.4959909831 231.5666176823
201.7338527759 144.2410109632 227.8764693366
217.1935936732 110.2624244235 225.0252438796
227.4683523641 63.4922766545 251.3535438591
219.6058276917 76.6485674204 232.8529726218
220.0157096523 111.5566979044 226.0320983812
214.2111260929 77.2958399190 229.3926190849
225.6077523039 70.0934019014 240.9815769037
221.4862692045 63.8279569538 239.7107388954
206.6432352319 145.7460093700 214.4048330057
228.5792720384 62.5100525412 265.4648406881
213.4030536994 94.2831275289 218.0445069877
211.5777737377 141.7833807725 208.3277379409
235.5819876171 63.6669415815 260.4097374691
234.5904971939 61.2646736046 249.8194179432
222.7864525816 142.5831060796 194.2890359285
207.5932014735 141.0802523995 225.5295053813
220.4619395454 142.3643056337 197.4740515400
218.5089353831 91.3406214393 216.3914898131
210.7174146368 100.2501113387 213.6284184020
215.5977099918 146.9535184518 213.6604791055
213.0137776466 147.3819396885 215.0174727476
221.2694964376 100.3558889045 219.2775787944
219.2344356910 78.1347144869 232.9131482071
214.0237295575 76.6887527696 226.6837161290
223.3295481379 61.4848827221 266.0775893842
213.5414628904 143.2559858642 228.0326350799
216.9310435885 143.2054900901 203.5464941240
218.7696556152 139.3823798150 209.2122529102
213.1666657351 106.3012856790 234.4502926746
222.8600040444 73.3057363900 235.7319485785
209.4881126836 105.2695613086 234.6869429597
229.6967498943 65.6151983545 252.1328059098
220.1880943620 70.6974781007 243.5095440538
218.6166150183 139.2678807124 197.6619725093
221.2706583563 111.5427355167 228.2503412257
200.9987720540 145.2923867684 228.9525676381
221.5910705946 99.8787419360 219.1941309025
227.5106961871 66.3317648859 262.0706727201
217.5873321709 144.2788403926 218.3986004284
216.3695411430 61.0693256579 261.9675527616
197.5392067786 133.7258715267 237.4101433009
228.0571248340 67.8001391386 260.4927672956
199.0317260685 143.5927089187 234.2236909987
198.4792486839 137.1340999379 230.5256940851
199.2843027247 118.6159087787 246.6348542735
210.6915343917 100.1564863231 209.4640239974
206.1805544062 121.3923771246 240.9828313850
205.4332826962 120.2269188124 248.1372689940
225.3594405860 60.8769151122 258.0519399299
202.2997258654 129.6725892588 240.9945121778
211.9671472510 98.0855385777 208.7791063380
216.1416278274 89.5099942042 216.7843079441
230.2500702309 70.4030929531 257.5359786922
210.4949425755 144.2333164939 213.2732481866
197.0257672002 126.0354752039 235.3881262344
217.9300211866 81.2577525892 223.7927555227
210.3909921893 117.8337973316 247.4820803353
199.4816185795 140.9542191764 226.8288543402
214.8502753375 74.6190621102 221.3473730419
216.3968468063 99.4655137192 219.9801814312
227.3228439757 72.1879467912 242.7835654772
217.9352841110 78.0874580455 215.0640023344
227.6865564923 71.0818715495 243.9449472178
204.8584773260 139.5482327639 230.4568016685
209.5109100521 109.6722783107 232.5556263341
217.4217664915 108.9848994507 223.5516213401
209.1311239387 117.1730641899 238.0096458612
222.1198708568 56.4875089227 263.0861919929
197.1832428129 126.6395536756 236.5449700881
222.6292067237 142.1098744971 203.3268960064
197.1545514053 133.4830409643 233.0346688867
202.0026596960 133.3570975469 237.2908445898
204.2297397799 127.7702087142 236.1617879901
214.3418296531 136.3108025447 214.2098855208
222.7063593655 100.2541983916 219.8905657381
213.7941705597 83.9864252915 219.7697626036
214.7856176073 142.2816679066 207.2034923676
213.6929897620 113.1758653936 242.1590493811
202.2245002273 144.9392561380 229.7774187257
227.4683523641 63.4922766545 251.3535438591
222.4651755372 137.0649820515 198.5647312829
223.8078985807 70.3872520793 240.5362792266
221.8650693920 67.2335508020 243.3753753472
197.4413111629 122.5776171203 250.0814766159
227.4544428688 65.4108774488 245.8921078365
222.5884871816 66.3302323191 243.8951207975
225.2367919355 65.6846356056 260.3318202619
221.3353899818 144.7836818117 195.0591220758
214.5124016616 85.8730750725 221.8999831568
207.5151918552 143.6286247546 213.8605287513
210.6518082880 98.3186980429 210.8861750815
213.1935887068 109.3351816217 221.0715687650
217.5558232102 62.3714306587 260.5559558924
231.4083139018 66.7770878024 259.3365080751
212.5120405245 142.3915603703 215.6155408451
215.6990353033 111.4517357059 220.3608775428
198.2842880278 125.1991386487 235.7776411121
211.2273403421 100.2035044748 216.8935676462
231.8282141244 71.9033298972 251.8903072911
218.2233623275 138.4137159360 203.6142492146
214.9677765574 107.5405703542 228.9345276844
216.7119095371 72.5134925141 234.3463129332
217.0963834356 82.8264178232 225.5758486109
230.5476628070 75.7042904377 241.5481859650
217.3486888106 61.9555763803 260.7776518026
214.0231031429 148.1898196329 221.2587654554
221.3169048477 140.4111208346 209.0124402139
199.1661928912 120.8055921348 249.8524145315
229.3437073892 66.0023462167 242.2462915414
221.0212389927 68.6311993753 233.9402526426
197.0849613727 128.7737763068 233.2691159491
195.3182768537 130.2944089404 236.7808933185
217.0551997835 95.5460566040 212.8625395896
224.3104062467 64.2092138748 263.3027861832
224.7800574355 140.6491401141 199.7648412747
216.1464452848 60.5947374928 260.6157183763
232.2661461707 71.5740421379 243.5861622808
211.7800481296 96.4955950339 216.2863668039
208.7097620955 146.5971102444 212.0361592881
216.9871120513 146.4634661153 225.0139559309
205.5191692222 122.7403501178 245.5760385942
217.2823496716 147.3016833370 227.0312966654
216.5296258582 59.5660934057 264.9469078070
206.7978346020 114.0803173579 239.0920364107
214.9300741158 91.2847273613 215.8441333622
215.8637726872 148.0450533272 219.5407836602
195.5405681099 122.9588235124 247.1603155582
222.5634768705 143.4234185711 192.2663311164
199.1661928912 120.8055921348 249.8524145315
211.6758704252 111.7973610611 230.4189771467
220.2950040500 139.6593623475 197.4886484707
217.5558232102 62.3714306587 260.5559558924
207.3908911535 113.9200829923 242.2396652992
196.0400405150 140.2802166753 232.4854605574
221.9189197112 143.4174154435 199.8138681378
201.4639563796 130.4398999240 234.6172138824
215.0461998245 147.5681352337 216.9961055384
214.0592517799 142.4527656491 207.5593416594
218.3847999638 75.6896288312 221.0862112087
202.9588423155 136.6072923065 231.9362103606
221.0027178105 106.6906088789 222.8264332972
213.7989357378 87.0291280396 221.3931480451
213.7442327068 93.2572621858 215.8488384104
221.1085224361 76.0608366960 238.3420065713
216.3988890260 86.6250676844 214.1869577667
214.6098367859 77.4214479836 219.8769429350
221.6604979593 140.0799387076 210.0986268953
218.2801365248 139.4320612721 201.1376962141
235.3097592642 62.3687213504 258.4829094148
217.0842707102 136.3186030365 211.8239061724
217.4164048808 101.0540489065 210.1243310025
216.6068725108 101.7355979775 214.4189131038
204.8363108299 121.8432438185 245.4968032730
208.8306489950 115.6044172780 243.6113982758
209.6780981811 147.3121419727 225.0882208765
199.8486069706 122.7879802109 240.7855998465
200.3972798625 136.1267694480 230.0693507458
231.5800230080 69.4169946558 240.9601760731
218.7176898185 78.0598390339 230.8567480892
202.4471106296 136.0877643121 231.0266861329
224.9323376489 140.6795199198 196.4156477602
218.8518734570 71.2593653041 232.4150860076
221.6604979593 140.0799387076 210.0986268953
208.7746467599 106.4256142758 234.1801078480
206.2557630716 121.8910645800 246.8434560148
225.1696146685 64.7670138786 258.1927470343
218.3938185193 79.9841857200 221.3421859596
200.5582104585 123.5107366303 241.4485096520
198.4125182053 136.2699213336 232.7751592018
220.1399578975 71.6861804770 243.0839517111
234.9058449152 66.4007976003 263.9358453113
218.0793672278 140.9331859482 201.1189904039
220.1203381089 100.6199785108 218.9448505167
201.0717695415 123.3075152843 238.8050225845
216.9320721559 73.5538476296 229.2605183089
208.0844207782 116.7439316496 236.1674598270
231.9496593074 67.3148028328 264.8191098773
217.1702871721 144.2644334785 215.0684916256
214.3015079971 142.3538446280 219.0835147776
216.8329179116 87.4709759210 215.7590523894
207.5187749859 112.1375894852 244.8938295563
204.4562919670 117.5585013153 245.1459331625
200.7165403208 122.2174841276 250.7140751771
203.9045568692 142.7620941345 224.9909575545
214.0336433542 107.9816066842 219.0915176844
224.1938977741 139.2622609020 208.1696765167
216.4104026346 84.1254364933 225.9166194540
207.5510266295 114.7620526709 238.1767204383
215.8863878327 67.4811847008 235.9583545715
218.4381133087 66.3792196212 239.9586531778
213.6817822966 108.6576610733 225.5413523263
218.4276231707 88.7279412008 221.1664335754
200.0196227834 128.8555145523 232.9065076197
207.7570434911 119.6834030596 250.2833883023
224.2102265122 67.3864445188 235.5540925697
222.5419737677 66.7755107758 237.2925305477
211.1584894329 89.1753926460 217.1534853198
220.8517350920 55.1129068781 263.9598460985
202.3745879914 131.2226253256 237.7471990823
208.8241484372 112.8705307646 233.1967134185
216.2475911475 142.4161060380 215.9087726727
211.0043523270 143.2613226891 214.8230991256
210.6814464586 87.0177929732 216.7836244509
219.4209434582 104.3727588881 225.2609729391
220.7237868860 54.2093816485 259.5731789804
217.2104224818 101.0906455988 211.5176355468
215.4583778420 137.4603355903 213.5531114648
222.9426390441 143.1057623719 204.3121747712
196.4146084939 135.9552452095 234.5963568819
221.0969797853 65.8385122094 234.1750598148
207.6732614100 145.0717214955 230.3481427393
224.9323376489 140.6795199198 196.4156477602
199.9021061728 126.0922405063 232.8241550387
225.1877018763 70.0348937177 240.6535957131
217.0396177810 81.3581487971 222.8647523272
217.3014627289 141.3069673164 212.4434728743
215.6315565555 105.7091176218 227.6894895902
208.8978944651 115.0709409292 238.5190180125
232.9892253651 71.1817769173 241.3969853048
213.5779206828 80.7144734495 223.3633248996
220.9682589216 78.1895801931 233.4840633331
222.1754043572 145.8508665105 197.4264680667
218.1679087715 76.6082129565 227.2222198187
196.4821492581 139.0794791821 232.1787030804
199.8571301390 141.1056309188 226.9505557156
231.6474574700 62.1469428128 250.5079187227
216.3475073792 145.0263307632 228.2453441595
210.2819223758 117.8697306578 246.0971586968
234.0925390407 64.1042125914 257.1949661984
224.1817573127 60.6357074184 259.0053176881
221.7939576478 95.1878306490 218.6154308098
212.7244094893 78.9836561274 227.3857832418
219.7884144173 142.4266454633 207.4818760792
232.2319352649 67.4308831888 243.2224070812
215.3630288135 78.1031832966 218.9616269626
212.1741392093 119.0728454290 237.8198409639
217.3014627289 141.3069673164 212.4434728743
207.1527123060 115.8366310105 249.8766407878
209.0180878885 145.9767106383 226.1264653289
205.1279061643 145.3527991726 226.7186485336
210.4977615013 112.0549983516 238.9738950017
200.3972798625 136.1267694480 230.0693507458
220.2682651932 107.8091556922 229.5442362337
231.5608711193 61.8464141045 243.6864694187
220.7661239041 93.8415991325 215.3060001753
210.9932739992 110.8411983192 231.0381242134
219.4115364149 65.2220062468 246.3948569430
228.1599056264 60.3200024303 259.6911205950
220.6097152665 66.5207680155 245.5694023918
212.4573233273 143.6051839678 226.1275859521
231.8513281764 71.1882147387 239.1838877277
199.2633618477 137.1330776686 230.0228905941
221.0613688891 80.2556534700 238.7558931541
212.5713238993 70.0286829774 230.5953023866
196.6113900076 122.0071136887 245.7539854881
208.5880018838 120.8888245122 251.0706528189
214.6453262419 97.9104497039 209.0840764512
211.0140490252 146.3054547692 227.6201041120
210.9035256780 98.2613934191 215.6452727597
198.7426305858 144.9039611198 231.0945735657
194.9154611649 141.0846227636 233.4609500587
228.7665344117 63.3407582207 245.8922788710
218.2869508023 90.1337668738 220.3148902533
212.7520741875 111.8032939966 229.8754815969
226.0096306569 65.8341972460 260.5601003624
213.9781896320 81.8485716081 227.6446268282
232.1997751329 59.9511178573 261.7225314096
206.1805544062 121.3923771246 240.9828313850
208.2079567947 148.9651156799 223.8394484641
197.0845514842 130.1687185930 233.6440085315
222.6793209140 102.2687330511 216.6247487580
229.8091882305 63.7457114154 245.2827855454
220.5845847968 145.4736715491 203.9363046389
218.0735301065 95.1310193382 222.0038083086
209.3176509320 112.5716801515 236.6567770536
208.6884296766 108.0081325429 233.8494393132
201.8547509192 130.8267528380 234.5224798138
219.7551682238 97.1787475391 218.9995877775
213.5612694125 111.8224048430 242.8002604641
217.7631079410 57.2514903377 258.7816567878
212.2315782576 114.4959909831 231.5666176823
230.4397791360 66.4649458459 241.9054392000
217.9352841110 78.0874580455 215.0640023344
218.6153890166 77.3542964318 239.1129142190
210.5418391342 117.7518991425 242.3376342658
221.2812506578 72.3339276133 234.1557179003
208.4652714906 120.7029214999 245.3344179305
222.8821548242 63.3980025966 262.1855469244
202.7491174988 134.6675950230 232.2371598659
218.2093813855 70.9264652267 234.1881257300
215.9629095154 70.1489804261 229.5908381622
220.3635036867 149.2356402630 219.3283799336
232.7276128281 66.9945022144 260.0322059355
221.9854213243 72.3577428552 236.3344794053
225.8924329357 66.4381521763 264.4733734659
220.3965624408 143.3373781469 207.8235430697
204.1562452285 145.3564043689 224.5724687302
215.8985311392 111.8783428896 232.4286229800
218.1722609084 135.4138369448 208.7367506154
218.5410454448 111.7403179718 231.0490701134
196.3537135381 137.7448512027 235.7522230842
203.7140591362 125.3849234609 243.2043133761
220.5134824795 67.0178600468 232.3440920886
218.8323281779 146.8866339469 225.4828895100
216.8749423590 110.3276487509 229.9985069517
214.8842091891 146.5976782596 199.0547234484
213.3525073971 92.8138328596 217.2066764513
198.3761637150 123.5071165774 236.5189239962
212.9244036987 80.7634314696 220.1052162195
220.3820392055 70.4311276591 231.1225560852
202.7419897809 135.3003092505 233.5329229547
215.4608643945 80.3863400205 221.2885216491
213.2285710857 141.1863036464 207.7348457892
219.9137825353 108.3437180985 221.1925430619
211.7494408845 146.2924433411 218.3704571607
219.7621044213 143.8095257813 205.2301176180
217.4486317709 105.3579159910 217.7653098256
215.9811896284 81.3037377782 216.2308934200
219.7966204196 107.3664837110 226.3545040708
216.4613317226 108.2474008667 231.4933640503
202.6665035141 122.2942829849 240.8396139320
234.2972019277 66.4093862075 258.0245681554
208.5880018838 120.8888245122 251.0706528189
211.5373554496 146.7511559699 211.7649080997
203.4458994931 140.0647460168 232.4093524753
209.1348407327 110.4105875053 240.6912201883
220.4337704295 101.6158663856 219.9301292815
