223.7248072896 149.1941249633 223.6086060608
219.5086053406 144.5805978593 227.2803133850
211.2296755069 102.7257760454 220.3695408452
208.0190366647 92.9561967124 219.3354925685
225.3001171542 83.9551204860 222.8424895990
197.4694216645 123.9899466694 224.4082369675
202.5768523928 135.0111304841 229.7136200541
204.5523251503 116.0431090075 217.4400909216
216.2906894609 137.6301486672 229.8550485315
220.5292549816 74.1460457145 243.7770306002
208.4499804087 114.3669396986 224.5312680720
208.9233473139 112.5080845818 224.8838924836
215.7862835630 139.4179162522 233.2999615038
203.5308009345 102.4987926904 211.7317407375
211.5818972678 145.4051862323 237.4587557203
217.5320789444 76.3342334820 248.5533026278
223.3549394936 70.7562600502 264.2548220080
212.6284182657 145.4097433175 223.8804591335
210.8970584052 77.6737510595 253.9201682327
210.8388662198 143.8247556674 231.4633032892
235.7699377934 89.8526701627 224.8659512130
212.5581222485 78.9963308500 261.8099053009
231.5166262268 94.4482851480 221.8042763938
221.4434462597 77.2816159826 243.4131706278
195.8440452051 137.3095589503 223.9724374628
220.4467745072 95.3178084390 217.0999775617
226.4772147709 78.4595003267 229.8663202928
208.6863459859 103.0654443967 211.6502071856
225.9710433283 82.8486459653 236.2671794897
203.2504620011 117.7993961794 220.4812700062
203.8377343534 111.5552284473 220.3403181587
194.5140681561 132.7730621696 224.9970068935
213.6343150824 74.0313993819 255.0916720514
230.1304430808 149.7265010036 216.0387600422
216.6590753079 147.5034267256 218.0072662164
221.7518484381 83.3424018422 236.1980641482
220.9186561448 142.2658725126 223.1444567325
221.2479728444 148.2743930487 219.4458433918
218.0474960125 136.7931104104 227.8028714550
237.9403802334 84.2322353608 222.2709082038
195.3368481771 121.1772824598 223.4889940578
212.4887073069 107.7816309488 209.4988266768
201.5512839661 136.9011577955 232.0591437676
202.9686198752 120.9186265582 221.5950323700
208.5692718553 106.6262269098 210.7024719913
199.3906112043 129.4447060051 218.7609930373
219.8248377925 69.3333143355 262.3637666261
204.7356849700 126.4773058729 218.8166048861
202.1446394080 120.7819494598 224.4214724673
222.8218814282 80.2447523146 244.6466355974
217.7005467676 71.7562673987 264.9535938758
223.8591734149 66.8962897977 254.5341782209
221.2534929866 150.6733613880 219.4176769234
202.9697149211 121.0154385018 223.0250398203
217.9484279088 73.3791478173 263.2052834762
221.1786708061 84.8724926719 239.1658607250
195.7411184438 125.6983315844 220.7064431799
193.7809353616 128.5573653738 228.5334062228
234.9685406574 77.5897008316 225.4588307121
238.2859000916 82.8754040502 222.5283084669
211.0423029909 112.5366990255 213.0904882906
213.9482847041 97.2186073011 217.1516002603
203.3400790045 142.7641368442 235.3972691339
198.8529143455 124.2152006926 220.3612922378
234.9267889973 76.3082166461 228.0198328494
217.7787876530 73.6605766912 260.4007306999
200.5648538510 114.7773768662 214.9141058803
217.4216543237 83.5427227245 260.5992689575
204.0487396417 117.3656276286 217.1153300304
211.8846727129 107.7551617979 210.5890602807
206.4569387252 116.6330437624 218.4081702215
223.0298215804 71.6976036200 267.2919917267
227.5128792583 148.7883962210 224.7112136693
212.4537164733 73.0477763691 251.2239784147
219.0484945066 70.9009259104 243.3895909871
204.3502554017 115.5617542234 217.4764581306
218.9952186762 71.7959930907 243.3598089459
223.1339539821 151.2128957704 216.2683695044
222.0088543500 143.2734764212 218.8406971731
207.0183705985 137.8331618155 232.0110425836
200.6115560916 134.7765612200 227.2548418761
224.8153184929 78.9501171151 254.6393416646
236.3814925299 82.1102265501 222.7506784424
222.9696414910 91.9471198005 226.0125573366
210.5397104091 107.2026367524 216.3314610743
228.5159980616 146.1499021673 217.2838495071
217.9178587994 81.0116630028 237.8226416771
230.3736720137 72.0883729611 223.6032231493
204.9086200680 137.0353669550 228.3123880337
231.2029282913 85.9034992918 229.9192785603
204.4199862977 110.1496278784 220.6028294231
230.2659171427 87.4913583228 222.0222281023
221.1133714030 80.1780831455 248.1485539745
204.1102273731 112.6677152868 223.0833757602
224.1333885873 71.9543201313 267.0571180250
198.1254137480 137.9636200697 228.4960182595
220.8336141394 63.9957576566 264.9174525475
232.7677342093 78.7472636316 227.7814823924
223.9616530756 85.2717055196 225.8850858251
210.8970584052 77.6737510595 253.9201682327
229.8193643318 86.0754106774 233.9094236294
206.9890410818 142.0703838006 226.8624679681
218.6550025716 96.0228234127 220.8515350901
219.0676006776 76.3450577017 260.3932227399
216.3526120321 93.4542558573 217.9576181619
219.9831610301 76.9018490658 228.2317032583
214.8214956025 140.1557333497 223.6537129084
217.2826923601 76.1870970700 239.8500534023
219.4859856558 66.5617446753 257.7599344510
203.3886082148 115.3713455557 212.8834809416
203.0067279617 146.1636959524 234.1515719345
206.2892163856 104.5676981529 209.7992283439
224.6791286126 153.0135911505 212.2646239288
219.4906944519 80.4584816408 250.5523633543
222.9791997434 76.7656755756 231.8512306480
208.4085845443 107.8683079156 216.5549416571
232.0542611159 83.8291719644 217.7555629597
213.0222115769 71.6960895253 253.3178792545
217.0893625058 74.8357155042 254.0555445880
218.5627583660 74.8074916887 237.7904686923
218.4196728203 78.6882910891 269.7974606922
222.3148554365 81.0708859808 246.3578864473
214.4560091125 84.7291952075 219.9548759410
203.4083978370 109.4149871034 218.7876184220
223.7243454086 147.8778738218 209.1456287900
219.5806077904 153.8636028761 213.5802562975
216.1929622968 74.2392419127 257.3058116795
219.1569042809 78.4684354923 241.8917899487
193.8487739500 120.3628774982 226.8454301507
215.6875146954 144.8725138679 226.1081046246
222.7036890038 145.0919009634 223.3394739574
218.2418574291 88.6815495882 219.0190474369
199.5418187821 139.9561935346 224.0765780387
204.7197646479 129.0573548320 222.6526085291
208.2702086590 73.7185937416 256.7687724422
206.5961755134 100.8154314867 209.7682717712
222.4484518054 148.9107565003 213.9572253838
213.8282453460 78.7915682588 266.3568910547
211.6495767221 143.5117621137 233.1306709877
220.3362984125 79.2875231625 237.8020053561
200.9507930939 135.6597045073 227.5753497539
229.0950113467 75.2532996869 223.3091989435
225.5443273521 81.7620818855 230.3955125518
213.9695180374 77.6743004721 250.9793065291
224.6612801690 85.6582162423 231.3293123895
220.9320376788 146.9298842924 210.5111294028
194.5333051192 134.6870411042 223.8665776366
234.8769463779 73.2232184397 223.2776469453
203.8379806770 103.2605025710 212.3383024753
214.6714724096 140.1669104471 227.5538844081
225.7047299546 81.5044873771 239.4552647752
213.0333265750 146.0800443256 222.5476959349
226.1116153110 142.8016376039 222.6349744173
223.4017495186 152.4274150768 208.4194996697
201.1828167358 136.5212669182 217.8396939177
217.7787876530 73.6605766912 260.4007306999
224.0608534031 83.3784721013 232.7226065886
203.2096344623 138.7006890396 233.2010341097
215.7674447732 83.4113449569 221.8549388561
221.3070611633 79.7466121926 225.9251837731
216.6187897208 74.5646879972 238.7966584380
228.3754439994 84.2374263462 227.0837986861
224.3883880138 68.3796185193 256.3891768414
204.1403185946 111.3252896783 219.9629310681
211.6614356263 87.0006956996 223.7501790840
217.4968032505 72.9084305676 245.3677277643
231.2395462679 78.7270830062 228.4549193168
202.6717157075 135.9313131516 221.5112168311
227.0724784177 88.1320360145 229.7225098101
219.8290966899 86.9566566510 234.3942281421
212.3678504365 98.9546158062 215.2123154819
194.3155741734 129.0155487388 224.4315548052
201.6549468429 118.1821578477 224.0414442887
201.7001242705 131.1093139329 226.5604704847
195.1171466603 128.0952099106 221.3465247830
221.7873709549 149.4725832804 221.1392838648
217.1620232511 73.1768178623 266.6741049731
214.2894400756 139.4741664808 227.7717649679
219.9198148388 145.7157887626 215.9520100780
230.1411578968 83.4268330330 221.2516207235
214.6994354627 96.6800484186 217.0414301137
219.3799242233 78.2896082796 258.5716764538
206.1942464258 147.2940951301 229.5222745050
214.8881998671 97.4588595532 219.6503869147
221.1772318480 74.8675066177 266.4848976043
219.5387662389 149.7363568411 215.1310175094
214.7864067305 77.3775951017 237.4491362080
235.7699377934 89.8526701627 224.8659512130
213.5293312940 137.2835071534 229.7177262146
204.3837685774 116.3291231293 213.0952390925
218.0493565474 151.5706871764 212.7858120487
224.1330710616 73.3286208916 266.6150142490
203.7606986834 136.9526405312 222.0710517798
231.4029952019 92.6251611297 226.9541771393
204.5608001005 104.4157423567 212.4953446266
219.7635907037 74.0362137662 259.8258954410
220.8963164887 82.5377635607 224.3232919688
206.1831529318 147.4750320001 229.9382311047
221.4553288847 65.8097203094 257.0546889893
229.6883230007 76.3904079754 223.5745579165
233.0820592508 73.4177377663 222.3286553982
208.1040221796 104.2507123113 211.1002680979
213.0026217772 86.0049971029 221.9529694694
229.5239765690 90.1524759866 232.4917313895
214.1479389570 77.6165508904 259.2997321720
217.3876892095 91.8286979128 215.4249854711
221.5365589455 76.2581391510 257.4347873249
220.9717100748 78.1514496508 243.1928297028
219.8531202779 78.5217443792 258.5923077229
222.2360155637 87.2234784936 220.9955166264
235.6145837249 91.5495306179 223.2239708622
216.1371699710 78.7441438968 264.2676877869
219.1775637693 82.9197976147 243.0505859397
232.0231509028 84.2616160057 228.2971903950
207.1597989942 99.9366060389 216.3560827057
212.1040145149 113.5446703303 221.9137060528
211.4567036443 138.7832487553 226.5497419417
203.6834143720 139.1567017037 233.5986637533
217.2839312555 81.6753456827 244.1600814044
216.4525465452 76.1071852751 247.5552135310
222.1266766248 146.0378497521 223.5865678183
197.6885492855 142.7279848319 232.1280061491
218.5616892244 80.7759262025 258.4978268641
232.6420668928 77.6919943128 223.0828730950
211.7462954154 88.9792592264 222.8315520090
224.5491443688 67.8432691629 264.2300173500
202.8849334053 137.8081388641 229.0370801328
222.4238198315 80.2953496874 248.5097901336
220.2874226376 146.2810842830 226.1423357283
230.6531723692 86.7158108244 220.3966007022
217.0276021638 75.8248985202 247.1475926781
203.2096344623 138.7006890396 233.2010341097
226.4794082966 79.0370860352 228.7998806069
225.9579943242 148.5770857370 214.5181674298
204.1041008744 117.5047849292 212.4553407375
218.8468865005 142.5668153606 220.8687200429
196.0108928216 129.4416048926 220.6948445255
222.9360809550 142.2667118568 221.5268479166
207.9668211660 113.8361861602 215.4628527767
195.6007953884 125.8964183786 222.2308116832
220.2402562434 79.6424943399 263.2306676280
216.7924103820 100.7833880933 217.6912608730
221.5024692579 65.1153608448 266.1800309155
210.2635763712 100.9281569949 219.7645666924
198.7642824044 136.9568950447 231.3924199791
219.8008901409 140.8402600559 227.5821398883
209.3752699392 143.4987646692 229.8141326155
235.8021916578 80.3674981715 216.9392803551
219.0069297410 76.5354162508 256.1047887936
203.0976949173 101.5450323306 210.6260998109
202.4216209525 127.3441273819 226.0863710859
223.9383859203 151.5530420618 206.6083209255
214.4396121926 72.6475885696 252.6813793457
216.6201811097 82.6486499916 238.4680944376
228.9198648372 87.2802212827 225.7201339248
218.8330959845 72.2895771821 263.6654495186
232.4846224629 92.6381341427 229.8638492054
229.0942235566 73.7559633298 224.7185279873
199.9488283305 129.0007123701 224.5024643693
212.2050497664 112.4578472389 213.5567090638
196.3180558209 129.5198465067 220.4334162097
224.3354706735 82.0500173791 236.4131741361
203.4151788252 138.3094718418 221.8136515167
230.0122520374 86.7462004480 232.8200751783
217.2102140950 77.7640910505 263.5602509087
212.0810750717 145.5512148229 223.6303879692
223.5832987603 146.9293654009 223.6338262689
210.3944027721 98.3258889562 219.6211967372
200.8753592321 139.1434007921 226.0786633161
199.9979547091 139.9546423141 236.0385984784
204.8931961972 140.6272881397 228.4002376192
223.6747649199 150.4372737140 222.5079146919
206.8352955777 118.8863542618 212.8314558809
216.1301352842 79.1475676468 265.4371343885
212.7921238522 145.2717389270 225.5161694491
217.6652510866 78.5891079339 257.3424151831
208.1812116351 143.7046644902 235.5459653247
220.8339796171 151.7256992713 208.7701697836
211.4864690356 104.8117719358 214.0932453649
224.6022113919 67.1069417478 261.3000796617
201.7001242705 131.1093139329 226.5604704847
222.6777711416 77.4338972564 238.9064303077
230.9517221225 77.3365598653 223.4519193656
220.3266077340 72.8497167219 242.2348963570
227.2678572614 82.7543383471 236.0985366506
218.7068267487 66.6193866134 259.7990907256
212.3192442503 94.5732953722 220.3992563537
200.2343337413 122.1025538032 219.7452311268
224.9322638586 77.6168358122 232.5743266538
217.3946518055 79.4902823427 251.4371425964
221.2779906170 145.1971514458 215.4656356219
220.3169329005 90.8421849133 223.0431480815
215.2007936409 97.4578676147 220.8058723476
225.5947796992 145.3103611454 220.2369424380
221.5024692579 65.1153608448 266.1800309155
209.0785744899 101.6101929825 217.9485687901
224.3145799984 75.4328966626 254.9172920199
224.9804586196 84.9177844327 224.7237487989
233.0334545730 82.5593809140 215.6333138763
226.4205027312 144.6237670945 215.6014521815
211.2670502487 77.1462565335 258.1488447340
227.5958191558 78.1660447714 227.1977654337
225.9861752414 83.0653408860 238.9715137970
238.9861589627 84.6414096609 218.7638085404
213.9888706604 87.5030564802 217.6610320382
204.1084217070 142.1149407433 236.2125995149
214.2115578310 137.4519217202 231.1388023275
204.0873401542 99.2133694683 209.3140059181
205.7955575014 102.2711080852 216.6065783151
230.8247560978 84.0883079145 225.4032108198
222.9631180410 144.5218315745 217.8263148909
196.4344932073 131.7165891937 229.6158373522
222.9606721186 84.8533358389 241.3753516104
228.7122393686 79.6787771639 227.7230772510
206.7964172395 135.9213530019 229.8880351991
206.2256044395 127.6987961578 220.1012035597
210.9299365627 86.2621622368 221.7118954093
205.9804316772 146.7137423847 234.0862535197
212.5210068265 95.5076238375 220.1267903147
219.2671168080 71.4111110243 263.9029988749
221.5709749325 65.1013136861 261.8971254638
208.2167303366 142.8616129813 235.2001215342
199.2141688549 126.9966589178 218.6480033604
221.9900551702 145.4808202628 215.2426347982
230.0122520374 86.7462004480 232.8200751783
229.7580153856 85.0374877340 220.3749704523
216.7587512955 99.7506666426 219.7551361347
216.6755560761 86.3792051474 224.3614948486
216.3984693667 144.9330647602 227.2694247669
204.9186019469 113.5668380875 221.1416279685
222.0670384320 148.2969252295 221.7791828881
214.6417983027 79.1173889826 247.4031057007
206.7933800366 100.5199638952 210.8676082992
233.1238976302 92.4368315277 230.3126554946
220.2021207030 81.4209830080 248.9917797127
219.9198148388 145.7157887626 215.9520100780
205.3673014182 102.8519158750 209.1157490149
201.5160345086 137.8649180667 226.2412115565
214.9634215615 73.6084633430 253.5012504761
219.5407414443 144.1742586171 227.8747896815
215.2370729917 76.1343534355 242.4644224828
211.1043422573 139.1425895114 236.5327483222
236.7748087446 83.5323413196 215.2416703396
214.5013113785 76.7535651808 250.2435687611
207.3948612799 145.9619189242 228.5612897588
218.5616892244 80.7759262025 258.4978268641
229.5938066792 150.6008740186 217.8499387864
223.9383859203 151.5530420618 206.6083209255
217.2022448547 140.7660647975 224.6752348816
229.4230024262 87.7675754588 225.3690837042
220.6775586469 84.2552673956 233.3955900608
220.3432366467 76.0573338247 239.4300094793
210.3944027721 98.3258889562 219.6211967372
214.0367879580 95.7386438317 216.2833592822
208.6863459859 103.0654443967 211.6502071856
221.4748038423 77.7001138208 258.2404875629
202.1472161077 116.1683779365 221.1582541466
212.1418625483 91.3705219573 222.4690074264
214.2145071089 143.7120677370 233.6048257835
208.3865587119 144.2428450706 236.6087868491
227.6963417869 82.3009650504 232.4046585182
230.2605748426 76.6387707176 221.5260955494
224.9086550400 79.7647586002 251.9286986263
223.3500713838 146.1459124607 218.6219084492
217.9417911066 151.7009396263 215.3290359242
218.7506495675 77.8910921603 240.2343301217
219.4002073974 66.3674015410 264.7021943552
211.3471361861 101.4903642342 219.5378324331
195.5471064204 131.9743778228 224.2326636353
230.0276085879 85.2967036896 230.8329215320
218.9644055433 78.2633648659 255.2507517205
201.8332399416 120.4998629605 224.6039218186
222.1919345657 88.9666852117 241.1579773724
208.6268249006 107.3221949904 216.5064386986
222.8368773189 147.1060617066 222.5042095401
212.7752637422 145.1275184596 220.5164067835
220.8597913018 81.6835004013 223.2235821220
217.7837913794 150.3251703717 210.8921962148
205.7197364451 142.1655774630 229.0130068793
227.1007020355 82.4326357371 229.0596969434
222.8368773189 147.1060617066 222.5042095401
234.4941188879 85.2970006066 223.7785996574
196.4273977684 128.7257431834 219.5785923494
196.1910611756 137.2071197309 223.7912495542
208.8631764752 99.7163705380 220.5825207827
203.7139085171 146.5447749542 230.1967971257
220.9836522218 85.7037221501 238.1777908505
219.9559856822 79.1228548937 259.2809060680
219.5628790169 80.6660256703 262.7071855961
232.6962999427 82.1465417187 233.8245492174
220.0378852777 79.7529033023 264.5924487536
216.2987446911 81.2756138731 244.0520135643
229.3846253757 86.1094398257 224.9212987625
218.5367460644 149.7021334117 214.0144070463
225.1919205446 89.1730684681 231.0782030914
207.5603096093 112.3372184558 215.0194077316
201.6377210604 135.5626965614 220.7219436053
215.4760480217 93.2995108898 220.3585676275
197.4940524614 120.8972334181 221.0440577721
224.9086550400 79.7647586002 251.9286986263
222.4238198315 80.2953496874 248.5097901336
200.0961747506 130.5681938625 222.5457786227
208.9036291230 76.0825352832 255.2277648413
216.7587512955 99.7506666426 219.7551361347
224.0154468967 72.4125768332 263.0751772395
220.5889240090 67.1192090799 257.5172769230
217.6835571907 75.0595070579 246.8911835693
216.8117967840 80.3889917337 269.7249111023
229.7776082877 148.8796810624 216.8759754629
220.8074369710 148.2405150562 219.9369286879
221.2429338131 80.0728457003 224.1002323932
218.6325903260 88.1507744688 240.0215938274
222.0887084417 76.1240436970 225.0563306024
224.8840801383 79.0109487523 253.4351741034
219.3498805719 86.7950306841 236.5273073222
216.2604889393 145.0788365506 223.1008751122
207.0675118073 112.9558789014 214.8569293702
231.2001419352 76.0080547899 228.1496184506
234.6041563452 71.5263346435 224.1722766167
213.9749437311 76.1596198981 263.9899108550
222.2512970796 146.7412782114 213.8753889826
233.0193999088 88.0058571309 228.1505542533
197.9775703464 132.2591714967 223.2518442334
221.4939074240 80.6835645463 254.2679465458
232.8061277302 78.5130706226 220.0107783771
223.0191271965 83.1775960706 233.0976546858
188.6912601171 131.3228763262 225.9116218101
221.4405096216 90.1618886785 239.0103891627
219.4969864085 76.1627820789 258.7608369675
217.9192938713 75.1024133264 256.4898452263
211.3816245853 96.6465197209 215.2702135195
201.4573462150 129.7140392349 220.5683450748
212.7166797529 142.6643487902 238.4405880030
230.0436346378 85.1720077862 235.0896997358
216.5985049042 74.8137200069 255.8263556451
207.9709187449 138.8411750340 232.6522632551
204.0533164883 136.8153157703 232.0850373287
224.8483582578 145.4870574509 219.1073257092
221.3318368423 147.8756622013 221.1403580835
200.9257085140 140.4622591638 227.0845366108
207.9197579506 105.7858551880 211.6493200333
216.5753113705 138.8362338486 232.1490130559
210.3173681265 103.6673692090 213.3055464005
208.6570454689 109.8800867961 220.2788689150
231.1402980885 80.9845550420 232.1742643014
215.7973427140 140.4067990105 219.3493419217
220.8634796773 63.8973706374 265.5486693558
202.9743045975 142.2006014334 232.8715005146
210.3389452186 100.1881032289 223.8415081660
211.2268854324 86.4388443221 222.7445997633
208.0256086766 100.6380786073 209.9345267135
205.3932044755 109.7906232072 218.2127898258
232.2174150318 82.1727665081 216.7849873750
213.8572926192 75.6936016414 252.3591645870
221.9724873467 148.2948726863 218.7723940166
218.4718047727 151.8498959110 214.6794267101
227.8405169859 83.2981252052 230.8096952461
225.1868161884 142.7890150179 222.6628101067
223.9859147466 75.1540302508 265.3114177420
190.9618747238 132.4738195045 224.1308693905
214.7750073214 80.9431679267 270.5200724351
210.5740907436 114.3799623149 222.2568060967
217.6963261902 141.2768243450 232.7741211031
219.7949018074 71.3666031799 263.1224243542
219.2159868966 149.0407176386 224.4890233700
204.2688139815 140.1322485214 228.8145507287
213.8838182082 75.9720345916 262.3283439158
204.7197646479 129.0573548320 222.6526085291
217.2826923601 76.1870970700 239.8500534023
201.1828167358 136.5212669182 217.8396939177
214.6036733725 78.9518361055 271.0446201793
220.3402003663 75.6505977396 244.0901547682
203.9225171026 138.2386691822 224.0951365246
218.7942559629 74.3876470504 252.8801809669
207.1035504814 108.9941967869 217.3357321724
218.3857712759 75.0367032403 267.3962905464
217.6347620605 141.4094965367 232.3880562216
228.6583238346 74.4734583091 222.8109540275
214.9168908410 74.4635654960 257.1549547121
225.2584170409 64.8284166712 265.3403645287
209.6713109342 101.3351746945 223.4063671382
225.4999749273 87.0614035682 238.9556646518
193.6190952901 130.1459721855 223.9623522945
233.2959231069 82.8297909913 215.6587145639
205.0969734328 110.7930847299 213.8393571565
213.0988053064 88.8290527173 223.6915513262
195.6468123451 131.6850314621 222.3735678822
214.1600278914 82.0670016663 264.3125987850
199.4486877799 118.0445368077 222.7699744135
208.9498619959 94.2221973446 216.3268896401
214.9532824206 145.8279480668 231.4050131327
209.9908495186 99.5527893671 223.6340434683
213.6065267517 139.6947395857 226.8287094042
194.4149332097 119.4615001819 222.8055147288
219.4892227556 142.4432291408 222.9782024584
209.7386734622 102.6971493346 220.9578147044
219.6109770193 85.3130227858 220.5045921957
221.7479596392 78.5613482775 237.6873573161
203.2250000422 116.4409449719 221.0540922692
195.8440452051 137.3095589503 223.9724374628
227.7557711379 85.9861183697 235.8676461880
210.6472160741 140.0404605428 226.8336383524
225.4442819185 81.2078809960 233.4947177558
221.4612285716 78.9510197169 265.3270800962
221.7518484381 83.3424018422 236.1980641482
197.1160141962 136.5204291121 222.5517872157
215.6629431186 80.0923133727 243.5806444539
224.2026934699 79.1986031860 238.6081558201
195.7912012914 127.2720637119 223.7949881387
234.6806802000 77.0657217870 221.6823806541
220.4159240271 65.2663729054 260.6052373602
218.5886992954 143.9480840833 218.9807549752
205.6638095669 108.9263529577 209.3320127149
212.5130484708 100.3396518509 213.4191326047
220.5275206311 153.0225652935 217.2040570035
204.6923116081 100.6400898423 217.2835624555
218.0884756297 141.8183259630 222.6108385548
217.0422175932 145.8927757735 218.8839171558
223.0191271965 83.1775960706 233.0976546858
211.1043422573 139.1425895114 236.5327483222
205.6349943287 127.3576131317 219.4225282926
213.8117898152 77.8160253544 264.9604864397
209.0725761690 76.7796206342 257.5629480436
229.8961273095 82.4184845488 237.9852301170
209.1428441783 98.5407087381 221.2224191377
193.9321392084 131.9845311164 221.1443066114
215.5680537037 89.0798414864 223.9199968927
212.6406133418 77.4641017503 250.9099095080
219.3950179330 89.1264026354 222.3596687525
233.2312993635 94.1487854936 223.0335376646
204.3766747481 106.8078758939 213.5890427158
219.8535584430 69.2317568357 263.3489793085
236.6347167671 85.8327685174 219.2739475306
215.2862054904 74.7986953431 242.7814545079
223.2012640310 79.8298744951 224.3280070736
215.9551899388 147.5241241823 230.3500989807
229.3001975634 83.1281539298 222.0264708504
211.7104586858 89.8977199830 218.4190205269
219.0160806718 150.7880778219 218.1315106797
217.5057248596 91.2474164351 220.9668920378
222.9606721186 84.8533358389 241.3753516104
215.1802598179 78.2685340279 242.1330330456
200.3472370347 136.2047010046 229.5440191492
214.3465909383 138.1086308927 231.9949813208
197.5355313141 122.2612823457 226.4651119443
214.0294187885 78.7499998146 266.0455435314
196.3842836144 118.7094738735 222.1002825923
233.4134972620 78.0064821399 223.3804297899
221.7814438655 82.8913576543 237.7275328002
230.7698248024 81.2233135113 222.2034675756
232.3633055496 81.2877349596 226.2695128138
216.7924103820 100.7833880933 217.6912608730
216.7224241394 145.6109149143 231.4043084993
205.0866100581 125.6429285104 220.1091326395
220.6067980598 142.4193472027 220.3048473212
227.8340227872 81.8251779003 235.3662035403
225.5111383952 82.9160225691 225.1630092493
222.3755255394 86.1731264399 233.5694480251
211.1696749522 72.5227403375 256.7900744831
228.1949528908 76.3147456991 223.4166136515
231.2959163088 89.4083079891 222.7858319913
222.6333869283 91.4314855738 223.2339720122
208.1988799688 141.4427155593 235.1622890459
219.1478785275 67.4310693170 262.7588352633
215.5107895914 80.3543569891 242.6129421326
206.3467192528 116.9230888603 218.4321660158
201.4573462150 129.7140392349 220.5683450748
231.5861770876 80.5259892383 232.6299398376
212.3287140677 101.4788842317 216.7631861757
229.8638496622 85.9839581202 234.1858950692
200.7271718608 127.1230895043 223.9980834686
217.8357695683 80.1504441227 267.0340286788
228.1196321126 79.1269185736 228.0176432266
216.1565286651 141.2345537685 219.4666685619
208.4109402055 102.7572644482 217.5134277623
200.5768401622 126.0948753376 219.5473236325
221.5115825514 74.2330824632 260.5322190922
222.9757960487 152.4797475514 213.8380752917
219.4078323567 147.6964238962 219.9471606140
233.8574492982 78.2562768333 225.0985538220
223.5942963034 66.1125344887 264.8111794685
213.0237594410 75.8534460780 251.7865664419
213.5742662157 72.5789281254 251.1780938892
219.6967961271 80.1194116534 251.1227462827
217.9265010390 76.1752706009 245.9554067166
215.7211737819 145.9052353185 224.0442293630
227.0443448867 85.0236170026 237.4282298296
226.0300177677 148.5967779062 219.5012072378
224.7513910492 65.6545503376 267.0516153786
215.4325225670 76.5156581652 261.0010448921
213.6757212867 81.5087792572 264.2481263137
206.1406038179 113.7181236180 223.8914429166
233.3635095758 91.5692191552 229.2670336267
222.2141929052 79.9697176151 263.6753695601
198.6715477563 136.7657164605 230.3948910402
217.5764487191 75.5366704368 254.2989410871
209.0218616408 99.0195769276 217.9871201372
204.2134073561 103.4906577723 212.1705986213
229.1028308771 78.7811004450 228.1440511196
217.2328593992 140.2047904073 222.8821898685
214.6887619974 76.7438762975 243.5976685079
217.1390663647 80.0111602064 266.7293278698
206.0951743445 138.5352697829 234.3620887291
209.7386734622 102.6971493346 220.9578147044
216.9986988678 92.0735501014 222.6781428878
220.4726086216 64.8398759878 262.6996783945
194.3858199707 132.1927750511 223.5858304768
221.9368704579 79.1518508810 251.9671071920
216.6201811097 82.6486499916 238.4680944376
214.7479525360 97.6611972005 217.6120204207
210.7065291052 71.9834089543 253.0485303096
206.1942464258 147.2940951301 229.5222745050
205.8396932611 117.7492225265 220.1434168657
229.4874090789 87.9588285943 220.5070714581
214.2121950820 79.9317899938 241.5020888843
229.0554320144 91.8737324266 226.8526593005
217.2022448547 140.7660647975 224.6752348816
224.7114018650 145.9767817737 214.7952988842
208.6268249006 107.3221949904 216.5064386986
227.7141817864 77.4578340646 221.6458546158
193.9966687176 135.5614141192 225.6777563809
225.0926934264 77.6084275213 263.1746181024
208.2057236132 111.1916881252 223.7606719442
205.9839459609 144.8876678557 235.0617374019
218.9864061778 82.5809551553 260.2714123225
222.5382602716 83.5447298548 232.7292559767
216.9959438319 79.2958807249 237.1391623481
209.0840688246 115.3020066030 217.8382294647
223.9908719950 71.6587669853 264.5816527166
204.1878312396 100.1307558518 215.8778458430
229.4944894732 80.5037447980 226.6612851635
230.0948249593 148.6334718858 218.2231579122
231.0680528303 88.8127022257 234.3872004676
213.7196578016 96.5409357458 216.9959173980
211.5557123727 94.2343557878 216.2836860387
206.5215476725 120.1348073860 214.3080395384
200.1067367709 141.2742288290 229.1460650113
235.5672956966 90.2042981440 221.3427912689
201.0932388235 129.5153626644 219.3029526098
215.2206386122 74.5933980641 247.6044864896
217.6206374635 151.9815758279 211.8627717995
201.0339246359 140.5096321273 222.1410818363
224.5656351007 78.7783587584 263.1652305699
217.2062368201 95.7486364805 221.2711189674
223.7786301194 68.8113389479 266.2137897276
195.5471064204 131.9743778228 224.2326636353
218.8622996805 150.9821911059 209.7659227355
208.9085480291 139.8359311038 233.9309734450
198.6806083582 140.0473183280 220.8561212733
224.8278280628 150.5191284505 222.6203328494
222.3319379614 152.7288474133 213.6004717084
211.4864690356 104.8117719358 214.0932453649
200.6881766062 136.5498609573 228.0936442823
216.3002319598 92.2104167496 217.3269901256
222.5000991633 153.1442020203 208.8950323715
224.9046376441 80.4691170433 224.4738012246
214.7266415198 81.0206847985 240.5673271651
214.7186666366 76.9393372579 261.4117230713
217.4145856361 75.5733048941 270.5373203663
229.3068397751 79.8676175778 234.0889196552
203.2051644336 111.9489779784 216.6309041432
202.6246063442 146.3398541582 231.0922470109
232.9901954353 87.5312248309 230.5819583563
229.3195218398 85.5470583916 230.4647438185
218.7741962417 97.9762611145 218.4555607415
218.6008235471 83.4856399778 221.7896489267
200.8498491301 140.3766715784 223.4895958417
216.0411275949 98.4342701861 218.6319155952
226.6274681502 81.8149502398 225.3197026991
215.9301407880 92.8134372411 218.5760720022
215.2712965237 138.4963723278 227.1957541916
220.8401228590 78.0482454364 241.9146162698
219.2365925644 144.0918101169 217.0856205365
224.1426805739 67.8272191100 264.1245751217
216.8951196093 145.9454397720 215.9811962531
210.2039995718 114.9829828065 223.5058879734
215.5482674099 79.8145134699 248.1900741517
203.5248668459 128.9751456248 225.4093869455
217.2698064153 76.9323052656 249.8324679690
220.1994823158 144.5401307116 216.5919091012
202.5061051790 117.4809695512 221.7952853650
217.4681725476 94.4881656761 218.3473965925
235.8817524335 84.8140706193 220.9256580667
219.6241644382 88.2649731551 241.5086481545
204.9959655101 119.3801873128 217.3225992038
197.0372855376 119.4288245254 228.1412290987
220.2887210666 150.5473929165 206.6098477513
208.1427473395 143.4223527764 229.9754756827
213.4518587195 93.3437151339 214.3861576561
211.1273698129 102.4922265595 220.3129388889
216.4935336962 81.0993708934 247.1047932127
215.7327362114 80.6800612562 238.7082524666
221.7233883255 77.8075374583 239.1938394559
217.4107846836 83.8588920762 239.3478247410
202.0532064717 121.5119033598 223.9505280055
202.6528459254 137.6205570799 228.7037073307
229.0126509226 89.9859160848 227.3562679836
209.5475454088 111.5135715105 221.6726452919
221.3828796638 80.6607794081 242.6993905794
213.6065267517 139.6947395857 226.8287094042
197.4694216645 123.9899466694 224.4082369675
235.0444378727 84.4971793435 219.8918853597
217.6963261902 141.2768243450 232.7741211031
223.8849820749 89.5677379994 231.0769048734
193.1811396655 121.5099489640 226.4102891229
223.0191271965 83.1775960706 233.0976546858
225.4779249232 77.3394158468 252.9976734483
236.4235466510 81.3128934722 223.3011453350
193.8754745547 119.2714063070 226.8448436183
226.4205027312 144.6237670945 215.6014521815
217.2102140950 77.7640910505 263.5602509087
215.7973427140 140.4067990105 219.3493419217
213.2117831983 140.7675902989 226.7911662557
222.6657228027 66.2581409777 261.5330131759
221.8324022116 74.0798902008 251.7722560597
193.7107489405 131.2794584303 225.0666748875
220.7421047454 86.8463592697 225.3749875507
219.8917063335 144.6184673259 218.2643392258
200.7425383435 142.4575293293 229.6174341217
211.0545395988 105.1809520530 216.7149798264
215.8141848906 84.2105578907 219.4685014849
217.0547497459 146.6040637265 218.1875397033
223.3921114603 146.3349494814 213.7784846500
206.8352955777 118.8863542618 212.8314558809
212.3702997299 78.7772738052 257.4718672563
219.8290966899 86.9566566510 234.3942281421
229.6555327691 92.6297301553 232.7279491633
220.4242614476 78.5522730370 227.8616774535
215.3947301676 79.1711486342 243.2916980062
204.5294079585 108.2637782894 211.9235248598
229.4944894732 80.5037447980 226.6612851635
203.5165901098 118.6733538177 218.4584595554
200.1067367709 141.2742288290 229.1460650113
224.8328762804 67.1331540162 256.0242150329
208.8177667426 112.9202215943 215.7482162446
206.0586393476 141.1060573745 234.7537783075
207.9825380852 99.6920432137 217.4205027114
208.7101839446 93.6539858601 221.2613163846
214.3151253392 80.4096978839 239.2318641702
228.6887480495 94.0123400746 228.7474465697
210.2959864705 101.9879287727 212.8592545815
220.1573700068 148.0718472632 219.1024269000
204.4549442844 137.7749826569 228.7836109156
199.1876004997 115.1233973311 217.0913369254
209.3362336901 111.6738570773 213.9484814134
223.7243454086 147.8778738218 209.1456287900
219.1030812016 82.3504743577 225.1847290873
196.3056941919 123.5253056026 220.1250298575
214.2145071089 143.7120677370 233.6048257835
216.6201811097 82.6486499916 238.4680944376
230.8926500314 84.6639036231 225.2126036612
217.0547086415 73.7290293009 257.5066472157
218.0017708639 152.3439081353 211.2852938020
205.9839459609 144.8876678557 235.0617374019
222.0454100614 75.0482952765 259.3089438731
204.0544115062 135.9112476443 228.1706356986
224.0403281158 86.1672905515 241.8694949865
206.5011269792 138.8386075270 227.0933590990
216.2033751761 81.3168050992 270.0629985734
221.6049422629 145.0404688914 218.3126893470
220.2871860356 72.0666782521 267.2333440236
228.4211451807 146.1368842539 214.6644904007
233.4378519820 85.4384290117 221.2414661084
224.9485340447 92.7212440279 226.0147565633
229.4838883260 87.3700761113 234.6727279262
209.2179927531 92.7707781059 218.6279949047
227.7753320908 77.2876328816 224.9920227911
205.9611078186 111.4089562390 212.4973246828
229.2331559321 85.4844708721 222.8276857597
193.5341051082 130.3702390127 225.1872730579
234.6803306226 85.4618124215 216.1270798112
225.9050939445 83.5168880569 226.2774462656
205.3021799924 139.6757491585 228.9413329971
217.0547086415 73.7290293009 257.5066472157
211.6799798990 88.3847411466 218.4878644514
199.4651468642 130.1815811878 220.7234070576
198.1593162069 118.0359556630 221.1359968702
214.2405168021 147.8236238366 229.1208377099
222.8696561828 147.4527662392 219.0940239000
214.5041433606 84.9516773928 218.3811569052
224.5414166817 67.9722781674 261.9041701373
190.5519615158 130.6123425343 225.2452883943
224.6246353678 67.5892121060 255.5135010645
204.2688139815 140.1322485214 228.8145507287
218.7873967059 81.4470897763 246.2506871804
229.2331559321 85.4844708721 222.8276857597
215.1964448001 73.9595955085 257.2904997988
202.9080446174 129.1983768229 220.6039923638
223.5588727332 86.6898456255 224.8040578578
190.7515916009 134.6446441608 225.6197898655
221.2639071080 75.4315770446 249.6783552199
212.7969637951 98.9031059573 214.2074191681
210.4237039256 142.3097354494 228.1633308631
214.8957806808 84.1331769409 218.8406030008
220.8401228590 78.0482454364 241.9146162698
212.6185558268 141.5210952286 221.7911139759
213.7281816335 144.1880813746 226.5467959012
214.6948015937 78.7864235394 250.3514417083
199.0119023157 140.0957035505 225.8880874189
201.3615041964 143.8668835436 235.9021033716
200.5610055082 136.6219912887 222.5783785376
216.8117967840 80.3889917337 269.7249111023
225.9827606595 68.2708186557 257.9308810381
195.6007953884 125.8964183786 222.2308116832
200.4648058835 139.7789118511 227.1218216483
199.8191144851 119.3091305658 226.0726454275
203.1373367918 141.0711537093 229.1104791924
195.7668589228 132.8636606594 229.1806963244
218.0357633664 78.2504091052 242.4694784637
212.7152051249 143.2959338576 231.5025574826
215.2078676109 74.7220123974 251.5325996761
217.1620232511 73.1768178623 266.6741049731
202.0834946556 120.9411584401 215.6704388371
224.6834645743 78.0555148206 240.3789148559
208.8558737466 101.5028101790 222.8943083849
229.9438111799 83.8277635986 237.4495318705
223.4162816363 78.9962751734 242.0769639917
218.9652942367 78.5438544165 236.4339302116
218.1225069456 79.8950541669 250.5437665764
215.5961231551 145.3034696036 226.8085043560
202.7726623287 136.4008034674 222.6834450944
200.1853940028 126.5989229414 223.0951248560
224.4635512556 78.6335567342 265.2980670414
207.9786860926 139.7387246872 225.5503747435
224.4410814587 80.1310636426 231.0724966922
223.0139256871 87.9466126777 230.4311450648
212.8276795468 79.2187948727 254.3539020609
216.6429644610 85.1975453270 217.0160444433
222.4650544994 142.1887866864 220.5209820810
224.6958867733 150.8697086336 221.9924452044
215.8425040664 79.7749298732 257.9689643672
218.9223165039 139.2804120852 231.4692840195
191.0327330722 129.4692466710 227.0160460935
214.2125190523 71.3409564190 253.7697384277
230.4870986969 88.6262434800 223.7600898323
229.3245496219 95.1956405749 229.2188156801
234.5389429470 74.8438471433 223.3102462287
224.6925163618 64.9379353840 263.9585432365
195.3368481771 121.1772824598 223.4889940578
203.2051644336 111.9489779784 216.6309041432
224.3746669383 88.2509759809 236.1589295620
225.2584170409 64.8284166712 265.3403645287
233.1238976302 92.4368315277 230.3126554946
234.8769463779 73.2232184397 223.2776469453
215.7216367548 73.5478681764 246.9360792290
200.3472370347 136.2047010046 229.5440191492
224.7747135462 75.4930884857 262.9092392290
189.6958939564 132.6791297143 228.2970829187
213.2690694831 111.0938331914 210.5439161970
223.7489164964 148.6316883898 207.6391473183
217.0901642889 71.1438971156 243.1618163067
230.1304430808 149.7265010036 216.0387600422
212.2638912281 73.1820345537 256.4400707978
217.4574506325 74.2243169342 266.3997505620
193.4442253318 128.7527510938 221.3751970741
227.7141817864 77.4578340646 221.6458546158
202.6528459254 137.6205570799 228.7037073307
232.6273695553 81.1995983750 235.7653323678
219.0205237825 74.8176791820 262.7657480652
198.6839126880 129.3962299490 226.4402080090
198.9981171147 131.3054462304 224.3690495491
215.4319464229 87.5700260385 217.0883436882
208.7715649825 98.1165258904 217.8107149118
218.0998481573 86.6236547040 217.9976352738
226.8711526059 144.1949058392 223.8237888825
219.6871012379 87.8851767572 223.5295404555
213.0026217772 86.0049971029 221.9529694694
232.2480537560 86.5300209587 221.0336247363
200.2976359464 115.2033643909 215.9915254097
205.2795109596 126.8592865069 223.0695803387
222.0682645611 77.7373077570 249.3266516075
219.9662019833 147.1023802734 221.7822822680
217.0547086415 73.7290293009 257.5066472157
213.4576424660 90.9620883690 216.5944619695
214.0776602818 91.2382894120 215.1644421524
203.4446810189 128.3240038079 218.7928136196
229.4686660900 78.2431362290 228.6967624294
233.5654640554 86.7743569382 227.9760680527
198.6400873113 116.8928672977 222.9067559060
214.2972790624 74.6722992088 246.1825996336
198.6655108073 140.1192806048 231.4142165688
221.8378330029 142.2831694625 222.6753505141
194.6526764460 120.6219505705 227.6846937303
232.3185521738 80.5111436851 227.4468766622
220.5450887732 73.7272547970 251.3326595474
230.4633984469 85.0070693310 232.1623737501
208.6911313841 145.1370411466 229.2888720041
225.2409504832 81.4186770055 234.1456555756
195.7876522180 118.6719297587 228.4244288136
214.7266415198 81.0206847985 240.5673271651
227.3809380606 88.8872131017 233.4682080733
222.8696561828 147.4527662392 219.0940239000
211.5432717306 78.5223362346 254.6566184035
221.4553288847 65.8097203094 257.0546889893
221.6810850271 89.8985321693 237.5839760536
214.2773169917 76.4183139035 237.6922334864
204.9186019469 113.5668380875 221.1416279685
225.8033509583 84.2338534784 240.9428391628
220.7892047578 75.9350212516 261.4899559960
204.4604323090 142.3169088108 229.9637702334
224.7329144700 83.3935719359 232.1237963724
203.9937135860 112.1869716304 221.4729018204
219.5106150491 77.0820778723 245.7303476161
204.6569968514 115.5547661676 215.9464512868
218.9102613663 152.3437980759 209.5950600457
221.4260017513 82.1681645025 245.8903435291
221.3828796638 80.6607794081 242.6993905794
209.1598012987 98.4054387861 214.2222126297
205.5292338495 136.8621208525 231.5860856712
222.3614710680 146.7525276641 210.6773836768
209.7511762199 104.9924740159 213.5675063538
208.0090522198 146.9771092885 230.8233142590
230.9462331863 94.3740100166 228.8669955202
203.0615059506 140.1554837572 223.5946623986
234.9918250520 86.5588339728 226.2109894137
220.9717100748 78.1514496508 243.1928297028
196.5755047786 122.8760234635 224.9381628891
205.5034932026 109.8952374374 223.5206080557
201.5052818859 139.1047482053 227.0705892653
204.1208572921 137.0911169321 233.4444449811
224.3120781435 142.6625185783 220.5504045604
229.0096178950 84.4425279320 231.5973942105
203.6546057362 148.2568000756 231.8558502319
231.9968509812 82.8160504385 237.3768342995
217.0276021638 75.8248985202 247.1475926781
204.2134073561 103.4906577723 212.1705986213
195.0840394175 118.6453036026 227.1550963634
213.4274099855 138.1182457807 229.0931866918
203.8377343534 111.5552284473 220.3403181587
199.7015040532 125.7718164061 221.6894820198
226.7772603688 150.2587308271 216.7414862491
211.1642105611 97.9185051965 221.3829459474
190.7515916009 134.6446441608 225.6197898655
219.4570343570 76.5864422464 249.3627099618
217.4216543237 83.5427227245 260.5992689575
227.8340227872 81.8251779003 235.3662035403
220.6795354013 91.4223890951 226.9116715392
210.2643797777 74.1097366840 257.3616725597
224.6928720255 147.5308689975 224.2395502220
219.3513668690 143.0761493512 222.2744366553
223.8432141882 148.5089238262 213.6307776378
208.0884427362 139.8388776094 232.6313525174
217.3261656151 141.9033302779 220.3794085190
213.4627088388 140.6473238592 220.3393300903
232.4609151326 80.6524856779 234.7423453839
220.9940466301 74.1009168366 253.2408726446
228.2985886728 92.7978220881 229.1160266655
218.7873967059 81.4470897763 246.2506871804
233.3635095758 91.5692191552 229.2670336267
229.8649423522 80.5038352131 232.8322011946
226.4205027312 144.6237670945 215.6014521815
194.7032006017 135.0211716901 227.6346719368
222.3258136762 148.2438817112 220.1091243102
225.1646142155 82.3835427959 232.8548194008
211.0432584941 101.7030257521 219.5364394412
226.1902165741 82.2594933694 222.5637097869
206.6553186257 99.4272720483 214.9503660933
217.5949757369 78.3309517642 242.5037703080
206.6441344020 111.3712806405 213.8531124938
217.4064187712 72.1216475938 264.5693396218
221.1677462772 152.7054717668 209.7146096644
199.2484851334 140.5872313828 230.1218640699
218.1790368113 88.7607624016 223.9997981026
229.4150209025 91.2563636103 230.8283262429
193.1773973408 132.2152336275 224.0795429856
203.3465737471 126.6574405120 224.8469094157
218.4799940122 79.3260307921 251.9028151665
202.8102701739 144.1410667269 235.4825188262
216.8788380936 93.0385417873 213.5508289229
221.4376860249 147.9150843180 224.0070337909
225.9322075717 150.6564362877 217.4480539665
211.2837740067 101.2700368458 217.8565415704
225.7172537951 79.5878749303 222.6941515856
198.7493541475 144.2009057758 235.1094146148
197.7077507081 124.3794310723 218.6608790412
215.6875146954 144.8725138679 226.1081046246
205.2699552799 120.3534174529 213.4107778218
222.5645475775 62.5282101134 262.6759851587
220.6067980598 142.4193472027 220.3048473212
203.5032329204 141.1077313880 234.4266935494
221.1772318480 74.8675066177 266.4848976043
202.1844418810 122.0031289957 221.9809793386
204.6295151584 113.3702721309 221.9442709309
194.9217844452 129.6528682540 219.8322127186
210.0258219409 143.4022082908 230.2478484507
234.2966007281 88.8246724113 226.7920172300
195.4401732870 121.0042659030 226.9865671188
202.9228509705 145.1509448374 231.8690697365
227.7722710571 146.3423817342 214.2468964339
213.1954932038 145.3426101509 221.5180870056
224.1642078454 77.4717353635 265.8738952718
212.7419383566 72.3647809050 254.8494733773
213.5571972904 81.7148377739 265.5706781089
192.8883948078 135.3381575317 226.3336321828
217.5764487191 75.5366704368 254.2989410871
210.9254244359 97.7312094557 213.5899286116
201.3490019226 114.1110490568 216.9597208479
226.8711526059 144.1949058392 223.8237888825
214.2887719366 102.1885465959 222.5971863363
196.0091562414 121.9143919042 222.7133787470
223.3206250216 66.3127633476 254.6349219265
231.4995579245 94.6561688145 230.5968986042
219.5611296288 82.4938934378 244.5534145335
232.7509934603 71.5048557453 223.3818941580
217.0422175932 145.8927757735 218.8839171558
230.3735046662 87.8914726244 219.7567023471
202.7753778311 143.2476948194 232.7350616096
215.3494831069 141.7620431762 234.3445601986
232.2625965447 82.4709709652 224.2472574233
216.6795433803 72.0833105771 243.0904733262
217.1808277806 81.4562343249 242.7216007782
204.2195269990 115.3018349891 215.0382968996
220.8007250730 78.4834467745 267.7195214976
223.0609583640 75.8407180919 266.5508727495
201.2799526581 129.8645953463 222.0244468116
196.2986145822 118.7464932038 221.8023309544
195.5269482284 129.1105133469 227.0611685515
224.0289986992 79.6527317734 264.9764093141
200.5624308897 141.5866158126 236.8931815319
209.8583039015 138.3448487028 232.1360777123
217.1695483038 142.1513992147 234.0899259828
223.9616530756 85.2717055196 225.8850858251
215.1718097051 139.2943091800 221.1454833875
206.5084785815 126.5511087733 222.4988834775
189.6958939564 132.6791297143 228.2970829187
235.5940548069 84.9757388599 223.6428199811
209.8822959309 142.6726310030 228.1028817656
193.1773973408 132.2152336275 224.0795429856
210.5740907436 114.3799623149 222.2568060967
219.6522267544 87.0589120556 219.0627574324
213.2634576521 97.6256254805 215.3156324900
210.2291935182 91.7908432791 219.4518998002
218.0557890341 80.0329510775 268.1168129576
199.5598094435 123.4206605444 223.2996317812
210.6933708903 88.6639516655 223.1192349228
197.5924852905 127.8182894761 218.9998235203
209.8890613068 138.9517621095 233.1785663060
220.9345425155 83.3594701048 240.4669092584
198.7342075607 116.4960389174 219.1071218444
206.3258555762 114.1123501555 220.9740467558
203.9256680209 147.1133583091 229.8186814861
209.8822959309 142.6726310030 228.1028817656
232.6404714688 87.6453265050 232.2801211705
220.0344280059 78.0429516745 246.5502254091
224.5097241155 76.1149050242 266.1312888723
218.1311896148 95.0619496106 220.0316572971
203.4188969565 119.2515584483 223.3596455504
228.4592097742 74.0699991865 222.8378298330
216.5613493157 74.7797859850 251.2541632020
215.1954801961 79.2357772511 256.7272810592
224.4511109079 77.7970724351 255.1645921741
209.9908495186 99.5527893671 223.6340434683
218.6996879919 88.4374945999 235.2950227105
228.9462356779 78.6638636063 222.4759589294
225.5443273521 81.7620818855 230.3955125518
233.7789568078 93.2441653565 223.0361654258
221.7653572496 153.1536664651 207.5458144277
191.7990272642 132.1768318256 224.2310777318
218.7361023834 149.1665157714 213.1071001002
221.7679217105 145.8876092254 215.0189309582
219.9253948016 143.2238360949 219.7424465636
203.4508216143 120.2315146052 221.4012314148
217.2691064947 143.5435600924 233.0792720125
209.7696768815 96.6423755514 220.1065742355
200.6881766062 136.5498609573 228.0936442823
208.2167303366 142.8616129813 235.2001215342
208.5692718553 106.6262269098 210.7024719913
214.6604595030 74.8076592024 238.5688837576
229.0198543715 94.1105415172 230.7062438483
206.4569387252 116.6330437624 218.4081702215
218.1225069456 79.8950541669 250.5437665764
218.8633513876 75.8474918264 270.1177364891
208.9681353258 108.1822027486 208.0636087458
218.2704465940 73.4267722770 252.0603098366
218.8633513876 75.8474918264 270.1177364891
218.5156770009 94.6155944954 217.6399660701
236.1879981489 89.1590415527 225.9390146253
203.9787740825 139.4081580653 234.3465322468
191.9718704474 133.2570079001 228.8504187806
