155.5072326660 49.0453529358 97.0799942017
142.8651428223 121.7600021362 139.2129974365
149.4316558838 70.4293518066 89.5103988647
155.2646636963 107.1223526001 121.4400024414
174.4688262939 104.7640228271 116.0199966431
155.4916839600 57.4273643494 90.2900009155
171.5827789307 112.6389923096 113.9661941528
156.1138000488 95.7372055054 89.4711990356
151.1982727051 110.3033752441 119.2760009766
169.8164672852 114.1212310791 117.0000000000
158.8257598877 84.7059020996 90.0730056763
162.1516876221 109.9973678589 101.3400039673
137.9749908447 111.1669235229 143.6953887939
157.1436462402 110.6778259277 119.8339996338
173.0363006592 105.3887023926 108.3450012207
140.0937957764 106.6472015381 142.2711944580
136.0297851562 104.5657119751 142.1618041992
156.8247833252 99.5553207397 95.3209991455
157.6988220215 51.6340255737 106.0099945068
175.6589660645 107.9592666626 109.6090011597
172.5408630371 51.6629676819 95.0699996948
155.3316955566 50.8173675537 102.1399993896
154.9021301270 56.8969383240 88.7832031250
154.9497528076 108.5299987793 121.7299957275
156.6979217529 76.5376205444 90.0370025635
145.3625793457 114.8099975586 123.5080032349
159.1582794189 94.1833724976 95.6459960938
149.9067687988 58.4020156860 98.0545959473
141.2867584229 115.2020187378 137.8946075439
172.0897521973 113.2300033569 109.7900009155
173.9074249268 47.5498657227 86.8199996948
175.7021331787 107.7069320679 113.3031997681
167.7988281250 109.4940261841 124.1100006104
161.0316619873 111.4393539429 104.3703994751
161.1597595215 116.3300018311 109.9099960327
150.1739959717 108.4122085571 123.6600036621
165.2374267578 56.1898651123 96.6399993896
167.0092620850 110.2891998291 114.3542022705
146.4516601562 76.6993560791 93.2103958130
148.8519287109 48.5189895630 102.1179962158
170.2908630371 109.9529724121 115.9300003052
153.8289489746 55.0681800842 90.7869949341
148.3172302246 113.9853515625 127.0499954224
173.8467102051 54.3897247314 100.6999969482
170.8282775879 113.9533767700 113.5659942627
139.6047821045 60.2153205872 89.4410018921
161.4146575928 107.5723495483 108.9400024414
165.1040649414 87.3728408813 89.6200027466
152.9259643555 93.4688034058 88.8768005371
175.5838012695 50.5872039795 102.9211959839
155.4916839600 57.4273643494 90.2900009155
160.8447875977 110.1353225708 110.0810012817
145.5259552002 111.0587997437 128.5668029785
173.8267059326 52.6097259521 94.5099945068
154.4388275146 108.1040267944 122.3499984741
140.1767120361 113.8297271729 135.5299987793
173.1004638672 116.7569427490 114.3274002075
155.3316955566 50.8173675537 102.1399993896
155.1982727051 101.7533721924 118.4860000610
137.3297882080 112.0657119751 143.9118041992
176.9964752197 43.2812347412 90.2900009155
145.2572326660 111.7653503418 138.3099975586
162.5788269043 110.8340301514 114.2399978638
154.0967102051 95.4297256470 92.0099945068
155.6274261475 108.9298706055 120.8800048828
179.1179199219 48.6476211548 99.1770019531
150.2638092041 74.7672042847 95.4011993408
155.0025787354 94.1699981689 96.9380035400
155.4827270508 50.2001037598 99.6490020752
158.2379150391 106.8876266479 105.2470016479
157.8752899170 103.0069198608 122.1940002441
149.4316558838 70.4293518066 89.5103988647
154.1608734131 55.2429695129 102.8900070190
150.6379241943 110.4476242065 137.4169921875
148.0774230957 115.5198669434 135.4799957275
156.0597839355 88.9157180786 94.0418014526
142.9616546631 114.1693572998 134.3404083252
151.6913909912 57.2900009155 86.9688034058
172.0797882080 101.9957122803 111.0718002319
157.7067108154 80.0097274780 87.6100006104
156.1362915039 102.2987060547 117.6250000000
174.3527832031 117.2089920044 114.6661987305
172.8097839355 44.4257164001 94.7018051147
151.2239990234 65.0122070312 94.1100006104
169.9192657471 51.6492004395 93.7241973877
161.0507202148 55.7566452026 101.9459991455
166.2316894531 111.5073699951 119.9899978638
161.4739532471 48.2599983215 100.6238021851
149.0264739990 71.1812362671 95.0400009155
165.4567108154 116.1897277832 114.8600006104
144.6516876221 114.6673736572 147.4300079346
137.9749908447 111.1669235229 143.6953887939
180.3179168701 47.4976196289 89.7770004272
152.4339599609 57.9900016785 86.4538040161
152.1238098145 54.4372062683 103.0912017822
177.3097534180 112.7099990845 106.4399948120
175.7616882324 111.3973693848 112.0400009155
159.8674163818 111.4698715210 103.4199981689
166.9586029053 101.6356124878 119.4876022339
164.7047882080 101.7553253174 108.8109970093
151.0846557617 51.8123474121 99.3499984741
149.7182769775 50.5833778381 96.6559982300
149.1839904785 108.1522064209 134.4700012207
152.5316925049 116.8173675537 124.6900024414
141.6797485352 121.9100036621 143.8000030518
149.0617675781 58.4868049622 87.5510025024
147.3697509766 47.7500000000 97.8499984741
170.8221435547 101.9469299316 118.3631973267
170.8172302246 53.1053543091 96.4599990845
157.1059570312 100.2088012695 99.4468002319
136.9617614746 117.0368041992 130.8010101318
157.7239990234 75.8222045898 86.9500045776
162.4436187744 111.1769790649 121.6396026611
162.8882751465 99.1833724976 97.0059967041
154.5547790527 94.6653213501 85.8909988403
171.9367675781 46.8820152283 91.7445983887
154.9021301270 56.8969383240 88.7832031250
142.7639923096 117.2022094727 142.5400085449
147.8789367676 50.8158302307 102.6719970703
148.4327850342 63.7589912415 91.3661956787
177.9293975830 115.2225341797 113.6539993286
152.8359680176 80.5587997437 97.3567962646
175.0202941895 45.4798393250 99.6949996948
162.1167144775 117.6197280884 111.5899963379
156.0565795898 113.6716918945 123.9158020020
161.3616943359 95.1673736572 96.1600036621
148.0488281250 120.5040283203 140.0899963379
158.6452941895 50.1369247437 104.6140060425
153.9597930908 48.8557167053 103.5818023682
165.7342987061 53.3640747070 94.1223983765
146.3840789795 113.7028427124 145.6199951172
159.8708648682 105.6429748535 110.1600036621
171.7940673828 109.8428421021 116.2099990845
159.0897521973 105.1900024414 97.8399963379
154.0840759277 57.6028404236 93.9300003052
167.9851379395 102.5999984741 112.9729995728
152.6613922119 77.6600036621 85.9087982178
170.8589477539 102.2481842041 114.5970001221
149.4498138428 109.0367507935 119.7900009155
164.6652832031 107.7169189453 123.4540023804
144.5538024902 119.6672058105 147.0811920166
134.8574218750 109.4498672485 147.1600036621
178.3079223633 48.3276214600 90.7070007324
166.9016571045 108.6893539429 118.2703933716
173.0746612549 46.4423446655 97.8300018311
139.7051391602 107.0500030518 136.8630065918
159.6547851562 105.9453201294 118.6110000610
174.9689636230 52.3092651367 97.7190017700
145.0639953613 59.8022041321 90.7800064087
176.4957580566 111.2459030151 112.4330062866
175.4188232422 112.2540283203 111.4199981689
162.1647796631 46.6053199768 101.3909988403
148.7172241211 48.4253540039 98.1299972534
147.8789367676 50.8158302307 102.6719970703
147.0843048096 75.7040786743 90.9423980713
172.8097839355 44.4257164001 94.7018051147
171.1188201904 106.6740264893 116.9899978638
149.7143096924 112.7540817261 123.5023956299
158.1859588623 115.1388015747 114.4667968750
166.5139923096 53.0022048950 94.9800033569
155.6627807617 100.7389907837 99.2061996460
156.8402862549 79.7798385620 98.3150024414
153.2140655518 109.2228393555 125.2600021362
138.5957641602 104.3358993530 140.4530029297
173.0314025879 106.3700027466 107.9688034058
169.7067108154 107.7697296143 118.3199996948
167.1788177490 53.1340255737 96.3799972534
159.2267608643 98.3420181274 91.6146011353
140.4407196045 111.1566467285 147.2960052490
178.4297485352 50.3800010681 85.8799972534
172.6621398926 119.3069305420 115.7832031250
159.2720489502 51.8103904724 99.3870010376
156.0939941406 79.4922027588 97.3700027466
158.3382720947 91.4633712769 98.2959976196
180.7916870117 46.5573654175 85.9700012207
159.7972259521 102.0353546143 96.0199966431
155.6555786133 98.9459152222 98.4390029907
139.7814025879 109.3300018311 135.4188079834
154.2946624756 94.3123474121 98.9300003052
169.8666839600 109.8600006104 110.8819961548
139.5939941406 106.3722076416 143.3899993896
136.5840759277 106.0928421021 147.4299926758
156.1508636475 106.9229736328 119.7700042725
143.8167114258 61.5797271729 89.0699996948
151.8157653809 75.2159042358 88.2430038452
172.9408721924 46.9429664612 91.3800048828
148.1597595215 75.0400009155 91.4499969482
151.8986206055 81.6117706299 87.2260055542
154.2117614746 53.2968025208 104.1009979248
157.7598114014 93.6467514038 97.5599975586
159.2559661865 115.0388031006 113.4767990112
151.4746551514 108.2423477173 124.1399993896
143.4452819824 112.9869232178 147.9239959717
141.3099975586 112.0052413940 140.0373992920
149.0333099365 72.8826980591 95.7679977417
171.8840789795 52.1128425598 101.2300033569
140.2936553955 114.3178253174 135.8439941406
142.9616546631 114.1693572998 134.3404083252
156.3434753418 96.2830429077 100.4160003662
139.7557678223 59.4458999634 90.1830062866
171.8066864014 49.5000000000 92.8320007324
153.4340667725 84.2328414917 97.5000000000
159.8536224365 56.8169822693 102.9196014404
148.3547821045 52.0853233337 93.5210037231
139.1497497559 109.2500000000 135.8000030518
144.5884704590 112.7062759399 129.6997985840
162.4416961670 107.4573669434 104.8400039673
168.0484619141 116.4762802124 110.2798004150
161.2988281250 97.7640228271 101.5299987793
156.7564697266 91.5112380981 93.5100021362
166.8238067627 54.0672035217 103.5512008667
166.1839599609 114.5500030518 108.8638000488
140.8927307129 117.5401000977 131.9489898682
169.9099884033 110.8752365112 114.0574035645
141.3188171387 106.1640243530 146.1900024414
141.7408599854 63.4229698181 95.6100006104
165.1788177490 108.5240249634 110.0499954224
160.8257598877 49.1659011841 101.5630035400
173.2697601318 46.5999984741 89.1399993896
154.8227844238 79.0289916992 94.1961975098
169.0604705811 109.0569381714 116.8574066162
162.0182800293 97.0533752441 98.4759979248
134.6134796143 109.0830459595 148.3159942627
153.1016540527 69.1893539429 92.0303955078
149.5151367188 48.6800003052 99.5129928589
161.0316619873 111.4393539429 104.3703994751
161.2746582031 102.8023529053 109.6699981689
159.6547851562 105.9453201294 118.6110000610
137.7194061279 111.6925354004 147.2040100098
145.1497497559 122.0899963379 137.9400024414
175.8846588135 112.0323486328 114.0899963379
166.8682708740 104.8133697510 115.1259994507
137.3197479248 110.3199996948 138.5299987793
168.5197601318 116.8099975586 111.9799957275
152.6133880615 81.8898696899 99.3025970459
142.8865814209 124.8616943359 148.1157989502
165.7342987061 53.3640747070 94.1223983765
155.5916900635 113.6173706055 121.2200012207
154.6788177490 56.5940246582 91.1299972534
148.1807098389 57.1266441345 96.7060012817
159.5384674072 91.1562805176 91.1498031616
155.6872253418 68.6553573608 92.4399948120
138.8099975586 109.5508422852 133.9799957275
168.0247802734 47.9153213501 97.5609970093
148.7855834961 107.8959197998 130.1889953613
142.7488250732 106.7440261841 141.3600006104
146.4097900391 108.3457183838 129.4217987061
170.2421417236 105.2469329834 116.2032012939
167.6051483154 119.5100021362 112.7429962158
175.4616546631 48.7293548584 90.7103958130
164.7716827393 108.0573730469 105.7700042725
141.2572326660 122.6453552246 144.2100067139
151.0199890137 56.6252365112 93.8074035645
149.7672271729 114.7053527832 132.5500030518
153.6925811768 52.2799987793 103.6580047607
177.0227813721 48.2289924622 98.4361953735
149.7486114502 80.9456100464 92.5276031494
151.3088226318 50.8340263367 98.6999969482
143.7536315918 115.2969818115 131.5296020508
160.0279235840 96.1576232910 100.0670013428
145.5167694092 76.8520202637 91.4145965576
165.2708740234 109.9029693604 125.4000015259
161.3843078613 110.4140777588 99.9224014282
166.7146606445 104.0323486328 120.6399993896
159.3040771484 94.9128417969 88.5600051880
151.6917572021 68.5768051147 93.1309967041
159.0167083740 111.5197296143 103.1999969482
169.5236206055 53.5069847107 97.1996002197
157.1091308594 108.6558609009 103.4940032959
178.0289764404 115.8092651367 108.5289993286
147.8747863770 107.7153244019 128.2709960938
156.1266784668 87.9199981689 86.8420028687
161.3616943359 95.1673736572 96.1600036621
154.1406860352 112.2610244751 124.7501983643
144.9040679932 59.6328430176 91.0900039673
159.9940032959 114.6722030640 110.7400054932
149.8186035156 67.0456085205 93.1976013184
157.3838043213 87.7272033691 92.7611999512
153.1588287354 76.0940246582 90.7799987793
144.8140716553 120.4228439331 146.4299926758
160.5314025879 109.8899993896 117.3588027954
161.3072357178 118.2453536987 110.6599960327
147.0614013672 67.0100021362 86.7987976074
148.3172302246 113.9853515625 127.0499954224
173.1333923340 45.9198684692 95.8526000977
172.8088226318 120.4140243530 117.1699981689
142.8749847412 115.5169219971 139.0453948975
163.6289520264 49.6081809998 104.7869949341
140.2338104248 115.3972015381 133.0012054443
161.7240753174 51.4828414917 107.8300018311
149.5989379883 113.8258361816 137.8719940186
161.3092041016 106.0175933838 104.5681991577
157.2116546631 54.5893554688 105.0403976440
167.1043090820 54.7840728760 99.9224014282
154.4739990234 73.4522094727 87.9100036621
155.3097534180 91.5100021362 89.8499984741
140.4113922119 108.0000000000 135.7987976074
151.2540740967 110.6028442383 136.3899993896
170.9682769775 106.6833724976 111.8859939575
136.5788269043 104.7840270996 146.8699951172
161.5634002686 109.1198730469 123.8125991821
163.2236175537 53.9869842529 95.0296020508
154.0520629883 83.7580566406 92.3219985962
157.8288269043 84.8040237427 89.0199966431
148.1479187012 114.2876205444 126.9470062256
170.4959564209 106.8787994385 112.6767959595
149.5238037109 57.4972038269 95.3611984253
157.7802886963 103.8898391724 123.2649993896
147.9952850342 110.1569213867 133.1139984131
175.6949920654 50.4569244385 103.2753982544
146.0957641602 109.7359008789 135.6130065918
172.3159637451 103.7088012695 112.5268020630
156.4891357422 107.8558654785 124.8840026855
157.5282745361 84.6533737183 89.1259994507
165.3279113770 110.0976257324 125.2270050049
160.6233062744 97.7226943970 98.1780014038
158.2872314453 104.9453506470 97.8399963379
137.2551422119 115.5000000000 129.5830078125
152.7639923096 49.4222068787 98.9000015259
160.7084655762 111.3762817383 105.2298049927
153.1516571045 55.4893569946 101.7903976440
140.0937957764 106.6472015381 142.2711944580
156.1793975830 85.1125335693 95.8740005493
150.3855743408 108.9159164429 131.9190063477
154.6655731201 79.9459152222 98.9189987183
162.5286102295 100.8456115723 100.3575973511
163.9182739258 48.9133758545 96.5260009766
158.4874267578 55.4898643494 102.5200042725
172.0797882080 101.9957122803 111.0718002319
159.9452819824 104.9269180298 104.7639999390
139.2786102295 61.9456100464 92.4176025391
139.9886016846 62.1756095886 93.6576004028
137.3197479248 110.3199996948 138.5299987793
141.1033935547 123.2798690796 150.3026123047
139.5436248779 111.9669799805 137.9995880127
162.7674255371 89.0098648071 86.6500015259
181.3367156982 49.6897277832 97.0299987793
161.6386108398 55.0456123352 106.2776031494
144.7446594238 59.1723442078 92.8000030518
162.3272247314 104.2653503418 95.7699966431
163.8822021484 111.4698715210 113.8899993896
143.9008636475 65.0729751587 92.5600051880
164.6616668701 112.6393585205 109.9104003906
155.8598022461 92.1167526245 97.8899993896
161.1088256836 92.1240234375 100.3199996948
162.5452880859 113.6369171143 116.9840011597
169.9389648438 103.5792617798 113.3790054321
167.6734008789 48.6398658752 101.8325958252
143.1331939697 112.6245803833 136.2079925537
165.0988159180 86.0640258789 89.0599975586
167.3208618164 121.3729705811 114.2200012207
159.9846649170 50.5023460388 106.7099990845
146.2497558594 54.9099998474 96.6399993896
146.6897583008 61.8899993896 90.1699981689
152.0427246094 116.4401016235 125.3089981079
174.8188171387 43.8740272522 89.5599975586
155.9974212646 96.5198669434 85.7500000000
150.9113922119 109.8199996948 119.0487976074
152.4862976074 110.9587020874 119.2249984741
148.8320617676 75.7380523682 91.8819961548
163.8589630127 106.7592620850 105.7890014648
175.9855804443 47.2159156799 103.6589965820
151.8892059326 55.3675956726 94.9581985474
158.2916870117 82.0273666382 90.8400039673
143.2388153076 62.0040283203 95.3299942017
142.8797912598 109.7357177734 130.8518066406
158.9043121338 90.6040802002 88.5123977661
162.2427368164 100.5700988770 101.3990020752
182.3616943359 48.1573677063 96.4700012207
141.9125823975 121.1900024414 139.7579956055
135.9751434326 112.2200012207 130.8130035400
147.2839965820 65.7622070312 87.2800064087
173.6816558838 53.5393562317 98.5403976440
146.1908721924 110.7129745483 128.3300018311
145.9208679199 55.2529678345 98.8800048828
144.5208740234 114.7929687500 127.0300064087
162.5452880859 113.6369171143 116.9840011597
150.9440765381 112.8328399658 137.8999938965
154.9486083984 87.9056091309 92.3076019287
144.2527313232 123.6301040649 141.6489868164
158.4472351074 90.9853515625 88.3799972534
146.3139495850 51.1300010681 94.9638061523
154.2389373779 80.2058334351 90.0820007324
155.1492156982 57.6575965881 87.9881973267
155.8636474609 89.2978210449 87.9340057373
155.6208648682 88.0129699707 92.7400054932
158.7738037109 106.9972076416 124.5011978149
159.0467071533 53.5097274780 104.2900009155
156.4539947510 78.5722045898 92.2300033569
140.6767578125 125.5720214844 146.2346038818
155.0882720947 48.4233779907 103.3159942627
145.5386199951 52.2217712402 99.8160018921
152.6502838135 53.8598365784 92.0049972534
155.0727386475 81.5901031494 88.2690048218
173.5314025879 114.2399978638 109.1688003540
145.6474304199 113.2498703003 128.4199981689
176.1047821045 46.2553215027 95.7509994507
173.4466857910 47.4900016785 91.4219970703
159.9152832031 99.6769180298 100.3540039062
147.0279235840 74.3076248169 95.5770034790
141.9146575928 72.6823501587 94.9400024414
171.5421447754 101.8769302368 115.7432022095
161.5520629883 109.6480560303 110.3720016479
142.0500030518 104.1308441162 140.5599975586
163.7339630127 52.3300018311 92.7638015747
138.9591217041 113.0958633423 147.1240081787
161.2286071777 108.1156082153 120.7676010132
160.1059570312 108.9088058472 108.0568008423
139.8536529541 113.0478210449 137.8939971924
176.0852813721 43.7669219971 90.1840057373
151.8316650391 82.4793548584 91.6203994751
144.3762969971 107.7087020874 143.9550018311
152.1539916992 51.3522071838 98.5100021362
164.6339569092 56.5299987793 99.7538070679
145.6972351074 115.3253555298 131.3899993896
155.2967681885 113.5020217896 123.8646011353
156.7214050293 89.5100021362 88.0587997437
160.9346618652 52.9323463440 106.4799957275
145.6207122803 64.5466461182 94.2659988403
165.0346679688 108.8123474121 124.5599975586
159.2537994385 99.1872024536 99.5111999512
166.3820648193 49.4280509949 101.1019973755
149.3189544678 49.2581825256 98.0869979858
146.6736450195 56.8278274536 95.6140060425
163.1416931152 116.0873718262 111.0299987793
153.7089691162 113.6892623901 118.8190002441
136.5840759277 106.0928421021 147.4299926758
140.4362945557 105.2987060547 137.6750030518
154.1289367676 83.5658340454 97.7319946289
170.8682708740 48.6433753967 95.8259963989
141.4382629395 73.8573074341 93.4609985352
156.6597595215 85.8799972534 87.0599975586
168.1688232422 115.6340255737 117.5999984741
159.1682586670 86.2873077393 91.2910003662
172.1839904785 105.5822067261 108.3800048828
147.3672332764 114.2953567505 129.7500000000
138.8189392090 111.7758331299 134.9319915771
151.3782806396 75.3533706665 88.6859970093
155.4946594238 94.7723464966 93.8099975586
149.2626342773 58.9468002319 95.0130004883
159.1179199219 94.1176223755 89.1270065308
175.2572326660 115.7553558350 109.5399932861
153.0674285889 52.9098625183 107.2799987793
161.6282806396 83.7533721924 89.0759963989
155.0667572021 55.3320159912 97.1245956421
142.3789520264 115.3181838989 131.1369934082
150.8908691406 78.3929748535 92.7800064087
148.5874176025 80.3698654175 90.5900039673
158.8257598877 84.7059020996 90.0730056763
142.8649902344 124.5769195557 149.5354003906
147.8699951172 48.5908432007 101.7200012207
149.9539947510 71.1722030640 92.3000030518
138.9046630859 110.5723495483 136.3899993896
142.9616546631 114.1693572998 134.3404083252
155.4620666504 98.2180557251 97.9319992065
153.1739959717 45.3622055054 97.8000030518
161.3736267090 56.7669830322 102.6595993042
155.1174163818 105.2098693848 117.2799987793
156.6902923584 74.6398391724 89.2249984741
150.5121307373 58.6569366455 91.4731979370
155.4051361084 104.0500030518 116.8129959106
167.1282653809 120.0073089600 115.9909973145
159.4588165283 105.2640228271 123.0099945068
155.9982757568 78.6733703613 92.3460006714
164.3682708740 50.3133773804 94.5759963989
163.9789581299 51.8481826782 104.6269989014
144.1174163818 113.4798660278 139.8699951172
146.4451446533 113.9499969482 123.2929992676
145.9085998535 112.8256072998 129.9275970459
143.1774291992 64.2798690796 91.2799987793
137.4947814941 103.9353179932 141.0110015869
170.7021331787 100.6869354248 117.6732025146
174.1439971924 45.9822044373 96.9900054932
170.7121429443 105.4369354248 117.6632003784
162.3808746338 55.6829681396 106.3199996948
150.7740783691 50.8128433228 103.5100021362
156.5216827393 48.1973648071 106.8899993896
174.7340698242 50.6328430176 96.7200012207
164.8289489746 85.8981857300 89.3869934082
151.7716674805 56.1493568420 101.7304000854
171.8643035889 122.0340805054 113.7923965454
146.9366760254 55.4500007629 94.5220031738
175.0202941895 45.4798393250 99.6949996948
170.9055786133 47.5359153748 95.5489959717
149.5143127441 73.6640777588 90.0923995972
146.1067047119 123.3797225952 139.6199951172
159.1582794189 94.1833724976 95.6459960938
138.0036315918 116.7369766235 130.2796020508
142.5752868652 107.0369186401 141.7740020752
160.2036285400 111.6069793701 118.7196044922
160.9527282715 117.8501052856 116.1190032959
161.3092041016 106.0175933838 104.5681991577
140.4113922119 108.0000000000 135.7987976074
148.2246551514 78.5623474121 91.1500015259
165.2782745361 103.3833694458 116.5960006714
161.6651458740 52.3499984741 98.5529937744
155.5221405029 66.9669342041 92.2931976318
142.7639923096 117.2022094727 142.5400085449
143.2440643311 63.3128433228 95.8899993896
148.6116943359 70.7373733521 92.5100021362
175.0689392090 106.1158370972 116.4020004272
170.7108612061 122.9929733276 116.2000045776
163.1972351074 53.9953536987 99.6699981689
144.3197784424 62.9957122803 88.0418014526
134.9297485352 106.1800003052 143.3000030518
163.6289520264 49.6081809998 104.7869949341
179.3016815186 49.4373664856 93.5999984741
145.9072265625 61.6853523254 90.5000000000
154.0266876221 80.8799972534 89.9519958496
144.9040679932 59.6328430176 91.0900039673
138.9579162598 115.8376235962 133.2369995117
149.9539489746 74.3499984741 89.1238021851
157.3697814941 109.1357192993 108.1918029785
153.6408691406 75.0029754639 89.5900039673
138.9438018799 106.7372055054 143.1311950684
149.7837982178 68.7172012329 90.8712005615
139.9085998535 122.0556106567 147.1676025391
162.7138061523 86.0872039795 92.2511978149
158.6749877930 110.4769210815 118.5454025269
149.3551483154 56.9500007629 86.3330001831
178.8246612549 46.6523475647 97.7500000000
144.5967102051 121.4797286987 145.5899963379
152.2865905762 57.7116928101 99.7557983398
155.2640686035 53.5828399658 107.1800003052
159.7464752197 90.2612380981 93.5400009155
149.9840698242 112.4728393555 128.2200012207
139.5846557617 106.4923477173 145.6300048828
145.3402862549 107.8998413086 145.9850006104
181.7521362305 47.8369369507 87.0032043457
150.7952880859 50.7969245911 98.9240036011
145.6846618652 54.1623458862 98.0400009155
166.4657592773 101.7059020996 120.0530014038
163.5634002686 103.8798751831 111.1125946045
150.6379241943 110.4476242065 137.4169921875
160.1686248779 52.9317741394 104.8660049438
150.1546630859 65.4723510742 94.9499969482
161.6507110596 112.3866424561 107.3659973145
171.1188201904 116.0040283203 118.4699935913
157.4946594238 109.4823532104 102.9199981689
165.2338104248 104.6672058105 111.1311950684
163.2939910889 107.0922088623 105.2100067139
160.4440002441 91.9922027588 98.9200057983
141.6714019775 114.4000015259 142.0688018799
160.0455780029 102.6859207153 104.1589965820
171.3852844238 49.7969245911 100.4940032959
160.8159637451 50.3788032532 101.6467971802
151.5082550049 67.5373077393 95.1609954834
173.4691314697 114.4458618164 114.8440017700
161.0316619873 111.4393539429 104.3703994751
171.5421447754 101.8769302368 115.7432022095
149.8493957520 58.6425361633 89.5839996338
173.3251495361 47.0400009155 96.8529968262
174.2257537842 113.0959014893 108.3830032349
166.4797821045 98.9657135010 118.4818038940
142.2988281250 106.4140243530 137.6399993896
155.0786132812 89.0756072998 91.3176040649
159.0897521973 105.1900024414 97.8399963379
150.6152954102 54.8769226074 93.5540008545
147.8367156982 122.8697280884 139.8099975586
165.8439941406 49.0822067261 98.5100021362
163.8818664551 50.7175254822 105.3420028687
147.8739929199 46.5422058105 98.4100036621
142.7249908447 113.6069183350 130.9253997803
153.4972229004 81.4353561401 87.0399932861
149.0836181641 116.1269836426 119.2496032715
155.3108673096 95.4829711914 93.0100021362
176.8139953613 46.0922050476 93.7900009155
162.6527862549 115.4789962769 118.7561950684
143.6540679932 73.6628417969 96.0600051880
164.0474243164 112.8098678589 119.7099990845
179.8489532471 112.7781829834 108.4069976807
141.9219207764 72.4289855957 94.3880004883
144.3447875977 109.1053237915 129.7010040283
144.1340026855 117.1822052002 144.3800048828
176.5959625244 111.2488021851 109.8667984009
170.1606903076 111.5910263062 113.5201950073
169.3846588135 116.3323516846 117.9099960327
161.7316589355 57.1893539429 104.2803955078
148.6102905273 109.2598419189 136.4250030518
145.8916931152 110.8473663330 139.1499938965
151.3640747070 54.3328399658 103.3199996948
174.7340698242 50.6328430176 96.7200012207
156.0267028809 95.0597229004 100.4499969482
179.3867034912 51.6697273254 87.5599975586
146.1067047119 123.3797225952 139.6199951172
159.4416961670 80.4773712158 94.2700042725
151.6913909912 57.2900009155 86.9688034058
159.7574310303 118.6298675537 111.2200012207
169.0283966064 115.9679565430 111.5659942627
155.6274261475 108.9298706055 120.8800048828
155.0882720947 48.4233779907 103.3159942627
181.7272338867 49.0753555298 95.6299972534
142.8797912598 109.7357177734 130.8518066406
160.0343017578 99.3840789795 94.5324020386
143.2772216797 116.0153503418 142.5800018311
165.1040039062 110.9922027588 112.5800018311
158.0486145020 89.5917739868 86.4560012817
164.7716827393 108.0573730469 105.7700042725
158.6749877930 110.4769210815 118.5454025269
144.4708709717 74.0629730225 96.6700057983
151.1407165527 76.4266433716 93.8159942627
152.0604705811 75.6469421387 93.7774047852
139.4313964844 111.4800033569 130.5888061523
153.6033935547 100.8898696899 98.8226013184
160.9446563721 112.3023529053 115.6699981689
146.0957641602 109.7359008789 135.6130065918
157.7208709717 98.5129699707 99.2700042725
143.4552917480 58.0669250488 91.4640045166
153.8427276611 58.9401016235 90.8190002441
165.4097900391 113.5257186890 110.7817993164
149.2552947998 64.2969207764 92.1440048218
162.0482788086 111.0233764648 112.2760009766
148.9465789795 62.4716911316 94.5958023071
158.3752899170 102.9569168091 119.9940032959
147.5522003174 55.1798706055 90.3099975586
173.9333953857 49.1598663330 104.0425949097
147.0306854248 61.0610237122 95.4301986694
173.0746612549 46.4423446655 97.8300018311
146.5091247559 55.8958625793 97.4340057373
162.0182800293 97.0533752441 98.4759979248
149.1391296387 77.1558609009 92.9739990234
156.0608673096 98.2029724121 96.1100006104
145.4234771729 52.2830505371 101.7360000610
169.9947814941 47.3553199768 93.6309967041
179.0616607666 114.5493545532 110.3203964233
149.9259643555 45.8188018799 100.1067962646
180.5588226318 46.3240280151 98.3099975586
152.1513977051 52.6899986267 97.7888031006
165.5138092041 113.4572067261 115.5311965942
162.7851409912 87.4199981689 86.0929946899
164.3174285889 54.9598655701 98.2600021362
139.8816680908 117.1093521118 131.6404113770
176.9382629395 48.8073081970 98.7709960938
173.9097595215 115.0800018311 109.2599945068
149.9874267578 55.1598625183 101.6399993896
155.9689483643 48.1881828308 100.7569961548
165.9108734131 116.1429748535 115.9500045776
156.5467071533 81.9897232056 98.4899978638
155.2797546387 93.4199981689 97.0400009155
167.9916839600 53.9673652649 95.5400009155
152.1513977051 52.6899986267 97.7888031006
152.2597503662 50.6300010681 98.3399963379
164.7746582031 49.5423469543 99.3499984741
158.2140655518 84.5728378296 93.0699996948
175.5838012695 50.5872039795 102.9211959839
158.8572235107 92.7953567505 89.2500000000
175.4616546631 48.7293548584 90.7103958130
160.2184600830 109.8262786865 117.6598052979
149.3621368408 119.7969360352 142.4631958008
165.6589508057 87.0681838989 87.7169952393
150.0238037109 73.2872085571 95.0411987305
145.7847747803 62.3653182983 86.8909988403
149.4787445068 109.1059951782 126.9386062622
171.3508605957 107.1329727173 110.0600051880
146.9682769775 118.2333755493 141.5559997559
140.1291351318 113.3858642578 137.6640014648
156.6108703613 104.6129684448 99.8000030518
140.9198150635 103.9067535400 138.1799926758
145.0219268799 50.4289894104 100.3079986572
166.1839599609 114.5500030518 108.8638000488
157.3674163818 110.9498672485 121.4400024414
136.0988159180 105.1040267944 145.2599945068
162.9827270508 116.9001007080 115.4090042114
151.6913909912 57.2900009155 86.9688034058
179.1582794189 47.1233787537 96.1660003662
160.6021423340 92.4869308472 91.9932022095
149.8672332764 56.4053535461 97.4199981689
146.3840789795 113.7028427124 145.6199951172
163.6499938965 113.9552383423 108.1574020386
156.3897552490 97.8600006104 93.8699951172
155.8297576904 107.8700027466 120.0400009155
147.8652954102 70.9269180298 94.8540039062
154.8107299805 53.2700004578 97.0925979614
162.4336547852 57.5478248596 102.4739990234
150.3339996338 52.9322052002 95.8700027466
137.6798095703 109.3267517090 131.5999908447
141.7639923096 120.0922088623 141.1800079346
162.7143096924 110.9840774536 117.8124008179
178.7821350098 47.7269363403 93.6531982422
178.8097534180 46.7999992371 84.8499984741
148.9351501465 110.1100006104 133.7630004883
136.4674224854 110.9098663330 140.8399963379
158.1347808838 90.6253204346 98.8410034180
164.3583831787 112.9479598999 110.4059982300
151.6333923340 81.3298721313 94.5726013184
149.2708740234 50.9229698181 103.2300033569
160.8616638184 88.6993560791 89.4804000854
134.7233886719 115.7298736572 133.3126068115
172.9874267578 52.7298622131 96.6100006104
160.1051483154 101.7799987793 95.9029998779
150.3706970215 56.3010253906 100.5901947021
137.2882843018 111.3533706665 130.8459930420
138.1039581299 113.0899963379 141.9938049316
180.2399902344 112.4652404785 107.9474029541
166.5421447754 103.8969345093 108.8631973267
150.0949859619 112.1569213867 131.5354003906
154.8227844238 79.0289916992 94.1961975098
157.4167175293 85.4097290039 93.7900009155
153.8357543945 105.5858993530 102.0130004883
159.8674163818 111.4698715210 103.4199981689
176.8989562988 47.5181808472 100.4570007324
146.1067047119 123.3797225952 139.6199951172
166.5227813721 56.7689933777 105.7361984253
143.6221313477 107.6069335938 137.6131896973
155.0786132812 89.0756072998 91.3176040649
147.0346679688 55.8123474121 88.7600021362
144.9219207764 49.1489868164 100.7679977417
138.8099975586 109.5508422852 133.9799957275
160.2027740479 106.6689910889 106.4861984253
153.4972229004 81.4353561401 87.0399932861
150.1497802734 107.8157119751 126.7918014526
157.4449920654 102.9769210815 96.8554000854
159.4746551514 105.0323486328 107.6900024414
177.8139953613 111.5022048950 107.0000000000
172.9408721924 46.9429664612 91.3800048828
159.8008728027 99.1829681396 101.8100051880
156.4307098389 55.9666442871 100.7360000610
153.2516937256 108.9173736572 120.0900039673
149.7659606934 65.2588043213 94.0467987061
155.9974212646 96.5198669434 85.7500000000
140.7259674072 59.6488037109 92.5367965698
142.6988220215 104.5840301514 139.9599914551
151.5717620850 68.8268051147 89.3710021973
135.5559692383 112.0988006592 132.2068023682
138.4940643311 110.5528411865 141.0499877930
156.6672210693 104.8253555298 116.7199935913
156.6421356201 49.6669387817 106.3132019043
160.6233062744 97.7226943970 98.1780014038
153.1782836914 108.1533737183 120.3859939575
144.9339904785 59.7422065735 93.8199996948
145.1692657471 65.6391983032 88.6342010498
147.8727264404 122.7100982666 142.1689910889
146.8286132812 66.5956115723 92.5976028442
169.0283966064 115.9679565430 111.5659942627
150.9388275146 111.5240249634 137.3399963379
156.2486114502 102.7556076050 100.9976043701
167.1018676758 110.8075256348 120.8320007324
168.2367095947 106.0697250366 120.9199981689
157.5667114258 97.7697296143 98.9799957275
160.4859619141 107.4288024902 108.0067977905
179.0616607666 114.5493545532 110.3203964233
148.1040039062 55.3522071838 87.9200057983
179.3867034912 51.6697273254 87.5599975586
161.4243011475 96.1240768433 97.1923980713
141.5016632080 112.1693572998 146.5704040527
178.1463012695 46.5587005615 96.3349990845
161.3097534180 110.9100036621 118.1199951172
149.9640655518 79.5428390503 92.2700042725
174.0520629883 44.0903892517 92.0670013428
148.8519287109 48.5189895630 102.1179962158
165.8667602539 118.3920211792 110.9245986938
159.2014007568 109.3199996948 99.4688034058
173.4936218262 51.4369850159 92.8896026611
141.9125823975 121.1900024414 139.7579956055
143.3699951172 60.5908432007 95.0000000000
163.7042999268 110.0840759277 117.0223999023
146.7333984375 109.8398742676 130.5726013184
151.9940643311 113.8028411865 125.9500045776
151.9016571045 68.5793533325 92.2903976440
143.5352935791 59.1169242859 93.4440002441
163.6155853271 107.1759185791 123.4290008545
162.5788269043 110.8340301514 114.2399978638
159.6346588135 104.5523529053 109.3199996948
162.6474304199 115.1198654175 111.4800033569
160.8755798340 51.5159187317 100.2289962769
161.1140747070 93.4328384399 100.8800048828
139.0020599365 109.6580505371 133.9520111084
154.0079193115 56.7976188660 94.2270050049
156.6597595215 85.8799972534 87.0599975586
150.8889770508 111.0892639160 134.1689910889
158.0486145020 89.5917739868 86.4560012817
149.7852935791 54.1969223022 92.4640045166
143.0267028809 64.3697280884 95.0499954224
164.1264648438 110.6712341309 112.5900039673
159.6346588135 104.5523529053 109.3199996948
154.6362915039 47.5186996460 106.4749984741
153.9521942139 51.6798706055 98.0099945068
167.0188293457 112.8340301514 114.6100006104
168.1516876221 54.0173645020 101.0299987793
158.2252960205 79.6769180298 95.1940002441
173.0759582520 47.7388038635 101.7467956543
164.7464752197 111.6412353516 115.7100067139
141.8674163818 64.1398696899 94.2099990845
148.5240020752 53.7322044373 90.9900054932
151.4746551514 108.2423477173 124.1399993896
144.3762969971 107.7087020874 143.9550018311
160.6516571045 118.4393539429 114.9203948975
148.1040039062 55.3522071838 87.9200057983
150.1299896240 119.1452407837 123.9874038696
171.1146545410 106.0423507690 109.2200012207
150.0540771484 68.6028442383 90.9900054932
156.2574310303 97.2498703003 96.1800003052
152.7633972168 79.1798706055 93.8125991821
163.8972320557 116.3553543091 111.8899993896
176.8989562988 47.5181808472 100.4570007324
171.4113922119 108.0899963379 110.4087982178
164.4127807617 50.1189918518 99.8161926270
161.1199951172 53.9152374268 97.9273986816
141.6217651367 74.8968048096 91.4309997559
147.7988281250 69.9040298462 93.3499984741
159.1674194336 108.0698699951 99.4900054932
160.7859649658 112.3288040161 114.9667968750
162.5074310303 56.3998641968 104.9199981689
146.8607330322 70.4300003052 88.1725997925
166.1040039062 108.3522033691 123.7200012207
164.8199920654 108.5452423096 114.9973983765
157.9240722656 78.9528427124 88.4500045776
149.3167114258 59.0997276306 94.5000000000
157.9799957275 102.1352386475 94.9374008179
149.9246673584 75.6223526001 89.6500015259
164.8289489746 85.8981857300 89.3869934082
162.7021942139 104.8198699951 117.4299926758
145.4682769775 58.9933776855 91.3359985352
149.2638092041 66.4172058105 93.0512008667
180.4116821289 50.1373672485 87.0000000000
157.5213928223 93.4199981689 97.3888015747
174.2747802734 43.7953224182 93.5510025024
151.8497924805 84.0257186890 91.0118026733
141.5608673096 72.7829742432 93.3100051880
155.1749877930 98.0869216919 87.4253997803
176.5959625244 111.2488021851 109.8667984009
148.9013977051 52.5400009155 95.7488021851
171.7208709717 113.8429718018 114.7700042725
159.4549865723 111.9269256592 108.5754013062
152.5327758789 109.1589889526 128.3262023926
165.2443084717 101.3840789795 97.1823959351
155.1789550781 56.1081809998 92.1969985962
138.7372283936 117.1653518677 130.5000000000
140.4219207764 61.1489868164 94.0479965210
155.3166809082 110.4700012207 120.9319992065
169.7236175537 52.3169822693 96.2796020508
151.3522033691 107.5498733521 121.3399963379
139.6074218750 120.7298660278 145.2599945068
152.5282592773 95.4673080444 91.0709991455
140.0520629883 118.8480529785 144.1320037842
145.9208679199 55.2529678345 98.8800048828
152.2425842285 79.8099975586 85.7980041504
178.2899932861 111.2008438110 114.1300048828
155.2797546387 93.4199981689 97.0400009155
149.9539947510 71.1722030640 92.3000030518
163.9789581299 51.8481826782 104.6269989014
174.7974243164 114.3498687744 107.4300003052
168.9972229004 121.7053527832 112.2599945068
157.7040710449 52.9428405762 106.5699996948
154.8597564697 95.0599975586 97.5299987793
154.7686004639 109.8356094360 124.8975982666
147.2619171143 55.1789894104 89.1080017090
155.7286071777 94.0656127930 94.6376037598
151.3239898682 112.3622055054 123.9900054932
143.5486145020 114.1356124878 133.7976074219
140.6539916992 106.0322036743 144.7900085449
157.5667114258 97.7697296143 98.9799957275
174.4274291992 115.8098678589 108.2300033569
136.3533935547 106.0598678589 143.3126068115
164.1907348633 55.9399986267 100.9025955200
157.0867614746 110.1620178223 117.3945999146
150.6379241943 110.4476242065 137.4169921875
151.3367156982 82.0797271729 92.3300018311
153.8040008545 109.5222091675 120.1200027466
146.5927886963 112.0689926147 136.6561889648
154.9921417236 113.6169357300 119.8932037354
169.7255859375 46.6959152222 101.4489974976
152.2367095947 117.0997238159 120.2900009155
169.1272277832 53.1053543091 100.0899963379
162.4917602539 88.9568023682 87.3109970093
149.6340789795 74.8228378296 95.6500015259
159.0807189941 99.1566467285 94.4659957886
159.0816955566 90.0673675537 89.2200012207
151.1772308350 54.8153533936 95.5899963379
180.4116821289 50.1373672485 87.0000000000
159.1188201904 85.9740295410 91.4699935913
151.4446563721 55.2223472595 93.2200012207
144.5452880859 117.5469207764 146.1739959717
161.4146575928 107.5723495483 108.9400024414
143.8440704346 115.1428451538 148.8300018311
170.0492095947 49.2375946045 98.3281936646
159.7533111572 91.9626998901 94.2679977417
153.2186126709 82.3256072998 98.7175979614
144.9898071289 71.8167572021 93.4599990845
147.0791320801 73.0258636475 95.4039993286
154.2327880859 85.3689956665 92.5461959839
137.1600036621 106.6708450317 147.8399963379
158.8474273682 110.2898712158 100.1399993896
147.2667083740 53.8397254944 101.1500015259
175.6949920654 50.4569244385 103.2753982544
148.9122009277 64.4198684692 87.8399963379
153.3559570312 49.1688041687 104.6767959595
161.4640045166 106.8122024536 106.7000045776
142.6788177490 107.7640228271 145.1600036621
164.1264648438 110.6712341309 112.5900039673
153.5983886719 80.9579620361 89.5859985352
166.8186035156 117.2756118774 117.6775970459
165.3252868652 107.4169235229 121.0340042114
167.8939971924 100.9822082520 113.7800064087
169.0283966064 115.9679565430 111.5659942627
140.8234710693 63.0030479431 95.4759979248
150.4938201904 110.1584777832 129.8513946533
165.2782745361 103.3833694458 116.5960006714
143.9755859375 110.0859146118 138.3789978027
158.7316894531 78.4773712158 87.0500030518
164.4802856445 85.8598403931 88.9349975586
161.4243011475 96.1240768433 97.1923980713
164.0716857910 49.5673675537 100.3300018311
166.1791229248 106.9158630371 119.8140029907
147.8367156982 122.8697280884 139.8099975586
135.6759643555 107.2088012695 140.1768035889
163.8562927246 49.3987007141 95.3050003052
150.0393981934 114.6025390625 136.8339996338
145.3540039062 113.2422027588 125.3500061035
170.7389526367 100.8281860352 116.3470001221
152.3502807617 113.0098419189 125.7149963379
150.3355865479 59.4959182739 95.7689971924
144.8140716553 120.4228439331 146.4299926758
145.7939605713 75.4000015259 90.2638015747
153.8388214111 45.4940261841 99.1999969482
152.6172332764 109.8353576660 119.2500000000
149.9488220215 50.9840278625 100.4899978638
144.9936218262 123.1069793701 140.2796020508
138.1397857666 60.8457145691 90.5918045044
177.7572326660 48.6653556824 91.9199981689
145.8174285889 114.6798706055 130.3099975586
156.5567626953 91.3920211792 93.2745971680
143.0267028809 64.3697280884 95.0499954224
168.5297851562 47.9857139587 94.7817993164
159.7091217041 54.9758605957 106.1840057373
144.5063018799 72.6587066650 90.9749984741
169.8513946533 51.7900009155 95.8387985229
141.3436279297 116.1169815063 143.4295959473
155.3197479248 104.1500015259 116.4399948120
152.7559661865 74.4888000488 88.5467987061
169.7255859375 46.6959152222 101.4489974976
168.9938201904 115.1084823608 111.5313949585
149.9874267578 78.7298660278 87.4599990845
178.0462951660 110.5787048340 111.2150039673
155.4916839600 57.4273643494 90.2900009155
144.2692108154 122.4775924683 148.7682037354
160.8149871826 98.6569213867 92.7654037476
160.4440002441 91.9922027588 98.9200057983
159.1349945068 56.6169242859 100.9054031372
157.1091308594 108.6558609009 103.4940032959
153.4133911133 96.7898712158 88.1925964355
148.9867095947 68.1397247314 92.0899963379
144.6433868408 64.4898681641 89.1925964355
158.6437988281 109.1372070312 125.1811981201
143.5352935791 59.1169242859 93.4440002441
174.3143005371 52.5440750122 96.2723999023
143.6488189697 72.3540267944 95.5000000000
139.8816680908 117.1093521118 131.6404113770
159.2640686035 52.4528427124 105.1300048828
172.0627746582 117.7089920044 113.6561965942
149.8932800293 114.5781021118 134.0639953613
140.7164764404 108.0812377930 147.6600036621
153.2831878662 54.1145782471 98.0680007935
153.0733947754 103.5998687744 120.5726013184
149.4886016846 78.3856124878 92.7076034546
165.3594055176 113.4125366211 121.7839965820
156.9397583008 104.2699966431 97.5599975586
174.4555816650 101.5459136963 111.8389968872
149.7667083740 113.5297241211 127.3799972534
163.8482818604 104.2033767700 106.4860000610
148.1807098389 57.1266441345 96.7060012817
144.9920654297 110.9480514526 126.2919998169
164.7786102295 52.7256088257 103.1276016235
157.3316650391 86.0493545532 93.0103988647
175.0202941895 45.4798393250 99.6949996948
144.3226470947 110.0967941284 132.2030029297
155.8888244629 48.6440277100 108.9099960327
169.9389648438 103.5792617798 113.3790054321
150.2552947998 72.6469192505 94.4940032959
156.0440673828 105.8028411865 125.0500030518
151.9940643311 113.8028411865 125.9500045776
148.3482818604 109.7033767700 123.9559936523
144.5538024902 119.6672058105 147.0811920166
156.3386077881 107.1756134033 124.0475997925
158.8874206543 106.2498703003 98.6800003052
164.3074188232 56.2098655701 95.1100006104
159.9237976074 101.7972030640 101.2611999512
162.7736206055 52.5869827271 96.9796066284
137.8267669678 114.5420150757 143.1446075439
152.6697540283 46.5699996948 97.2399978638
158.1943054199 94.8540802002 85.7024002075
166.2316894531 111.5073699951 119.9899978638
152.0117645264 57.9968032837 91.7910003662
152.4388275146 108.0840301514 120.9300003052
164.4055786133 48.3259162903 99.0489959717
146.7351379395 48.2299995422 98.0929946899
162.9338073730 54.0472030640 107.2911987305
147.1049957275 77.1669235229 92.5653991699
163.7216644287 56.5793571472 105.3703994751
144.8040771484 118.6228408813 146.3399963379
148.1807098389 57.1266441345 96.7060012817
157.4492187500 49.5475959778 103.1981964111
161.9547882080 104.0853195190 115.0510025024
162.2386016846 110.0156097412 123.9076004028
174.4740753174 106.0728378296 116.5800018311
163.1251373291 51.1500015259 94.4929962158
145.2846679688 110.6423492432 132.8399963379
142.6242980957 122.5940780640 143.9924011230
147.3013916016 59.0499992371 89.6587982178
162.1855773926 93.8459167480 99.7490005493
155.5620574951 51.4703903198 97.9270019531
168.5197601318 116.8099975586 111.9799957275
166.4492187500 51.9975967407 94.2981948853
155.1221313477 55.7969360352 90.9232025146
176.2418670654 51.6975250244 100.0319976807
166.0294036865 113.8025360107 122.8939971924
140.2936553955 114.3178253174 135.8439941406
179.9794006348 52.5125350952 97.3339996338
146.5091247559 55.8958625793 97.4340057373
141.9372253418 115.7553558350 130.2300109863
163.5952911377 111.7969207764 115.8740005493
175.7202911377 46.3098373413 101.6750030518
160.4897918701 104.7157135010 116.2018051147
177.0992126465 48.3575935364 102.5081939697
168.0618591309 54.1375236511 95.9619979858
154.5020599365 91.9380569458 92.7819976807
154.6574249268 50.1898651123 98.9900054932
162.4986114502 106.7156143188 109.2076034546
155.5889739990 68.8192596436 91.0890045166
146.4382629395 111.3173065186 136.8310089111
163.6667175293 56.6297264099 105.7599945068
167.0547790527 106.9753189087 112.9710006714
154.9406890869 101.1810226440 98.9601974487
163.5664672852 104.9912338257 119.2500000000
148.2839508057 118.2200012207 123.6038055420
145.8916931152 110.8473663330 139.1499938965
149.5316619873 56.7693557739 98.8303985596
175.0202941895 45.4798393250 99.6949996948
158.8543090820 93.9440765381 89.3124008179
150.5914001465 48.0800018311 98.8087997437
151.6702880859 64.5898437500 93.8450012207
150.5421447754 72.1769332886 91.4532012939
171.5616607666 117.9993591309 115.3803939819
177.4340667725 46.5328407288 92.1200027466
152.2425842285 79.8099975586 85.7980041504
168.4838104248 52.1672058105 102.8012008667
154.5682830811 79.8133697510 95.9959945679
148.9838104248 116.4172058105 127.1912002563
170.2252960205 100.5269165039 117.1040039062
135.9682617188 110.1573104858 141.6809997559
144.2692108154 122.4775924683 148.7682037354
162.4546661377 49.6723442078 95.8700027466
162.6921386719 108.9569320679 103.4632034302
156.1997528076 95.4599990845 84.9099960327
158.8840789795 109.5928421021 125.0900039673
175.5692138672 102.6875915527 110.6881942749
164.2974243164 115.9598693848 114.0200042725
152.4643096924 81.4840774536 89.3524017334
151.1579132080 116.8176269531 126.5270004272
154.4746551514 88.3023529053 89.8099975586
164.2974243164 115.9598693848 114.0200042725
166.1708679199 117.7929687500 115.3700027466
140.6767120361 117.4497299194 132.6399993896
173.9708709717 47.2729682922 102.0300064087
152.1857604980 93.8859024048 89.8530044556
180.8840026855 47.1922073364 95.9100036621
150.2716827393 111.2073669434 132.9499969482
169.9099884033 110.8752365112 114.0574035645
156.0608673096 98.2029724121 96.1100006104
164.7183837891 110.5279617310 117.4759979248
145.5146636963 49.4723472595 101.6999969482
167.6749877930 110.3969192505 114.5054016113
170.1888275146 113.1740264893 115.2299957275
162.6482543945 51.6473083496 97.7409973145
142.5651397705 59.6199989319 87.5830001831
156.6549835205 55.6469268799 98.2753982544
163.6527252197 104.2201004028 98.0390014648
166.9759674072 119.4388046265 114.2667999268
147.4672241211 112.8953552246 123.0899963379
160.8134002686 106.2098693848 117.3526000977
156.1997528076 95.4599990845 84.9099960327
171.7072296143 117.6753540039 113.6999969482
151.3640747070 54.3328399658 103.3199996948
172.0343017578 52.8840751648 96.2923965454
175.4572296143 47.1653556824 86.2599945068
156.8821411133 75.3069305420 88.0932006836
138.9474182129 110.3098678589 136.6399993896
146.3746643066 52.8523445129 97.0500030518
149.7236175537 112.0869827271 123.4696044922
177.2227325439 115.9001007080 112.8489990234
177.5246582031 47.4823455811 85.6299972534
140.4536437988 123.1078262329 146.4239959717
155.0288238525 49.9240264893 100.9399948120
142.9504699707 112.8369369507 139.6174011230
143.9527282715 61.4901008606 90.0190048218
149.4397888184 45.1957168579 99.5618057251
162.6862945557 84.4987030029 88.5749969482
176.3974304199 51.1398658752 88.4000015259
149.9237976074 111.4672012329 137.8511962891
151.6582794189 45.0733757019 98.7459945679
