175.3783874512 250.9679565430 143.5159912109
209.2893981934 241.4525299072 90.6139984131
215.7797546387 239.3500061035 85.7799987793
220.0292053223 235.7675933838 92.5781936646
181.5346679688 263.0023498535 140.0299987793
203.9889526367 213.3481750488 102.7169952393
203.9567108154 209.9397277832 122.5099945068
163.8225860596 250.6199951172 153.2480010986
195.7099914551 214.5508575439 114.6300048828
194.5007171631 212.4766540527 112.6459960938
206.8367614746 240.3620147705 81.0746002197
178.8374176025 255.0398559570 141.7799987793
203.0199890137 229.9052276611 77.5974044800
171.2597503662 250.4799957275 143.7600097656
199.9384613037 248.8862915039 137.9597930908
196.5774230957 225.8898620605 127.6500091553
185.8027801514 253.2089996338 137.1862030029
196.7834014893 235.2298583984 135.9326019287
154.1546630859 244.2623443604 152.6600036621
176.8439941406 253.1122131348 129.9600067139
179.2955780029 252.1259155273 136.4490051270
179.6552886963 251.0569305420 135.7440032959
178.8036193848 257.5769958496 130.5795898438
215.4539947510 235.6022033691 87.4600067139
198.0031890869 212.8745880127 106.9980010986
198.7299957275 212.1852264404 105.3774032593
196.5839996338 227.5722045898 138.1900024414
163.5988159180 246.2140197754 157.1900024414
186.5227355957 266.7801208496 129.5389862061
201.5139923096 218.6222076416 75.4300003052
183.7891235352 264.1058654785 134.8139953613
205.8539581299 237.7599945068 85.8938064575
201.9933929443 210.3998565674 121.4225997925
194.5559692383 212.5187988281 106.1467971802
202.2807159424 247.9466552734 136.7259979248
221.2640686035 239.4728546143 85.1500015259
197.4239959717 212.4122009277 105.0699996948
177.2433929443 254.0698699951 136.8326110840
202.1131896973 234.2045898438 135.3379974365
202.7336273193 238.7369842529 81.7096023560
203.9438018799 227.8471984863 85.0512008667
199.1839599609 222.3500061035 75.2138061523
190.6239624023 214.5299987793 107.6938018799
200.3536224365 231.2169799805 128.6696014404
216.4082641602 239.7373046875 84.7409973145
206.1504669189 234.9769439697 83.6473999023
220.7340698242 237.1628417969 84.0100021362
190.6239624023 214.5299987793 107.6938018799
194.3657684326 247.8659057617 136.3930053711
201.3140716553 217.3528442383 124.2900009155
184.4920501709 260.4103698730 131.9270019531
153.1827239990 250.0001068115 153.6790008545
222.0316925049 234.9773712158 96.9499969482
203.9751434326 226.9499969482 78.4129943848
172.7297515869 247.1100006104 142.8000030518
183.4467163086 254.1597290039 137.5699920654
196.4416656494 217.6993560791 104.9503936768
213.9059600830 236.0088043213 87.4067993164
192.8288269043 249.4240264893 136.0000000000
160.4267120361 247.7697296143 139.9199981689
197.9438018799 206.2371978760 117.4711990356
188.2416534424 264.3393554688 141.6004028320
188.0488281250 257.0440368652 141.3699951172
203.0046539307 213.9223480225 85.4300003052
175.9799957275 246.6208496094 151.5599975586
207.4518585205 213.7975311279 85.3820037842
182.2486114502 265.7256164551 140.9176025391
197.8334655762 218.9730529785 93.8059997559
221.0972290039 240.8753509521 90.5899963379
198.4091339111 244.3858642578 137.6040039062
206.5116882324 241.0973663330 85.2399978638
189.5427246094 264.8001098633 139.4189910889
188.5416564941 264.7293701172 130.6504058838
198.2627868652 206.0489959717 118.2961959839
194.0739898682 204.9721984863 112.0500030518
200.5859680176 217.6287994385 87.5467987061
195.7834014893 221.0398712158 81.2225952148
197.8859558105 214.7088012695 93.2667999268
195.7592620850 212.9491882324 116.9641952515
194.3516540527 216.1293487549 97.8404006958
218.1539611816 240.2100067139 86.3538055420
194.6382751465 211.2233734131 97.8159942627
186.9463043213 257.0886840820 140.2449951172
207.6936187744 241.1069793701 83.8896026611
182.6339569092 265.2300109863 134.2938079834
174.3134002686 251.8598632812 151.9925994873
203.5033111572 216.9426879883 91.3379974365
192.8397521973 215.9600067139 95.5400009155
201.3442993164 240.4140777588 133.7823944092
190.1159667969 216.6287994385 122.2667999268
199.0616607666 252.6493530273 139.1404113770
200.1740722656 225.8828430176 134.2999877930
200.7014007568 222.9499969482 123.7987976074
201.6057586670 225.1059112549 129.9730072021
192.2247772217 255.6753082275 133.6009979248
198.7746582031 205.0723571777 122.5800018311
200.1164703369 239.8812408447 137.8600006104
201.5086059570 228.0256195068 84.5976028442
161.8347778320 243.0653228760 148.3509979248
200.1233062744 241.5826873779 138.5879974365
205.5767669678 239.2120056152 87.0446014404
158.0086059570 246.5556182861 142.8675994873
184.0655822754 260.4359130859 134.4689941406
203.4889678955 221.1692657471 91.4090042114
197.6519165039 210.6889953613 127.9479980469
159.4566802979 245.5800018311 146.0220031738
169.8689575195 252.2481842041 147.0970001221
205.1688232422 227.0740203857 129.5599975586
201.7255859375 212.9359130859 129.8190002441
185.4816589355 267.4693603516 129.0604095459
188.1399993896 264.1752319336 139.9973907471
197.3664703369 210.1312408447 109.8600006104
198.2174224854 216.5498657227 91.9599990845
211.5267639160 242.3420104980 86.5846023560
211.2943115234 240.7740631104 83.9723968506
186.6513977051 259.4800109863 133.9288024902
200.3114013672 237.3000030518 134.0288085938
220.8788299561 233.0640258789 96.4499969482
164.9531860352 243.6345825195 143.9779968262
201.2759552002 240.7687988281 85.1567993164
181.5057678223 263.7758789062 138.4029998779
163.6988220215 243.3340301514 142.8999938965
203.7988281250 227.1240234375 84.4899978638
184.8147888184 257.5153503418 133.5110015869
204.8321380615 208.5469360352 120.1032028198
156.4182586670 239.8372955322 149.8710021973
155.4489746094 249.4192657471 152.9290008545
167.5221405029 245.9369354248 154.5831909180
204.0627746582 215.4790039062 126.8361968994
200.9313964844 244.0399932861 134.6087951660
205.4372253418 229.2053527832 77.7500000000
159.9739990234 245.2722015381 138.8000030518
207.8047790527 237.2553253174 80.6910018921
198.2021942139 221.7798767090 129.4599914551
198.2846679688 231.0123443604 135.0599975586
199.1343078613 211.0940704346 112.8924026489
183.1608734131 265.3629455566 125.9400024414
168.0849914551 248.2569274902 146.7353973389
199.5359649658 229.9788055420 80.9568023682
222.4916839600 236.2773742676 93.1100006104
197.8099975586 221.1552276611 124.3774032593
210.6682739258 236.4233856201 84.7559967041
171.3855743408 245.4959106445 144.3390045166
184.8847808838 251.2353210449 134.5010070801
199.5039978027 224.4421997070 132.3399963379
199.3527832031 228.8890075684 137.2162017822
154.3286132812 240.1356201172 148.3076019287
195.8567657471 213.7120056152 123.0846023560
166.7682647705 248.2572937012 157.4210052490
156.9113922119 243.3000030518 147.7088012695
191.0936279297 215.1169738770 98.3496017456
166.0543060303 249.6140747070 153.2324066162
216.6182708740 236.4233856201 82.5559997559
161.4516906738 246.2373657227 139.3600006104
161.4784698486 248.0162811279 153.7297973633
184.4304656982 259.5769348145 131.5173950195
188.0818634033 265.5375366211 138.0719909668
155.9555816650 244.2959136963 151.3289947510
184.8592071533 258.2276000977 128.2781982422
201.1888275146 203.4640197754 122.1100006104
201.0133056641 247.4726867676 141.1280059814
192.0920562744 211.7880401611 109.3020019531
185.8826446533 257.6067810059 136.9729919434
209.9774169922 241.4798583984 84.7500000000
168.5116577148 255.2893524170 149.1604003906
204.6417694092 247.6368103027 140.9810028076
201.4832763672 222.2380981445 123.7440032959
184.2166748047 263.6600036621 131.9019927979
192.7633972168 208.8298645020 114.1026000977
181.6388244629 249.9040222168 133.6900024414
202.2097625732 237.8200073242 133.5299987793
196.1567077637 211.9597320557 115.0899963379
181.2474212646 256.3298645020 136.3200073242
175.5666809082 249.8099975586 140.8119964600
199.5136260986 214.4469757080 126.4696044922
194.2939910889 216.3522033691 119.0500030518
170.7386016846 250.0356140137 146.7976074219
160.1736450195 252.0878295898 159.1239929199
199.5151367188 222.4600067139 123.7929992676
199.3497924805 213.3857116699 129.0518035889
217.0063018799 235.3386993408 83.1050033569
199.2716827393 247.9373626709 135.3099975586
176.2486114502 252.0756225586 134.5975952148
202.7808685303 218.5229644775 91.6100006104
205.1343078613 242.8740692139 80.6623992920
205.8239898682 236.3321990967 80.8199996948
187.9038085938 263.4671936035 133.0811920166
202.5286102295 237.5756225586 83.9776000977
198.2021942139 221.7798767090 129.4599914551
193.1634674072 216.9630584717 115.1060028076
159.2086029053 246.8756256104 144.7875976562
185.5357666016 261.6058959961 126.5730056763
197.5297851562 217.6057128906 95.3518066406
183.6092681885 255.7291870117 134.0742034912
195.4714050293 213.7299957275 103.8787994385
176.2486114502 252.0756225586 134.5975952148
183.3159637451 260.7787780762 136.4168090820
199.3016815186 212.4473724365 99.3700027466
163.6988220215 243.3340301514 142.8999938965
205.2267150879 239.9497375488 135.6600036621
176.1736297607 253.7169799805 141.4895935059
184.0707092285 256.6666564941 135.9860076904
167.9066772461 248.4299926758 142.5019989014
195.7849884033 221.8469238281 128.3054046631
205.4767150879 220.5697326660 86.7200012207
188.8282775879 256.9033508301 134.5659942627
177.9399871826 248.5552368164 140.0273895264
156.1233978271 247.0898590088 150.8426055908
187.8172302246 262.7453613281 134.0800018311
211.2840728760 237.4428558350 88.9500045776
197.4092559814 244.2691955566 136.0442047119
155.7339935303 240.5422058105 143.6300048828
183.2506866455 262.7210083008 134.4302062988
158.4372253418 247.5153503418 151.9400024414
160.7433013916 242.9126892090 150.5780029297
182.6240692139 255.5028533936 138.0000000000
205.1688232422 227.0740203857 129.5599975586
181.8667602539 260.0120239258 127.8945999146
200.0498046875 219.0367431641 124.2200012207
187.3040771484 266.5928344727 139.5499877930
176.2552947998 247.5669250488 146.6739959717
189.3367156982 264.2397460938 130.6499938965
182.4067077637 256.5597229004 137.1600036621
208.0733032227 237.7426910400 85.2980041504
202.7697601318 245.1000061035 134.2200012207
189.5540771484 263.1828613281 131.4899902344
198.2116546631 217.7093505859 101.2903976440
175.2239990234 246.6921997070 147.1399993896
203.4327239990 210.1000976562 122.0890045166
199.7639617920 215.5899963379 88.4738006592
201.8016662598 216.0893554688 128.4203948975
170.9308624268 250.8229675293 146.0000000000
197.0821990967 208.6098632812 117.7199935913
179.9542999268 258.3140869141 130.8323974609
163.5651397705 253.2700042725 144.5830078125
203.8766784668 233.3600006104 79.2419967651
202.4631805420 229.7245788574 134.9279937744
168.6902923584 251.0398406982 148.3150024414
182.3708648682 252.3329772949 148.4799957275
179.9198150635 249.3067474365 132.0500030518
167.7874298096 249.7098541260 155.5400085449
207.6357574463 234.8159027100 90.8130035400
193.8663024902 213.4087066650 95.5350036621
175.9357604980 251.2859039307 134.1730041504
185.2172241211 251.6753540039 145.5800018311
187.7272338867 264.6553649902 132.8400115967
195.1367034912 218.7297363281 114.0899963379
187.7292175293 261.0576171875 133.0381927490
207.5207214355 237.8399963379 80.6625976562
185.1746673584 259.5223388672 131.4199981689
202.2152862549 204.8169250488 122.1240005493
193.1086120605 220.2356109619 125.9076004028
153.4839935303 244.1422119141 155.7799987793
196.8057556152 232.3859100342 83.6830062866
197.5099945068 212.8052368164 119.8374023438
204.5216827393 233.0573730469 85.5200042725
198.7982635498 232.4772949219 142.4410095215
166.2052917480 244.5869293213 155.9440002441
198.3849945068 244.7969207764 138.4953918457
171.8864746094 247.1712493896 146.0899963379
202.6208648682 241.7229766846 87.9500045776
196.2639617920 212.6999969482 116.4638061523
185.9340667725 266.5528564453 141.6199951172
202.1452941895 212.2569274902 128.8739929199
200.8843078613 212.0740661621 119.7723999023
200.7886047363 228.7656250000 83.5075988770
155.2239990234 243.8022003174 151.8200073242
191.7916564941 221.0593566895 122.8103942871
195.8282623291 231.8572998047 143.5810089111
163.4197540283 254.8099975586 147.4700012207
166.0072326660 255.8053588867 149.0100097656
200.4132995605 215.3826904297 101.0480041504
198.5965881348 219.4316864014 122.4958038330
188.7339630127 249.9900054932 135.2338104248
184.7846679688 261.1523437500 138.3699951172
202.3679199219 227.4176177979 130.8470001221
204.2843017578 230.5840759277 127.4824066162
207.9779205322 216.3076171875 90.1170043945
200.9686126709 219.3956146240 88.9076004028
205.2727355957 243.2001037598 83.8990020752
159.2892150879 246.2875823975 149.3081970215
214.7939605713 238.6999969482 81.8238067627
167.1483917236 251.2779541016 142.6959991455
202.3621368408 214.7069396973 122.3532028198
200.9197540283 218.3500061035 86.2299957275
159.5159606934 247.2088012695 157.5768127441
216.2751464844 237.0899963379 82.2929992676
190.1943054199 259.9540710449 134.1123962402
194.8808746338 212.8329772949 102.9000015259
217.3139495850 236.1000061035 91.0438003540
198.6149902344 249.4069213867 141.2653961182
203.2408599854 215.0129699707 86.2700042725
183.6506958008 259.7210083008 137.3901977539
153.7789459229 247.1558227539 157.1920013428
176.1688232422 246.0340270996 146.1600036621
192.4362945557 212.2187042236 96.7649993896
185.7167053223 267.6097412109 140.7799987793
220.4107208252 241.2566528320 94.0359954834
189.3236236572 253.6069793701 139.0596008301
199.2427825928 235.6190032959 138.7761993408
195.5316925049 218.9273681641 119.0800018311
199.7604675293 235.6969451904 137.5173950195
198.0025787354 233.6600036621 80.1580047607
184.4920501709 260.4103698730 131.9270019531
195.6332855225 216.8280944824 109.4440002441
200.6813964844 229.5000000000 127.3088073730
201.0967102051 218.4097290039 123.4499969482
203.7372283936 229.3453521729 80.2299957275
199.7672271729 212.7453613281 118.6099929810
203.3672332764 213.8553466797 101.3499984741
163.8713989258 248.5200042725 152.7788085938
197.7449951172 220.0769195557 103.6454010010
197.7092590332 236.9291992188 135.0142059326
179.6663055420 251.9387054443 129.5950012207
200.2959594727 241.0988006592 84.1268005371
190.3282623291 215.9873046875 112.8310012817
201.7839965820 240.0122070312 85.7300033569
215.5866851807 236.2299957275 84.6920013428
191.9197540283 210.7299957275 109.4700012207
185.8433990479 263.7198791504 142.6826019287
197.8546600342 214.7423553467 92.5199966431
186.3636169434 263.9669799805 140.2395935059
214.8520660400 235.2580413818 86.5120010376
203.5033111572 216.9426879883 91.3379974365
163.5988159180 246.2140197754 157.1900024414
168.5387420654 247.2160034180 144.0485992432
200.7927856445 222.6690063477 78.6661987305
199.7852935791 221.7469329834 130.1840057373
156.0572357178 247.4553527832 151.7600097656
153.0782775879 245.8633880615 153.0559997559
163.0183868408 251.3279571533 154.9360046387
199.7486114502 220.1656188965 94.6475982666
200.9616851807 209.6873626709 115.6999969482
184.3802947998 249.8298339844 147.7449951172
177.3267669678 256.3220214844 138.9946136475
205.8239898682 236.3321990967 80.8199996948
187.1288299561 260.0140380859 142.8999938965
180.9739990234 249.7722015381 132.2900085449
182.2082672119 251.8872985840 148.1510009766
198.2997589111 223.8500061035 123.6899948120
177.5614013672 251.6499938965 139.0388031006
202.7389373779 220.3558349609 79.3519973755
181.3536224365 258.8369750977 130.9995880127
206.3632812500 238.6081085205 135.3139953613
195.9791259766 216.4058685303 107.4940032959
169.4640655518 253.3728485107 150.2399902344
201.2299957275 214.1108551025 107.5100021362
207.2017669678 240.4868011475 88.0009994507
194.6797485352 214.8500061035 102.4799957275
197.7647857666 241.3753204346 136.9609985352
209.8288269043 236.1040191650 87.3499984741
206.5982818604 212.9333801270 86.3959960938
195.7834014893 221.0398712158 81.2225952148
207.5207214355 237.8399963379 80.6625976562
171.6100006104 250.3852386475 141.5873870850
217.9264678955 237.1412353516 89.5900039673
204.3198089600 236.3467407227 135.0299987793
199.5408630371 222.1729736328 85.7400054932
165.2172241211 252.2953491211 154.5500030518
196.1616821289 217.1973724365 113.5299987793
201.1198120117 210.2967529297 124.7500000000
199.3614044189 240.7100067139 134.0288085938
198.8038177490 254.6184692383 138.9913940430
166.0849914551 247.3269195557 147.9453887939
200.7939910889 210.2422027588 124.7900009155
199.9116821289 205.7273712158 112.3600006104
193.2397613525 253.5299987793 136.8600006104
185.8447875977 253.3653259277 133.5310058594
194.6382751465 211.2233734131 97.8159942627
204.0016937256 212.9373626709 102.1900024414
193.8508605957 217.7829742432 114.6500015259
188.8999938965 260.5408325195 128.6199951172
207.5749969482 219.8669281006 89.5354003906
219.1365814209 241.0816955566 89.6857986450
208.9599914551 239.8352355957 80.3074035645
193.5672302246 252.7953491211 134.8800048828
193.2346649170 215.0723571777 114.4499969482
205.5188293457 234.1540222168 139.0099945068
158.2214050293 243.5599975586 144.8787994385
204.5039978027 226.9421997070 128.1600036621
200.2782745361 218.2633819580 76.7859954834
196.0847778320 221.6053161621 130.7310028076
201.1382751465 204.6033782959 119.8559951782
185.7574310303 262.1498718262 141.7799987793
206.8318634033 237.9875183105 135.9819946289
190.4616851807 258.3973693848 134.5000000000
185.8027801514 253.2089996338 137.1862030029
158.2136230469 247.7169799805 140.5995941162
218.4767150879 240.2297363281 86.2099990845
204.1172332764 245.7753601074 134.5000000000
196.8533935547 248.1098632812 142.0326080322
162.4655761719 244.9759063721 155.8589935303
183.0014038086 265.0100097656 135.0588073730
163.6008605957 249.2729644775 146.4499969482
217.7052917480 236.6469268799 88.4739990234
207.6936187744 241.1069793701 83.8896026611
162.3989715576 246.0292663574 141.5889892578
175.3197784424 246.6057128906 141.5617980957
196.3840789795 212.7228546143 103.1800003052
206.7708740234 216.1229705811 90.1000061035
203.3972320557 221.3353576660 80.9699935913
197.1982727051 227.4633789062 138.2959899902
179.0049896240 255.3669281006 136.0653991699
164.0086059570 249.6356201172 147.4776000977
204.0555725098 213.6859130859 126.0690002441
198.7299957275 212.1852264404 105.3774032593
197.1982727051 227.4633789062 138.2959899902
194.0339508057 219.0700073242 101.1138000488
189.1774291992 263.4998779297 136.5700073242
217.6897583008 235.4400024414 82.1899948120
198.0534667969 212.5430603027 129.3759918213
200.4064636230 213.6812438965 100.3200073242
175.7617645264 256.1668090820 131.0110015869
195.5736236572 254.3069763184 137.2796020508
191.6979217529 219.5476226807 125.2870025635
168.3827819824 246.8090057373 147.8861999512
213.6499938965 241.8152313232 85.8174057007
222.7140655518 238.1628417969 94.7799987793
198.6597595215 220.6900024414 123.8499984741
197.1836547852 212.5978240967 116.0640029907
156.2967681885 248.0720062256 148.9246063232
168.7840728760 249.3228454590 147.3399963379
154.1540679932 245.5828552246 157.7399902344
162.6916656494 252.6293487549 159.2904052734
188.2897491455 251.0599975586 137.7799987793
196.9955749512 221.7859039307 132.6490020752
203.4625854492 238.3999938965 134.0780029297
194.9433898926 223.7298583984 133.0326080322
206.7708740234 216.1229705811 90.1000061035
201.8004760742 215.9069366455 100.4574050903
193.2346649170 215.0723571777 114.4499969482
158.5382537842 247.2872924805 143.6610107422
196.6602935791 211.5198364258 100.8549957275
202.0527343750 237.1201019287 84.7789993286
201.8600006104 228.7752380371 135.1174011230
197.3227844238 254.8190002441 142.3061981201
203.5727386475 236.1501007080 86.0090026855
222.0716857910 238.9973754883 83.7500000000
156.9113922119 243.3000030518 147.7088012695
194.6197814941 222.2357025146 131.8818054199
211.2788238525 236.1340332031 88.3899993896
165.3586120605 248.2956237793 157.1876068115
194.0282745361 209.6533813477 108.5960006714
195.7082824707 213.6533813477 103.1359939575
166.0543060303 249.6140747070 153.2324066162
192.8491363525 217.7658691406 126.2040023804
192.7708740234 219.9929656982 124.7100067139
221.1343078613 240.4340667725 90.4924011230
204.6755828857 228.9259033203 129.9589996338
200.9138031006 216.7872009277 125.4112014771
192.5420684814 216.3480529785 125.1119995117
165.5389709473 248.2592620850 153.0289916992
192.8266754150 212.7599945068 107.4820022583
195.7606964111 224.7510375977 132.5402069092
203.4879150391 222.3376159668 127.8870010376
158.7016601562 247.8493499756 156.1304016113
199.4416961670 250.4673767090 136.2100067139
204.7516937256 244.8573760986 135.3399963379
198.7746582031 205.0723571777 122.5800018311
204.0674285889 239.7198638916 134.8200073242
192.1167144775 215.6597290039 97.7699966431
203.1267700195 243.3120117188 80.4845962524
169.1240692139 247.0828552246 157.1999969482
203.9108734131 213.7529754639 87.2800064087
196.2099914551 210.8408508301 102.2099990845
183.4897613525 265.0199890137 123.6999969482
177.0421447754 247.4569396973 145.2031860352
195.5316925049 218.9273681641 119.0800018311
202.4216918945 218.2673645020 127.0500030518
189.9459686279 253.7388000488 137.7268066406
202.8355865479 213.1559143066 99.7989959717
178.6388244629 249.2540283203 144.1699981689
163.6674194336 252.6798553467 155.1100006104
202.7207183838 221.7066497803 87.0459976196
184.8372344971 265.6953430176 123.9799957275
198.8013916016 215.9199981689 90.9988021851
182.0859680176 263.7987976074 137.3268127441
196.2233886719 256.7098693848 140.3326110840
178.6817626953 258.6467895508 131.1210021973
202.3932800293 208.2680969238 118.1039962769
207.3186187744 241.0617675781 89.1860046387
199.2974243164 227.3898620605 82.2900009155
183.2506866455 262.7210083008 134.4302062988
201.1336212158 216.1669769287 124.9796066284
181.0359649658 250.3688049316 145.8268127441
196.5839996338 227.5722045898 138.1900024414
195.8774261475 229.8398590088 138.4700012207
193.4982757568 214.8933868408 122.5459976196
199.2446594238 243.4923553467 138.3999938965
200.8238067627 238.2872009277 138.0811920166
199.6797485352 220.0700073242 89.8799972534
198.6634674072 206.1430511475 123.0960006714
201.9027862549 217.3289947510 100.5161972046
165.4494018555 252.8125305176 156.1040039062
201.7951354980 242.2100067139 80.7929992676
179.9198150635 249.3067474365 132.0500030518
200.7527313232 236.1800994873 82.9290008545
197.5749969482 214.4669189453 118.7654037476
203.0800018311 215.5552368164 97.4973983765
169.4840698242 251.5128479004 146.7699890137
158.9743041992 241.9740753174 145.1623992920
199.9116821289 205.7273712158 112.3600006104
214.7939605713 238.6999969482 81.8238067627
187.8952941895 261.3469238281 132.1739959717
196.0538024902 218.5971984863 126.7111968994
193.2397613525 253.5299987793 136.8600006104
164.0043029785 245.9540710449 141.5523986816
176.4582672119 256.7873229980 133.9410095215
199.9374237061 218.1798553467 122.6100006104
185.8027801514 253.2089996338 137.1862030029
164.7606964111 247.0310363770 147.8502044678
198.8892669678 224.5691986084 80.4041976929
207.3434753418 238.8130493164 92.4160003662
159.1936492920 246.9578247070 147.1139984131
205.8072357178 217.4553527832 84.2500000000
202.5440673828 232.4528503418 141.2200012207
161.4255828857 247.0059051514 161.4989929199
197.8546600342 214.7423553467 92.5199966431
201.2834014893 207.1298675537 124.3725967407
188.2834014893 250.4598693848 138.3026123047
167.4647827148 244.8353271484 145.2010040283
204.4474182129 230.9798583984 79.2000045776
197.4667663574 230.0220184326 134.9146118164
218.1539611816 240.2100067139 86.3538055420
206.4743041992 238.9940643311 80.7323989868
177.8197479248 250.5899963379 139.5800018311
198.8072357178 214.8253479004 96.7199935913
177.2286071777 253.3556213379 136.1976013184
207.3716888428 236.7173767090 136.5000000000
205.4589385986 238.7958221436 138.3619995117
202.6734771729 247.5630493164 139.2859954834
156.0482635498 242.0272979736 147.0210113525
179.4552917480 249.9069213867 142.2140045166
163.3827819824 250.1390075684 163.1661987305
222.0738067627 237.9871978760 95.2411956787
205.3052825928 241.6369323730 141.2340087891
198.5316925049 252.2073669434 136.7700042725
210.5816955566 234.9073638916 89.8099975586
164.7382659912 250.7572937012 157.0610046387
191.5452880859 250.1469268799 140.8740081787
201.7352905273 210.9869232178 128.2839965820
203.6516571045 231.5793609619 129.7504119873
180.6779174805 257.4476013184 133.5569915771
203.2339935303 215.7022094727 86.5100021362
201.6982727051 232.8533782959 84.2360000610
153.3557586670 237.5059051514 147.2429962158
165.2243041992 247.1940765381 143.2324066162
184.3802947998 249.8298339844 147.7449951172
191.1047821045 211.6853179932 98.4510040283
199.8140716553 251.5628509521 139.5599975586
197.8213958740 227.4499969482 128.2687988281
220.5016632080 241.4293518066 92.7603988647
166.3216857910 245.0773773193 154.4900054932
198.4507141113 229.6466522217 131.9060058594
202.7772216797 243.0553588867 80.8799972534
205.3472290039 228.8253479004 127.8799972534
187.3740692139 264.4028625488 132.3399963379
197.9947814941 245.9853210449 139.7310028076
193.5997924805 208.0457153320 110.8418045044
217.6436309814 240.4469757080 82.4796066284
196.4947814941 223.5753173828 129.1609954834
200.9598083496 205.0667419434 118.5799942017
154.1751403809 238.5899963379 145.2129974365
160.9416961670 239.8073730469 149.1600036621
206.0886077881 238.3556213379 90.0176010132
207.2916564941 219.3493499756 88.8203964233
176.1374206543 255.3798675537 130.2400054932
160.6933898926 245.1898651123 150.6526031494
177.6121368408 249.0369262695 149.0431976318
199.2197570801 246.4700012207 135.3800048828
151.7819213867 244.9289855957 156.0780029297
190.2408599854 252.2429656982 136.4099884033
180.9739990234 249.7722015381 132.2900085449
217.2036437988 241.2478179932 89.8940048218
206.5688171387 244.5040283203 143.1299896240
192.5220642090 209.8280487061 112.2819976807
192.3127288818 221.1401062012 120.4690017700
163.7037963867 248.6972045898 158.7911987305
202.7883911133 247.1479644775 134.9059906006
204.4739990234 216.1422119141 88.6600036621
203.7416534424 244.0693511963 85.6103973389
198.0936279297 232.0369873047 138.9695892334
200.5088195801 204.7440338135 123.1399993896
197.8099975586 221.1552276611 124.3774032593
196.9955749512 221.7859039307 132.6490020752
158.1367034912 248.0797271729 155.8800048828
188.8616943359 257.8773498535 140.5299987793
195.8374176025 216.1598663330 97.7700042725
180.4820556641 251.3080444336 135.6720123291
216.1436462402 239.9178161621 88.1340026855
185.3939971924 254.3422088623 130.4900054932
161.4327850342 248.7989959717 162.2661895752
200.2039489746 242.6699981689 82.3438034058
203.2042999268 217.1740722656 91.8224029541
202.6189727783 236.2292633057 82.7490005493
173.2339935303 245.9022064209 143.3600006104
202.0127258301 217.3800964355 106.7789993286
214.3482818604 235.6733856201 85.3559951782
199.8267059326 239.3097381592 137.4499969482
200.9702911377 230.4198303223 142.0350036621
191.7846679688 211.5823516846 111.4799957275
165.1282653809 246.9873046875 156.7910003662
172.8216552734 251.5693511963 145.8904113770
169.4867706299 250.9120178223 142.3545989990
216.8633880615 236.5698699951 94.1125946045
182.9216613770 256.6193542480 136.6804046631
177.4336242676 254.5169830322 133.9295959473
200.9146575928 231.8823547363 82.9300003052
178.9888153076 249.5140228271 141.5399932861
191.6640014648 213.1622009277 96.6500015259
151.7286071777 248.3756256104 155.7776031494
175.6308746338 252.6729736328 142.6799926758
202.0997924805 218.5557098389 84.6018066406
189.6397857666 212.3157043457 99.6018066406
196.8582763672 203.9033813477 114.2959976196
218.2957611084 233.6859130859 96.6730041504
201.2099914551 203.7308502197 122.6200027466
210.6616668701 241.7693481445 86.2403945923
196.2233886719 256.7098693848 140.3326110840
187.6921997070 259.6598815918 129.2099914551
198.9897918701 214.5657043457 90.3917999268
203.3952941895 212.4769287109 105.2440032959
205.8072357178 217.4553527832 84.2500000000
186.6572265625 265.5153503418 133.9000091553
201.0407104492 212.3666534424 119.7760009766
193.2139587402 208.3600006104 111.0338058472
167.4892120361 245.2275848389 147.1781921387
163.3052825928 243.0469207764 147.3840026855
160.3088226318 243.2840270996 150.7799987793
197.6567687988 223.9520111084 80.8545989990
211.2943115234 240.7740631104 83.9723968506
203.8802947998 232.7198333740 86.4150009155
185.3437957764 256.0772094727 133.4111938477
191.5538024902 252.2671966553 141.7812042236
188.2897491455 251.0599975586 137.7799987793
202.2052917480 235.5569305420 137.2040100098
198.1547851562 245.6753234863 137.2010040283
175.3946685791 251.5823516846 141.8399963379
202.4052886963 213.1969299316 106.0139999390
194.4546661377 215.1823425293 100.0299987793
219.8738098145 239.1071929932 85.2012023926
158.3733978271 248.2898712158 155.5326080322
177.1013946533 255.1199951172 129.9288024902
164.5036315918 255.6769866943 147.8096008301
203.1267700195 243.3120117188 80.4845962524
221.0139923096 235.3122100830 92.5500030518
193.0787506104 208.2760009766 112.2386016846
199.4636230469 215.6869812012 101.7296066284
212.9949951172 240.4869232178 89.1254043579
193.4821929932 211.1898651123 108.2099990845
167.3002929688 244.9298400879 156.3849945068
197.3672332764 219.1753540039 122.9399948120
154.1546630859 237.2323455811 147.9299926758
198.9316558838 217.7193603516 99.9403991699
200.8282775879 226.3433837891 128.1559906006
220.0540771484 240.6928558350 84.9300003052
185.8904724121 259.5569152832 137.8073883057
184.4920501709 260.4103698730 131.9270019531
176.8191223145 253.4558563232 144.2940063477
187.7272338867 264.6553649902 132.8400115967
190.6659698486 216.9387969971 120.1368026733
199.1136169434 236.3869781494 82.9696044922
204.7440032959 212.2022094727 85.6000061035
199.7604675293 235.6969451904 137.5173950195
207.6357574463 234.8159027100 90.8130035400
198.2797546387 212.6799926758 126.7399978638
198.1086120605 219.8756256104 82.8776016235
190.1057586670 218.1859130859 120.0630035400
188.2016601562 261.5693664551 136.6504058838
172.8216552734 251.5693511963 145.8904113770
198.6149902344 249.4069213867 141.2653961182
202.7843017578 221.7140655518 80.1724014282
196.6836242676 225.6669769287 127.1696014404
163.2664642334 244.4312438965 148.0899963379
220.0540771484 240.6928558350 84.9300003052
183.1608734131 265.3629455566 125.9400024414
197.8421325684 213.0369262695 109.9232025146
179.6086273193 255.9517669678 129.5059967041
160.1572265625 248.3553466797 139.5900115967
206.0488281250 235.9940338135 85.0299987793
159.9046630859 242.3923492432 142.2799987793
166.3363037109 244.7387084961 154.3549957275
200.5952911377 209.2369232178 122.4940032959
165.9221343994 245.6969299316 143.1031951904
193.8036193848 250.4669799805 132.8795928955
200.1233062744 241.5826873779 138.5879974365
196.1436462402 217.3378295898 105.6740036011
211.2840728760 237.4428558350 88.9500045776
162.0449981689 249.0169219971 149.5553894043
208.7836303711 241.3969726562 84.8796005249
192.8449859619 259.0969238281 135.1353912354
155.8879241943 246.7976226807 157.3069915771
195.8007202148 218.5966491699 104.5359954834
194.3508605957 215.1929779053 104.7200012207
206.2989349365 228.2458343506 84.9420013428
218.1725921631 237.3300018311 80.9080047607
154.7299957275 244.3708496094 157.0299987793
216.9746551514 237.4423522949 91.7399978638
190.8727874756 252.5989990234 142.5061950684
194.3920593262 221.4280395508 126.9720001221
195.7082824707 213.6533813477 103.1359939575
190.0046539307 251.1523437500 135.5699920654
208.2740783691 216.0128479004 90.3800048828
176.5267028809 253.5997314453 133.1999969482
164.0851440430 254.7500000000 147.2830047607
192.0536193848 213.0869750977 110.3196029663
179.7972259521 250.9253540039 130.7799987793
200.4547882080 213.9353179932 89.2409973145
218.6236267090 241.0569763184 91.3996047974
196.3698120117 203.2467498779 111.6399993896
208.0708618164 240.6129760742 91.1100006104
165.0989685059 250.5592651367 153.6490020752
196.7791290283 228.4158630371 132.6340026855
206.5982818604 212.9333801270 86.3959960938
183.3316955566 252.7573699951 133.4900054932
204.0527801514 210.2489929199 121.8061981201
179.1313934326 255.8600006104 129.2187957764
183.5074310303 267.0998840332 128.5800018311
218.9782714844 233.6233825684 94.7859954834
184.3316650391 267.2593688965 140.0104064941
199.8267059326 239.3097381592 137.4499969482
198.3249969482 244.2269287109 136.0053863525
158.5552825928 243.2869262695 155.3339996338
181.0337982178 256.2372131348 133.3011932373
203.1888275146 212.1040191650 103.0299987793
202.8767089844 244.1197357178 87.2200012207
195.3300018311 213.8508453369 112.3000030518
184.6963043213 262.6286926270 124.1350021362
201.1040039062 212.8622131348 92.6100006104
164.3308715820 255.4729766846 150.9700012207
164.2136230469 250.7969818115 145.2095947266
170.1189575195 247.4081726074 155.7969970703
197.6546630859 229.5823516846 130.6399993896
193.1982727051 209.4133758545 109.8659973145
196.5597534180 250.2500000000 131.4900054932
199.5366821289 234.5200042725 133.8820037842
194.3540649414 206.0728454590 115.6100006104
191.3827362061 221.0801086426 124.0690002441
202.5659637451 235.9288024902 138.4368133545
169.9391326904 249.0158691406 146.4539947510
220.4799957275 238.9052276611 87.8874053955
192.9986267090 217.4817657471 110.3960037231
190.9057617188 216.2459106445 121.1330032349
187.7246551514 250.3123474121 139.1799926758
186.1839904785 257.8922119141 128.5500030518
190.1367645264 214.7920074463 98.8346023560
183.2039489746 258.5700073242 135.0738067627
205.3197479248 237.5399932861 80.2599945068
171.8933105469 248.8726959229 146.8179931641
184.2046661377 261.8223571777 129.7700042725
202.8252868652 242.2969207764 137.7839965820
213.7974243164 238.5398559570 84.9900054932
196.9040679932 208.7628479004 117.2099990845
154.3908691406 238.3229675293 148.7699890137
204.2913970947 237.8999938965 80.2788009644
194.4774169922 215.9098663330 103.3199996948
201.8716888428 241.1873626709 135.1199951172
199.5725860596 218.8200073242 124.0979995728
194.2116546631 215.1493530273 100.3603973389
199.4433135986 217.2826843262 124.8880004883
206.7489318848 228.9658355713 83.8819961548
194.7752838135 252.0769348145 140.3040008545
199.6221313477 207.4569396973 113.8832015991
194.0797576904 214.3500061035 107.1599960327
204.5388183594 234.8740234375 140.2899932861
194.4697570801 216.4299926758 120.8600006104
202.7174224854 238.1198577881 81.0100021362
210.1579132080 236.2376098633 92.4370040894
187.8692169189 254.6875915527 134.2982025146
185.7955780029 251.4159088135 136.4190063477
200.3640747070 224.3028564453 130.2999877930
187.3846588135 257.6223449707 138.4700012207
195.2643127441 256.4440917969 137.5523986816
202.5440673828 232.4528503418 141.2200012207
178.9888153076 249.5140228271 141.5399932861
180.9288177490 250.9140319824 137.7099914551
218.8389739990 240.2192687988 81.8990020752
206.4743041992 238.9940643311 80.7323989868
185.9189758301 265.3592834473 123.7290039062
176.4288177490 247.2540283203 151.7599945068
164.3397521973 245.3200073242 153.3700103760
201.1021423340 223.0969390869 128.8231964111
164.0043029785 245.9540710449 141.5523986816
199.3059692383 220.4488067627 84.1968002319
206.6667175293 240.7697296143 85.4499969482
221.0452880859 236.5769348145 95.2239990234
199.5039978027 224.4421997070 132.3399963379
185.8027801514 253.2089996338 137.1862030029
185.9189758301 265.3592834473 123.7290039062
160.8689575195 240.7581787109 147.3470001221
160.3140716553 244.5928497314 151.3399963379
168.8552856445 251.4569244385 149.6139984131
198.4507141113 229.6466522217 131.9060058594
153.0746612549 237.7323455811 146.5800018311
201.3343048096 216.1940765381 120.9924011230
198.1691284180 241.7258605957 138.2239990234
198.6708679199 225.9929656982 134.0199890137
189.1774291992 263.4998779297 136.5700073242
196.6236267090 211.7169799805 113.7996063232
184.6620635986 252.3503875732 133.6569976807
165.1336517334 251.7778167725 143.4239959717
200.4949951172 224.1169281006 77.5154037476
202.5898132324 239.8067474365 85.1999969482
160.0021362305 240.4869384766 146.5231933594
155.2113952637 241.1999969482 143.1387939453
204.6699981689 214.8952331543 103.0274047852
197.4986114502 214.6756134033 124.5576019287
204.3572235107 223.0153503418 125.1800003052
201.4739990234 213.4922027588 91.2000045776
166.1532745361 253.6880950928 143.7539978027
203.1727294922 223.8701019287 126.6689987183
199.9127807617 218.9490051270 96.8861999512
199.3527832031 228.8890075684 137.2162017822
195.0143127441 217.1840667725 110.6923980713
179.0157623291 251.7859039307 146.4130096436
153.8116607666 249.9093627930 154.8704071045
160.7364654541 241.2112426758 149.8500061035
199.7952880859 224.2469329834 133.4340057373
175.0746612549 254.5123443604 132.1399993896
198.2174224854 216.5498657227 91.9599990845
166.5133056641 248.3326873779 148.4580078125
185.3216857910 250.8673706055 142.4300079346
164.5036315918 255.6769866943 147.8096008301
159.7020568848 249.7380523682 159.8520050049
198.4231872559 211.2145843506 108.7679977417
173.3636474609 251.4678192139 144.2439880371
192.2840728760 218.5928497314 126.4599990845
203.7772216797 216.4353485107 92.5999984741
159.8416595459 245.8893585205 149.9604034424
209.1040039062 233.9421997070 89.2500000000
198.4040679932 231.9228515625 144.1299896240
216.4082641602 239.7373046875 84.7409973145
194.6782836914 215.3133850098 121.6559982300
183.8452911377 249.8369293213 146.7340087891
197.0821990967 208.6098632812 117.7199935913
179.0037994385 255.4971923828 134.0111999512
206.7399902344 226.7408599854 82.9300003052
200.4788208008 215.3340301514 107.9300003052
202.6734771729 247.5630493164 139.2859954834
162.4516906738 242.8973693848 142.0000000000
188.8531951904 263.2445678711 136.2879943848
196.6407165527 211.4966583252 113.3359985352
190.8857574463 212.8859100342 97.9830017090
202.9227294922 222.0601043701 93.4390029907
207.5749969482 219.8669281006 89.5354003906
192.1640014648 249.2922058105 134.6000061035
201.0064697266 245.7712402344 140.4000091553
194.1367034912 207.1297302246 114.7699966431
197.0918579102 215.9675292969 113.2020034790
198.8366851807 243.9400024414 134.6920013428
186.7416839600 266.0773620605 140.2200012207
194.3540649414 206.0728454590 115.6100006104
169.1443023682 254.2940673828 146.8923950195
202.7821350098 215.9269409180 95.8631973267
196.0443115234 218.3640747070 121.2024002075
169.4588165283 252.0640258789 149.6799926758
203.3008728027 242.7029724121 141.3699951172
169.4867706299 250.9120178223 142.3545989990
160.3140716553 244.5928497314 151.3399963379
198.8366851807 243.9400024414 134.6920013428
153.4094085693 248.9525299072 155.7640075684
187.3959655762 256.4087829590 136.7468109131
202.8427886963 214.9490051270 100.5661926270
159.8686065674 250.5156250000 158.9776000977
158.6498107910 238.0667419434 147.3199920654
206.7643127441 241.1840667725 81.4524002075
206.7121429443 225.8469390869 81.1131973267
199.3046569824 221.0823516846 84.9000015259
179.0037994385 255.4971923828 134.0111999512
180.6302947998 252.1298370361 131.6250000000
181.5682830811 250.3533782959 144.2760009766
155.9436187744 247.5569763184 152.2395935059
200.4132995605 215.3826904297 101.0480041504
201.2099914551 203.7308502197 122.6200027466
205.3472290039 228.8253479004 127.8799972534
198.3086242676 231.6617736816 129.3259887695
210.6067047119 237.3997344971 91.3799972534
170.1189575195 247.4081726074 155.7969970703
183.1482543945 265.6873168945 128.5610046387
202.8886260986 248.7817687988 136.9059906006
211.0318603516 238.8475189209 89.6620025635
198.0534667969 212.5430603027 129.3759918213
190.5689392090 262.5158386230 140.0919952393
195.1714019775 216.0599975586 98.7888031006
158.1988220215 241.2840270996 149.9599914551
203.0821380615 230.3669281006 137.4931945801
174.5267028809 250.1597290039 151.3300018311
200.1307067871 216.7566528320 99.9560012817
205.1802825928 225.3498382568 83.5849990845
205.8955841064 232.2559051514 83.9089965820
198.1752929688 211.7969207764 100.7940063477
196.4720611572 226.9980468750 131.5420074463
202.7292175293 227.5175933838 136.2682037354
197.0027770996 223.5789947510 133.4161987305
211.7452850342 236.6369323730 87.0240020752
188.8038024902 260.2471923828 143.2812042236
190.5697479248 251.8999938965 134.1699981689
198.1086120605 219.8756256104 82.8776016235
205.8389739990 242.3092651367 81.8690032959
198.5408630371 238.3629760742 138.0099945068
190.3355865479 248.5159149170 137.9190063477
202.8786010742 243.9356231689 141.6876068115
205.2989501953 225.8381805420 129.5670013428
204.2840728760 218.4128417969 91.8899993896
197.8300018311 246.5908508301 136.3899993896
170.9308624268 250.8229675293 146.0000000000
200.8267059326 223.1197357178 85.1800003052
197.9746551514 217.6223449707 81.6699981689
197.9247894287 233.1053161621 133.6309967041
184.6389770508 252.3692626953 145.3089904785
197.9297485352 205.9700012207 111.2399978638
158.5288238525 241.9940338135 151.5099945068
174.2536315918 252.5669860840 148.8695983887
196.1067047119 217.2897338867 113.6399993896
173.8988189697 246.0340270996 144.7599945068
199.5366821289 234.5200042725 133.8820037842
204.2282714844 241.4233856201 138.9660034180
206.0689392090 237.8558349609 139.1219940186
184.5088195801 250.0340270996 143.2700042725
200.9686126709 219.3956146240 88.9076004028
197.5918579102 212.2575225830 100.7819976807
188.2839965820 255.8121948242 135.8700103760
174.3936309814 252.9069824219 146.4496002197
189.5989532471 262.6882019043 128.3769989014
201.4739990234 213.4922027588 91.2000045776
219.7208709717 235.5629730225 98.0699996948
201.3655853271 214.1159057617 91.1589965820
156.0482635498 242.0272979736 147.0210113525
169.7839508057 246.9700012207 141.6538085938
199.2964782715 209.5712432861 123.1700057983
191.4117584229 215.5068054199 97.1709976196
207.3538208008 234.2684783936 81.5613937378
203.4721374512 212.9769287109 123.5232009888
198.0427856445 218.6289978027 104.7961959839
221.9889526367 234.4181823730 96.2669982910
170.4547882080 247.8053283691 141.9709930420
195.3597869873 211.2357025146 123.8518066406
201.1699981689 224.6552276611 78.4174041748
176.6262969971 249.9687042236 131.2050018311
199.4582824707 217.3633880615 80.1559982300
184.2582702637 253.7433776855 130.2359924316
198.4336242676 223.2069854736 77.0895996094
192.0155792236 211.8659057617 100.3690032959
181.4508666992 256.9729614258 133.5899963379
199.0132751465 206.9281005859 111.5540008545
192.6582641602 215.6573028564 97.9710006714
196.6998138428 246.3667449951 134.0099945068
187.4772338867 267.0353393555 137.3099975586
193.0716552734 257.4793701172 139.5304107666
198.0908660889 215.8329772949 93.3600006104
185.9700012207 260.0952453613 133.1273956299
206.8367614746 240.3620147705 81.0746002197
180.8098144531 252.0967407227 129.0299987793
200.6349945068 225.4969177246 80.3354034424
203.3518676758 231.3175201416 139.8320007324
182.6736297607 266.7269897461 136.4196014404
170.4547882080 247.8053283691 141.9709930420
203.3952941895 212.4769287109 105.2440032959
182.0997619629 263.7500000000 138.6300048828
197.4597625732 214.1499938965 96.4399948120
208.0708618164 240.6129760742 91.1100006104
176.7016906738 247.6573638916 147.6999969482
198.7620544434 233.5503997803 134.5970001221
160.7339630127 247.2500000000 147.2537994385
195.1646575928 207.7823486328 116.0899963379
185.9700012207 260.0952453613 133.1273956299
159.8006896973 250.2910308838 162.4302062988
197.4449920654 214.0269165039 124.2354049683
210.6139984131 236.0022125244 86.9900054932
207.3516845703 246.8473663330 141.3200073242
197.6927337646 233.2301025391 142.7689971924
159.2674255371 247.5398559570 139.0800018311
188.3089752197 263.6692810059 124.9490051270
200.7420654297 219.0580444336 86.6819992065
204.4186096191 215.7956237793 87.9576034546
206.5337982178 239.5372009277 86.3012008667
153.9497528076 244.7700042725 153.0800018311
163.9997863770 244.5357055664 147.5617980957
179.6652832031 255.4769287109 133.5540008545
169.2467041016 254.4297332764 149.3999938965
217.2459564209 234.3688049316 96.1467971802
214.6907196045 240.6666564941 87.3059997559
199.6797485352 220.0700073242 89.8799972534
198.0059661865 236.6988067627 136.2667999268
206.0540771484 237.3028564453 85.5900039673
199.4297790527 241.6457061768 84.2618026733
221.3492126465 237.6475830078 89.0382003784
198.2021942139 221.7798767090 129.4599914551
196.2640686035 218.4828491211 126.8600006104
176.5686035156 255.6756134033 133.5576019287
177.9321441650 250.7969360352 146.9031982422
200.0286102295 225.3956146240 83.7376022339
196.6059570312 226.2388000488 132.8168029785
209.6446685791 236.9123535156 85.2099990845
158.3540649414 247.0228424072 156.7200012207
206.7459564209 235.7187957764 90.4667968750
195.5125885010 205.3000030518 110.6880035400
197.8427886963 220.8890075684 81.6061935425
158.7016601562 247.8493499756 156.1304016113
221.0467071533 240.5297393799 84.3099975586
201.8188171387 232.8040313721 87.7899932861
200.7340698242 233.8728485107 138.6599884033
162.8740692139 244.0728454590 148.0399932861
204.0416870117 220.1073760986 91.7200012207
173.0046539307 248.1223449707 151.0500030518
205.0408630371 247.4329681396 142.4400024414
169.7639617920 249.4600067139 141.2037963867
211.8039550781 240.8899993896 85.4338073730
220.4632873535 238.4781036377 81.3840026855
206.1088256836 227.0740203857 84.5199966431
199.2982788086 232.0233764648 83.2259979248
181.5346679688 263.0023498535 140.0299987793
168.9479217529 248.0976104736 157.8269958496
200.7420654297 219.0580444336 86.6819992065
195.4127349854 215.4401092529 98.2490005493
158.5467681885 249.2720184326 153.6146087646
208.0733032227 237.7426910400 85.2980041504
156.8308715820 245.5929718018 157.3300018311
195.1916656494 221.7693481445 125.0003967285
207.3897857666 235.5757141113 82.1818008423
183.3808746338 266.3829650879 129.9799957275
189.2440643311 261.8028564453 128.6900024414
207.7416839600 229.2273712158 81.7600021362
192.8288269043 249.4240264893 136.0000000000
190.3355865479 248.5159149170 137.9190063477
196.5639953613 247.3622131348 137.4300079346
169.9316864014 246.6073760986 155.8000030518
203.1140747070 225.8028564453 131.2699890137
176.3727874756 251.7089996338 152.3761901855
197.6146545410 229.5923461914 137.0699920654
161.4836425781 247.2078247070 146.6339874268
194.2492065430 256.9975891113 134.3681945801
206.1316680908 242.1793518066 83.7203979492
167.6608734131 248.9929656982 156.9400024414
197.6499938965 226.1552276611 128.7773895264
159.3733978271 248.9498596191 161.8825988770
198.5902862549 204.8898315430 115.4250030518
184.3739929199 249.7922058105 145.8600006104
199.4921417236 213.1469268799 99.4332046509
170.9436187744 251.1969757080 144.5296020508
182.1439514160 258.5599975586 126.7438049316
192.2021942139 253.9898681641 135.4100036621
192.4717559814 216.5268096924 109.5609970093
167.8343048096 253.7540740967 145.1524047852
205.1827850342 225.3489990234 82.9861984253
201.4367065430 218.5097351074 96.8300018311
192.4717559814 216.5268096924 109.5609970093
169.7839508057 246.9700012207 141.6538085938
203.7846679688 234.4823455811 138.4499969482
196.8597869873 234.2757110596 137.2418060303
209.7655792236 235.1259155273 82.9489974976
202.0552825928 213.3069305420 93.9739990234
215.9791259766 238.9858551025 89.9540023804
195.9567718506 222.0220184326 79.3045959473
151.4386291504 248.5617675781 154.3359985352
164.3767089844 256.0997314453 149.1499938965
154.3539581299 245.7700042725 148.6437988281
186.0621337891 254.0569305420 131.9331970215
202.1013946533 229.4900054932 127.0288085938
199.3202819824 231.9098358154 84.4950027466
203.7117614746 248.7368011475 138.1410064697
198.9346618652 225.5823516846 82.8499984741
191.9408721924 253.6029663086 141.9799957275
185.8447875977 253.3653259277 133.5310058594
203.5739593506 225.0299987793 79.5338058472
217.0986175537 239.6217803955 94.9460067749
198.6436309814 220.0469818115 93.6196060181
205.8672332764 219.9553527832 85.3199996948
169.1443023682 254.2940673828 146.8923950195
185.0388183594 249.9240264893 147.2599945068
206.6213989258 237.8000030518 86.3888015747
191.0739898682 250.6921997070 134.7299957275
194.0139923096 209.5222015381 108.3899993896
