227.1242104253 79.1054837490 254.8350747516
204.6537653783 127.0335242602 245.8419173698
201.4724155396 126.6960759157 227.8236619510
214.3769279659 150.5538011595 206.7513939383
224.8186179786 139.5478855952 215.7019882379
218.9993178830 82.3723739788 261.1740185795
199.1922778986 130.9753851487 230.9804328473
198.7836854791 114.2548589517 226.0557285103
199.0999175347 116.8552023335 226.6382876201
209.6251712478 131.2849565930 224.2063310826
207.7208716006 129.4580781997 236.4658133953
209.9222139833 130.6974830740 221.5449820184
225.8312284736 72.7518787093 237.1545685567
215.3016087542 75.0849016416 258.4237463793
214.1277878932 90.7072410200 218.1004305262
225.8562146109 78.8361569073 259.5776063944
210.8453235068 124.7438141703 234.4696191764
213.2585936349 89.7017557696 210.2795538375
222.5245247943 136.8490907547 216.7624031577
214.3229272007 69.7104211508 262.9204259486
229.1931947157 80.4147657746 230.7397224117
202.9342750497 127.2235766841 244.2191029572
229.4201956856 86.1352362623 223.0066444036
222.0637986703 150.9518321082 208.3513203423
203.6655897083 126.9525280853 240.9051598636
209.2709918197 130.3216378836 225.9834403760
219.8849779104 90.1446924109 218.4325625696
197.6889113971 115.8931700080 231.7674528728
202.8230751779 128.4464322479 241.4743633966
210.9459280347 69.0221203474 264.6310453753
207.0658507226 127.2019207975 235.4764290223
232.0928532746 140.8396624836 213.1926893192
215.2834335545 127.1645607197 236.2885663688
219.3978956908 84.9289232608 260.0548909467
201.7946908215 115.0429210679 233.9622277528
201.0008824941 103.3731745211 221.1424513158
231.1229343997 78.7028795340 259.3045168972
219.2315930032 90.6417394626 221.1713645645
225.3753605373 150.8760109012 213.9963184368
206.8661646461 133.2330409974 229.4079311041
227.5688224658 85.3851794410 221.1817507965
202.1568190562 110.8444292142 225.7049635299
214.0343710201 89.2148667701 213.3298814667
211.6617895149 126.2219850519 239.9160577598
198.4148578164 104.2674736150 216.0411239172
200.1614011349 106.8268522878 218.3116632388
198.6825487240 120.0268349608 232.6215851698
217.6333701751 145.9977398998 222.0167257044
225.5404015723 142.6949922010 217.7057868003
225.7618525243 69.2970478662 244.7014841188
236.7247653413 66.0544549801 249.9507266739
213.6423114260 91.6964661035 215.3605518626
231.6790639509 70.9630959102 253.7171180293
208.1819149335 95.3363456522 218.3222920348
227.9493488080 76.7468654073 216.4875072225
204.1532547518 75.1608677900 258.0806163808
219.8924161204 146.3940282580 207.7955085953
192.7746297679 110.3468023164 227.9006039519
226.1009005289 90.2082000327 222.1674460005
208.0860880618 89.5364686646 218.3621397581
228.3030426538 84.7139039431 226.1770115534
206.8698879095 103.5891809432 215.5574518987
202.9924517654 94.9481526647 221.8907009994
226.1902042838 74.5723954419 260.7231731005
224.9482171951 75.1526414362 236.6643129422
215.3947753272 141.0357434734 222.6792798060
201.2165245855 127.4699746120 227.4320771991
228.8005167767 71.7289983807 258.5403818486
218.1178043467 148.3033245314 213.3194492322
228.0446470728 136.9710957264 217.2987730746
198.7425659138 109.1989348732 226.8774790041
206.2017195235 132.5296333856 235.9097573206
208.3870475882 134.2721576486 228.4894553776
220.5394479820 81.8542344280 212.1612620356
218.3107766078 96.0933412595 215.2929778547
220.0918502243 90.6083759688 218.0421743783
197.5932763097 104.7178740044 220.8541180612
211.0530237317 138.4647068616 215.8827059881
226.0130543811 70.7487064520 258.1201290246
212.1456072553 136.7764808729 222.6072913609
202.8449222361 110.4790824936 214.9843874327
223.4814782453 77.3074256726 231.2601257610
199.5316004881 105.1432253528 218.7642290857
202.3957656701 130.2497263043 239.9408011450
220.9227768157 79.8733982310 210.8770311615
218.4179000457 91.7663864863 219.5618893906
231.9993165723 75.9618468007 229.0020376640
230.5160802970 68.9170113590 242.5987111160
216.8022019205 86.6152217615 218.3291477280
235.1269042866 70.4091268625 247.2973909957
221.5182515866 79.1764993489 265.2885639310
227.8670311108 82.6028638463 226.2657324241
210.3107933838 86.6365679128 213.6897634303
208.1786565590 133.5625186608 229.8058150051
224.5680858460 143.1423149940 217.7602608496
204.0785749890 121.0873971169 232.7049723087
204.6204258654 135.5003537222 223.2926152482
211.1501727181 132.4202843475 219.5813735573
214.5576977045 71.8591047946 263.7827211160
227.2041497805 82.2046533789 234.4251761161
230.7438948380 142.1839289130 214.9771641402
217.4524860612 142.2326103538 218.8102844062
195.2911393523 110.0073695535 226.1098287682
226.9023196695 83.3185355717 227.1796560093
219.8778473934 74.0583831290 259.8368606808
210.9974834512 96.0983628834 216.1278271452
208.4199357602 130.4131069623 247.6770979977
221.2026322822 139.7926858483 214.7246413206
198.9787721405 109.4672527344 227.1909187199
229.7598471386 76.6193554890 237.3359866281
197.6380541868 104.7323691291 220.7968082606
223.7132378750 77.7956828526 254.9622987107
214.8576172628 72.9020934202 259.0920061050
201.1697790308 130.2847921250 238.3776807034
214.1144237207 132.2280000707 233.9788109895
209.8742348665 130.7245467736 237.1202574972
202.4059664428 138.8789963068 236.4508420783
214.8238447930 77.1706003295 255.0394286545
202.1568190562 110.8444292142 225.7049635299
207.9744271428 73.0946449030 252.3190460197
206.2592056478 96.2616243615 222.8332515366
195.3281078928 121.4454560334 229.8623563823
229.2044560165 141.1109756886 208.5887029892
211.9943649527 131.7409169887 228.5775719436
203.3732193196 135.5072538570 235.9943550162
220.5954777019 143.1067507783 214.2336435674
200.2123439065 106.8341544717 219.2686877232
223.1980128053 84.7482221602 216.0267969090
216.1213624161 82.6742382297 214.7422084734
199.1873789107 122.9820001288 236.5678691092
203.5415106591 134.6664585607 241.4577237372
228.4420721801 79.8214633472 254.1420874992
217.0438469543 80.5882342825 260.6764531522
218.2839290147 95.7957661133 217.5668515569
194.9119105061 120.6324652358 228.7929230355
217.7009936530 85.3456784101 217.1394281870
227.2219605632 75.7789075096 227.9616809435
231.0212499242 77.6572623378 257.8925498595
226.7767556497 73.7480138676 259.1918763803
197.1573855177 125.2355578029 228.8319934037
209.9232772750 134.2856718681 218.4058327080
226.0130543811 70.7487064520 258.1201290246
216.1275980030 88.7136314594 209.4387132148
199.7523727534 114.7948001901 229.7951097631
210.3686597284 100.9658545976 215.6936141456
206.5742826435 76.7973629735 259.0829339910
219.0560004309 94.9933509574 214.7817901856
225.5819446719 72.9318863939 257.1564595608
228.3116050974 78.9569220921 219.7868832599
233.7296121848 76.5663883359 230.0465330008
198.9629383367 134.2468422564 239.4303642282
202.7450505025 132.1851706633 233.0004882328
207.0549938573 130.2658035841 243.5948092991
229.3116916972 79.7849702069 216.8485824469
226.0846778528 83.0383102097 228.3741402437
224.6378035400 67.3198126202 245.1500899813
214.7453794374 140.5093562718 220.8217808879
227.4552445695 88.8818985760 221.9062373499
207.6839171527 129.0569123661 243.4812070845
227.6786540920 76.4446222426 235.3720699378
213.7753500926 92.3050354769 219.4085796940
198.4382708520 122.8710651919 233.5470183734
233.8373320910 69.9109790954 254.8772940027
214.9540430868 140.8749699031 222.1227925748
231.6372603286 71.8527940662 237.8122851457
225.7343893774 76.8757233350 233.8125976422
203.9196519693 106.8015727614 215.9589942851
229.3087162145 83.2612345863 222.7173655036
210.8834649407 101.2561591845 217.0640494086
211.8615037928 146.8720632376 212.2749725520
219.3693603541 89.9287884305 220.4162963594
229.4551071041 77.1821915810 260.5709608600
232.6130058829 67.5308882830 250.8997478974
216.3281864742 148.3073780116 207.9757507280
229.2213606414 77.4608892187 256.6889131770
216.3867494175 128.8528860618 234.1607374978
209.7949527658 134.2374931090 227.9922968839
216.1712356710 88.3698668952 213.1650410691
221.5659507876 87.4128055957 222.1837545833
205.2760475698 129.2032785419 238.5437501568
213.1202353199 131.7199392604 230.5816020716
198.9540364485 112.9699094982 223.2228604914
206.2504124865 124.5883692642 243.5966584215
224.2578331940 81.8275332815 262.6084612342
217.1905764004 86.9983424018 212.7497682624
234.5138850971 73.1808098933 252.0341559901
227.6565935869 86.8001062096 222.2577752194
210.8075385669 144.3412470326 211.5464319344
231.8177949110 74.8721411825 258.6362033461
224.9138119234 83.5002900275 219.9542511333
200.9752261278 121.0137607581 233.2040173693
201.6445936205 122.9660383721 235.9376527868
213.9215110086 146.1877300082 215.6388342923
202.8249869446 133.5886767818 235.3992987760
202.2802840696 134.1897695772 235.5989649833
215.6616640687 86.4230103762 210.1399704351
204.4797305786 74.2811022437 258.6938295411
205.0801583594 129.3245978953 246.6884599315
209.9745230931 98.4004537884 219.3813100029
213.6642248628 126.2313774884 229.7109997871
223.8727873140 76.8454678744 262.8529074477
224.9997102508 79.4025689558 225.7751830710
204.1621891250 127.5689826798 235.7389221492
231.2764340889 70.4583612626 244.7518756402
215.5406029764 89.5522613649 210.1727774104
213.5938874561 90.7181768792 218.0518963580
228.6558976464 78.6794864413 226.6986515164
226.6937175519 70.9769201989 252.0234344027
232.0295753131 73.6792332481 253.2883319874
214.2525765403 127.5814902151 229.7400252065
214.0169226220 140.9071514554 221.1487425717
215.1954015693 145.9941939452 214.7247906356
215.9272746032 94.4376496279 215.3223706405
222.1524857708 97.3778342770 219.8221846643
228.9833064548 75.2697753656 251.8260544759
223.2358269079 148.6164104668 212.6516966402
202.1344269603 109.4046353880 223.1053463167
228.5909397384 69.5137841111 256.9563419286
205.8228998978 127.6270268228 232.1754090140
209.4362615732 70.1138603776 262.2233570550
205.2384997071 101.4690712902 220.2241138592
228.9762041942 83.9524280408 223.6749041293
220.8603191125 76.7181359097 228.3376069796
234.2095721473 65.9320564808 250.0248259673
211.7913472131 129.8514090439 229.8132272427
223.2952850595 74.4094195800 228.1296654090
202.3327574954 96.4597773255 223.3017849639
226.6674968216 75.6944940013 261.9390713523
207.7072478074 126.4844265480 247.2976820059
225.0648315629 139.8391082737 208.6465960736
210.8613122775 130.8887454909 234.3268741475
229.8612750364 79.0216024849 228.3365477678
207.0907672952 128.0750660513 248.2075803619
208.3685591676 125.6478348570 238.5826356761
223.6695553124 152.3685295433 208.4132346339
201.0594332488 114.2720762922 223.7769092062
207.7208716006 129.4580781997 236.4658133953
216.9077182932 76.1494075105 257.6866496835
223.8823245354 83.7562495281 222.3308788699
203.4977069815 73.3110016687 257.1159087962
204.3415724533 116.1664364484 233.2752271078
216.1979578762 145.9547594613 209.0095807179
232.7661768501 140.9379748416 210.8974306984
216.8022019205 86.6152217615 218.3291477280
210.0416396289 135.8379464265 215.2719854787
213.1763977777 96.4884268388 214.9035180807
209.5490075804 131.1939752558 233.3090476775
220.4383852507 148.8313020376 207.5355472580
209.9144310637 133.2331877048 222.2783126756
230.6805214312 75.3650214153 240.1633189247
204.3558901499 133.2788125993 221.6250470934
223.8223089904 139.2021858298 212.7983431451
221.4396690120 140.1217502240 219.8032875039
230.2477920943 79.6622421713 230.3749179040
205.0160934444 133.4693998358 221.8893264365
208.6124776341 74.1895951468 257.0288620419
229.2739025972 81.6694858512 223.8801842536
219.5047946216 82.2008535421 217.0561209082
212.0384650924 151.5657270062 207.4659535239
197.0145258328 123.6450981756 234.0549094759
199.3977239329 105.3580139323 222.7131349654
228.5678334531 78.2029927386 228.2526634435
229.2393235514 81.3470078932 228.1750331253
219.3217267576 77.9634408040 264.0292039994
211.7557540559 89.5348602430 215.5577878999
224.7798934862 152.2009363189 213.3799243788
207.0680630603 72.1435781797 256.4682688103
231.5495521196 140.6763044609 214.4310359966
203.8572627476 95.5675884121 218.2089937401
194.7010963835 113.6093585571 225.7978097634
196.7229958468 110.4035587586 229.5050152265
230.9345223133 63.7909854596 244.0794870024
236.8601048238 72.6541811057 249.5155452303
213.6042376203 91.6350850458 217.2580220590
229.2821221889 71.2110477229 250.3356318676
206.3441242923 97.3842297226 223.6944178604
231.8207186767 80.3190875190 228.6100849124
220.6032606215 140.5710461475 213.5003129102
223.6697541488 137.5980905354 219.9985967865
188.9668998304 114.2253864619 226.7993327922
203.1601616262 76.2733649412 254.3998338241
218.5835414013 90.2333509564 216.0546143951
215.5936148132 77.7292699807 253.1878840083
205.8447270387 125.8109453673 232.4552826453
228.0123246276 82.2136055705 255.7991004984
203.0261348577 125.6280958206 235.8506408267
207.4549901746 77.9407461613 256.6694714503
206.5336307923 76.8430416185 259.7268979170
213.2451760282 74.6142027916 257.2785807044
227.8794023643 138.7914674748 209.7299939534
214.6809285444 80.2675044344 254.7058314267
197.3587226234 132.9786501505 234.4305245167
212.6135998453 88.5582329513 209.0919426476
199.9147751187 121.4575355364 227.7963986303
229.0069777728 75.6810662060 253.8889803704
227.3396134697 75.0685516768 256.3791610102
204.2374073559 105.2991839545 220.2663412577
211.7247084692 130.2654929160 234.2371525194
228.7317603439 81.3839870618 214.4612288824
217.5636425899 92.3345710492 219.5941275058
229.5088968829 80.1914617361 230.0076314767
202.9010935289 128.8525106379 233.7007721084
198.9998338742 128.3430085994 232.9068004897
226.6851684780 64.0166556018 242.9407990289
218.4179000457 91.7663864863 219.5618893906
211.4903064081 143.2275902605 210.3072573791
222.6687495940 150.0334052757 212.5433035689
221.9303575168 84.8878681995 223.4855085588
205.5158123482 95.5212885409 217.7472246534
236.4279610157 70.5455846437 253.3897468815
220.7685081220 91.8847554277 216.2709603475
201.6702312335 127.0114647730 229.4954023390
211.5357778500 86.2392093462 216.3157091354
195.5834746340 104.9962377876 218.4743323205
217.6604879784 87.0397621566 211.8773617870
222.9931596565 144.8369334001 211.5633080410
198.4930420975 114.9338582217 233.6848586176
212.5718192730 131.6024001706 238.0358226918
225.9305261709 72.7123315350 236.4766616002
232.6661641298 70.3043740774 254.6967218507
204.6969540833 101.3333513944 220.3864471671
225.5472458030 66.4705569348 245.4162992339
206.9281365776 129.6694459340 239.4257238614
211.7588007871 69.0728863759 259.5415772570
209.3999060952 71.8949912874 262.8358381020
208.6379895047 102.2694535763 220.2559644415
207.7603145433 135.8645464753 216.4891546885
214.4565835930 142.1353758851 211.1647239981
195.7118282579 125.1991650042 230.9486816583
198.3322679246 130.3512124010 233.0490556671
225.3454631894 149.8050354240 212.1674305668
225.3450633059 81.6765204844 226.5519324980
225.3735618577 70.9441112920 252.3426037223
207.8773127688 130.8797382422 240.8052489782
220.3178736670 97.3057461823 215.7195729924
202.0447820428 106.5388453151 223.1201615009
196.1364957930 114.6982086928 229.5072239975
203.2854942374 129.2378813016 224.0406750589
205.9944417859 79.1668076497 252.8184993416
226.3092422912 141.3538020815 221.7984919932
225.9700651809 70.2630651101 238.1181794200
210.1272872318 89.4256564655 216.8438163318
223.6307123375 140.4281679803 220.5084784621
197.6083665914 122.5928207301 229.0128276387
207.5041864707 130.9804417633 224.4106565568
232.0691617245 71.0575790679 246.9293551721
231.4334711796 70.1911452369 252.5464733775
201.8001428171 132.1965587828 241.5168989787
223.5519207841 144.7449325482 211.7003472004
202.6934028648 98.5586499982 221.3026902738
199.8966517131 126.8444859069 231.9159820623
202.2802840696 134.1897695772 235.5989649833
223.4614178964 152.9136462964 209.5729937675
219.0376483532 82.8760931323 261.3631751211
224.4295542012 85.8987286064 221.9019468479
213.6972528785 85.6050836454 216.7914092514
225.8980306236 137.6458928105 215.9100116581
210.4392027936 130.0757036351 238.5933987523
197.9032569128 114.4079025370 232.5331847908
202.1742086395 109.5983942242 221.9227436412
228.4893238263 69.2876082514 249.1451915301
218.3852630463 141.6683221795 224.1638384381
216.2199732315 130.7865471613 231.3751495137
230.1679378252 72.8734156209 250.6862086233
220.5562311129 79.0538245256 212.9429650751
229.1062545654 139.7337755217 220.9487679752
221.8168599211 84.1177197370 213.7855361813
226.8951741415 77.6517751955 217.8798795568
203.1120426691 96.6675748527 218.7201868197
197.7031825513 128.9922678497 237.1696060877
198.0820419335 106.9151812121 220.1285431243
231.5023194398 69.1874398640 246.5735266500
213.1997627861 142.4830636557 221.5657315452
203.2854942374 129.2378813016 224.0406750589
229.8266791599 68.6844363587 240.8793105943
227.0740531881 69.5591238699 249.1232834939
197.4304738178 126.6142339646 234.1322515052
212.0737545442 125.6739921392 230.5267703583
225.0239859756 73.1300610547 235.0978256505
223.4285739172 76.3592547818 216.6717995307
210.9713660030 86.0349404261 216.9906351109
222.8113926800 82.3841744193 260.5746376734
220.7659427055 149.6194800601 210.8633585716
220.9581313615 82.6459885156 265.2445310416
214.2626294988 94.4957681535 215.4696671329
229.3648254276 81.8025559029 256.0454719867
225.8771602590 63.2960885854 241.3630021117
204.1624476798 72.1624384866 257.2134698812
201.1199276837 136.1143059021 234.3913578172
227.4516700504 67.5340989298 241.2400948882
204.3617816428 134.5391592619 235.8037048467
222.3956978409 144.3939274594 213.8431848373
197.7031825513 128.9922678497 237.1696060877
230.2887124573 85.0349714972 225.5727829673
214.1073396561 142.5481959149 209.1603383530
225.9664521767 146.5960788247 210.0869777288
235.7990394107 71.7544701674 253.5033331037
227.4615786296 141.2501010859 215.2162817954
223.1003457345 85.5786842959 262.2490706425
204.5893744176 133.9977352353 226.0229987167
213.7465624271 137.4516163661 219.2630188881
198.7836854791 114.2548589517 226.0557285103
233.0416799189 73.1072054309 250.6941785066
208.0172737502 76.6518738020 256.3159067836
229.8612750364 79.0216024849 228.3365477678
223.0301202984 83.4459034629 265.2985380301
228.6839966336 142.6631233674 212.3579875406
197.6132712932 126.6567721877 231.9437864875
232.7053070317 80.3409476413 229.7969625440
200.4654755704 124.8415024998 226.6168252440
227.4552445695 88.8818985760 221.9062373499
213.7521894481 79.7130615899 255.9698705024
227.5006214999 83.1566206737 228.6630816826
224.7139597702 73.3075419448 229.6116502774
217.1243954102 137.8966604461 223.5366983052
213.2872259223 70.2503189038 259.5553677659
201.7201169053 136.1405215069 234.4247674631
210.6337855143 131.6469713708 232.0919203149
190.7009842402 113.9355669436 228.9472091232
207.9914849021 77.3985556076 259.1093094694
207.9914849021 77.3985556076 259.1093094694
210.3673334401 135.0678657508 226.5251628299
237.3138114718 72.1956712668 251.5788703702
210.4341751101 90.7292031892 219.9865953175
215.9690942572 143.9790748211 213.6253709737
223.8584313996 140.8039481068 210.3816823597
223.8584313996 140.8039481068 210.3816823597
212.3235960613 145.9810276888 211.3696869032
224.2708023256 80.8792650080 265.5286130320
238.2144488644 71.3278796490 249.2543365797
224.7139597702 73.3075419448 229.6116502774
197.6796609188 130.5318681838 237.0226714304
213.5941894382 150.3435739006 210.8982181057
216.4970332434 90.4583612939 220.0198173707
216.2981782021 126.9384610220 231.0634415449
197.0178150910 110.2800126917 228.5500401539
211.8496853660 76.8130910875 261.2154416312
219.9312703548 93.6510126209 220.7050564548
207.0393343348 94.7125480833 220.1964202193
203.1106220166 106.7349061775 212.3058991989
213.0130601331 133.0743495515 218.8942565222
216.6775627449 80.9496764425 259.7998214792
214.7453794374 140.5093562718 220.8217808879
212.9677322714 70.5232679960 264.6770927070
204.2461114165 72.9914554727 253.8401272203
226.8101338784 140.4284443174 222.5384778409
226.3594629155 68.1483498436 241.5976628808
223.8584313996 140.8039481068 210.3816823597
222.5245247943 136.8490907547 216.7624031577
223.4901980796 145.1281445161 208.9566408144
215.8791336873 130.1656540166 230.4177315296
221.1998860622 74.3801515537 227.5933190131
226.8063633949 143.4216963269 213.2978889296
226.0633390681 73.0123772773 243.6257338433
204.7388841279 129.4951379820 223.0533944396
225.5845368355 141.2321706649 217.1340423054
213.8435327524 74.8601387907 261.8447843178
190.7516136506 113.6744873716 227.7226665114
204.0676814509 128.2683188776 236.9605522307
212.3712210227 98.0861934211 218.3584139276
221.9227839080 80.4996088991 266.2431026811
217.4464159234 79.9565909912 216.1499481521
199.6610693057 122.8762912090 227.6379456199
202.9342750497 127.2235766841 244.2191029572
228.6558976464 78.6794864413 226.6986515164
225.7961668785 144.6843886238 215.1238569027
199.3996730437 108.6796114724 221.0636718195
216.6479631803 82.3835630189 259.2192516964
203.8384445388 105.7378199309 220.7187469412
228.4211172613 75.6866872166 255.9167062345
209.2289738732 76.1733910156 257.8967704936
218.9236284649 147.8239890584 208.4600452775
205.2384997071 101.4690712902 220.2241138592
200.3700647843 107.1924659192 219.6126749258
219.6405851881 79.2306785959 259.7711172039
215.5379864263 91.2961344530 216.5181619599
219.4940845759 144.7736813670 223.4891447767
206.2917130783 72.3484262797 255.1635435587
209.8755542212 128.2145937432 247.1587364837
213.5921872620 68.4001196660 260.4294186036
207.9659094509 102.5624994875 219.3853587802
219.6586661182 75.5828185402 263.7123352378
203.8320436645 127.4881540746 237.5697076098
226.3193701794 81.6584472726 257.1197327585
209.9222139833 130.6974830740 221.5449820184
222.3483772525 91.8438071118 217.2973036609
221.9700633384 89.9119127436 219.7492911440
226.3883548972 84.0197948549 233.5807044458
209.5950410554 139.0602441972 221.8700705304
223.1878399400 78.9783022331 258.1088816155
231.1713583695 79.6811687583 256.6131724017
216.1979578762 145.9547594613 209.0095807179
212.3573955329 74.2395351819 263.5122436499
216.6479631803 82.3835630189 259.2192516964
203.7373184773 125.7330974984 229.3868366752
206.5517045306 129.2774528583 226.1754335905
216.6579211409 89.8620397274 214.8802615430
216.7337162067 152.0902874683 209.1053257689
214.0584266920 146.2136501760 210.6785161094
208.1925178682 131.1147542721 230.7078158500
219.9438922772 90.2853632036 220.8611668045
194.5765762298 116.8222032735 229.9126161842
208.3208137723 69.5911102085 263.5176911063
202.1161272072 133.3940618813 233.1140904474
200.6395427438 137.7354742652 235.1659812375
199.7822231688 103.7578048784 215.9789615262
207.1910867488 129.6943762874 247.9590666371
211.5134059903 134.0673471446 228.3431655317
206.7268753395 129.8158750611 234.1503659359
215.1826641682 89.3379749078 213.3556964101
204.9751711814 136.1219123788 225.5043343233
227.5895601916 78.8062080573 261.0876647650
214.8997784184 77.6463234736 257.3809220213
228.7800349121 84.3294041589 220.4500946235
230.2296694946 70.7287416906 254.1581622811
203.4918770007 138.2294645816 237.0640405758
209.2922328200 126.5633703092 232.2501874637
200.1006202988 132.3398880838 238.5707833046
210.4863409340 131.3064173994 231.1759265281
204.9087829111 128.2046572194 234.9088055164
230.7846788555 79.8982535802 228.6249036015
230.3762732419 75.4082515778 252.0556100849
205.6546643513 132.0031137484 237.2104688282
195.1939599532 108.9611390269 221.4239985314
203.9720741258 137.7441701962 239.2478462250
203.4818841129 117.3941085803 230.0843390550
230.8585332155 72.0861104363 236.5622392635
222.4728066151 78.0132161472 258.8625508375
202.7738412074 109.1879533918 220.3881955977
206.6399095894 133.0832647744 244.8071924385
202.4097898610 129.5198720408 233.2198171887
201.4369035739 106.1183238367 223.4237645403
230.6133565897 67.5414363534 249.7519193610
227.8082978144 141.2187838053 217.8063233621
226.8454344153 70.2933098447 259.2932780736
229.4907867185 81.3269544547 256.9372955595
203.8896558521 127.8844160428 233.5101219388
225.5645456256 65.3663937189 240.7348039082
225.7962711539 142.4099598821 210.0316369266
222.8917387030 79.8249175711 259.7923176500
214.0085326093 131.7830837392 223.5465231221
221.9206998482 88.0343603907 224.3954790689
220.4383852507 148.8313020376 207.5355472580
202.3679066275 109.3784918149 224.1191755969
204.4973724298 72.1742791241 256.4869855657
199.3315271042 109.7917475275 221.5238506308
224.7826532343 73.3941714263 234.2209190804
214.8076567944 78.3557266529 257.7518893307
220.2061895528 83.0391123032 259.3621886417
218.5194440018 96.4589510293 216.5939949522
197.4014535849 120.9303479974 228.4545682682
201.1913145472 105.3463693018 222.2531252990
223.6255910942 82.1209741836 265.9149374985
231.1713583695 79.6811687583 256.6131724017
228.7821827136 76.7177214060 229.0184007721
216.7841529163 130.8066436727 233.5626068865
227.6786540920 76.4446222426 235.3720699378
212.5749865248 127.0845115381 238.6900330455
225.6051013547 74.7482176554 231.5615508015
229.2288361573 83.3140970071 231.6520364631
206.9829688563 101.2760290997 216.0869727434
211.0176132939 124.5692892959 234.6996090095
227.2053960452 143.4571724839 211.7215318298
216.3281864742 148.3073780116 207.9757507280
216.3850754188 148.0868925682 214.2499794425
217.1080821691 80.5145868666 261.7577201765
225.1303828304 78.3600528411 227.2890828000
213.8693701933 142.2866639461 218.6862079725
195.7410401434 119.6055957916 227.7360553391
218.3333872749 80.8629435787 209.0887024021
206.0640338532 97.4398847279 218.3423020573
222.5317519893 79.3106129821 219.6894115159
212.3022895636 69.9989142903 259.3469044348
233.0577332273 70.0894710553 246.7386998313
225.7469549098 136.8695824056 217.3359517058
219.9438922772 90.2853632036 220.8611668045
214.5029969298 79.4990662546 215.3517047417
227.5110757299 83.5014115480 231.2283280808
218.4737634553 96.5356430393 217.7886848139
197.9636838680 116.2753380504 231.4523937511
224.0505853282 84.0929930724 225.9236365685
221.3053107907 80.9143482611 227.7265631904
205.1179072984 73.0144881734 259.0791880201
225.7327859151 139.4662645588 208.3412325369
196.5540629119 122.5664083256 234.1203751249
211.0562664980 131.8592698241 232.2959493508
206.2102088840 106.4514562533 213.3355654241
220.9708825448 82.5585102358 212.7742596239
218.9496517427 88.3198142276 219.4501249326
212.5423962283 132.4798811561 230.6284791977
202.8055797342 126.3283553376 242.9737826833
218.5194440018 96.4589510293 216.5939949522
208.9106027017 70.1170620316 264.6693703436
214.8832009313 90.1856798650 211.8695069632
200.5833766897 137.5798964180 236.2035520019
218.7293247363 91.1244493850 215.5603253620
212.9987122850 77.3960781739 262.9353572091
224.1542854881 79.0774246563 258.9716084312
206.0312634793 77.6016653132 251.1062758741
194.2458185508 121.6424717176 231.0650727606
203.6327007801 126.9487474798 236.1663927612
210.3816105417 70.2691792108 260.3005688368
204.2118400710 137.1022209248 238.9457924955
219.0376483532 82.8760931323 261.3631751211
228.6033721841 72.8114804565 251.1562974102
217.0822941744 85.1592375279 216.6866428752
226.7160118895 73.3652453549 252.4364455459
216.5892242208 78.7582886193 212.1452652690
205.6203620659 134.8849439486 226.1561694702
230.0802336860 74.9797196634 260.3431048701
217.8306638663 143.5975198935 209.6096311337
194.0533877797 109.8995912470 228.2528697576
204.6363777566 131.1537742807 243.8578566968
214.2460344171 79.9063653153 259.6861371085
228.4284645518 81.1892420708 217.5779746832
203.7201561564 124.5280080183 230.8658718692
231.9092286660 73.8785539966 253.4952712980
225.3735618577 70.9441112920 252.3426037223
216.8420961081 144.5656240446 209.8002918851
216.8022019205 86.6152217615 218.3291477280
229.1933828500 87.7505982455 222.6621918719
204.1052208703 135.8002091531 235.5134983417
204.9876872551 124.9853083427 242.7797482614
229.8153157743 70.3604968595 255.4670083584
201.6702312335 127.0114647730 229.4954023390
232.3904336420 72.2955616854 247.5375523968
225.1757661187 84.5748592744 222.4147631942
205.3737241586 73.1115205899 252.9860512351
203.7274731396 118.1660631152 231.2549782963
229.3740668499 85.2029941436 225.5713336900
215.4582819641 135.0097535037 222.8913787617
210.6282166885 88.2288120219 215.2227057136
221.3660465841 151.5874816603 209.4370863332
225.0899863107 80.8766067753 220.7371076541
215.2873606773 144.0307248509 218.9354576168
222.6879003152 136.7845989659 218.1047888097
203.5822406948 95.4741044878 223.0423802368
193.8829706362 115.4231662595 228.0308625045
190.0095482053 110.7509356928 225.6522063905
225.5848425054 76.0500852783 240.5282484162
225.4311489287 79.3784779381 221.8430297935
205.5158123482 95.5212885409 217.7472246534
212.9542153349 86.9083493678 217.1218461517
217.3190753884 76.8609605657 257.4021651911
223.8022403743 152.8984962046 211.9733445798
235.0614495600 70.9255200989 247.4969139599
209.5949164282 75.0779183538 253.5622772811
235.3574821383 79.3684123529 229.9174196933
230.6805214312 75.3650214153 240.1633189247
221.1513802113 84.5116408461 213.3382634901
221.8794699341 96.7820391121 218.9161025287
222.7068894465 142.4885282329 216.9159142786
214.2971751596 146.5802783598 210.6023612317
226.8839458503 76.3282769369 235.4490140983
227.8759864423 79.8465311171 234.3801997291
207.2841058189 124.6187002064 236.8112186725
201.3534970890 118.2189409333 228.8140129493
202.7735346872 132.7606338253 231.4173503126
208.0671863900 130.8592381989 227.5951238690
220.3420801696 78.5588690330 264.4747522766
201.9811430948 122.9616789563 232.5302927337
226.6905957074 76.0699741203 236.1940515599
204.6204258654 135.5003537222 223.2926152482
209.5385853895 71.8888476473 261.6355907380
216.1559737202 87.2781796574 218.4765566016
202.4412259333 103.1487187803 220.6515131041
213.4672572843 90.0673694010 211.5805655244
225.5848425054 76.0500852783 240.5282484162
226.9599234224 142.2948033795 220.8888293073
207.7603145433 135.8645464753 216.4891546885
201.0905843312 109.5785909823 226.1629893550
236.0094875912 70.3479462304 254.2862316252
225.7962711539 142.4099598821 210.0316369266
229.8106292941 71.0295232712 250.3281790976
214.7121979051 75.7700415668 262.0433133204
209.2194311070 73.2319555085 254.1274142764
225.8805237516 82.1814892822 230.4556404214
204.1176750208 131.5505293580 242.2354102923
218.3852630463 141.6683221795 224.1638384381
224.9160335700 79.8453241737 226.5233454714
220.3178736670 97.3057461823 215.7195729924
222.9301172029 91.9386282693 219.8685795642
214.2505308677 79.0359332289 257.8180638978
211.6348247607 125.8742494497 238.2186137892
206.9599524406 92.0153336541 218.8847014399
199.6176818371 113.0451355713 223.7408558395
224.9138119234 83.5002900275 219.9542511333
204.9087829111 128.2046572194 234.9088055164
216.9693193992 141.5500117155 223.8748969993
207.0852340537 134.5279003375 227.7062886125
220.5948874047 141.8594131613 214.8489525769
211.4793181983 129.6466060059 234.2089536947
194.2458185508 121.6424717176 231.0650727606
217.9552465842 85.8983424002 212.7003179470
201.0952986043 133.7866184853 233.6918646907
211.5206269960 128.2423886876 229.9478535079
222.8238230481 77.6283315259 216.2687330308
223.7489519583 76.3766302645 217.3395539502
215.1932643606 96.5866461742 218.4428990606
221.9289166350 137.9515141943 214.4982093208
230.0108423032 70.0371375659 238.3767467235
200.7501382156 135.0582932323 234.0038702614
213.7521894481 79.7130615899 255.9698705024
217.7009936530 85.3456784101 217.1394281870
213.6455564210 149.4391987100 211.8388139461
220.7103678124 138.9138192894 215.1315784589
222.8460786632 90.6337230106 219.0927088844
224.8293927792 81.5833777300 264.3032485950
223.8122980553 83.0408069264 225.0273691224
214.0085326093 131.7830837392 223.5465231221
224.5570931165 67.1270894546 241.8229016133
227.4233161617 72.7178980184 258.9443502323
198.9049906196 110.5509662618 222.9672615634
214.9850827157 92.6216398462 216.9218369949
205.8990744936 136.1588888047 223.7829480404
206.5742826435 76.7973629735 259.0829339910
207.8738855686 125.1446654470 237.9629030811
219.9405007613 144.8470699139 220.5434636395
223.6695553124 152.3685295433 208.4132346339
225.3735618577 70.9441112920 252.3426037223
207.0907672952 128.0750660513 248.2075803619
224.4387370102 65.2489885273 241.8884695248
221.0868016317 93.9017980914 221.8864123300
205.3639286782 99.0016726309 217.8122471346
202.7068656095 124.6245550269 234.3288123173
233.8850978604 79.0305828321 234.6114883226
226.2606452814 145.6086301883 215.0759421491
227.8603864411 72.5302375755 257.7047245063
219.8924161204 146.3940282580 207.7955085953
227.8406590257 85.1547369473 220.4517944244
203.4179828229 110.4108645243 214.0469544066
235.4323976994 78.9350541960 231.3524642261
224.2288465901 85.8025914208 264.4381830384
226.3145910035 77.3261933848 228.9029341983
198.6282842667 105.7249256189 225.0473698851
201.1367094223 110.5108369624 223.5982946582
212.4321458634 144.8251711279 213.1363850603
213.2652188781 150.9811233451 209.7460868021
196.7037253007 116.8616555001 232.2487776533
203.0717858772 133.2999933376 224.4460661136
226.5635558481 64.4259771083 240.2760691414
200.6249686876 110.6103572738 221.6077349550
212.3116529236 126.1639980565 229.6683576324
220.6470489001 149.1969156689 208.8365589449
193.0206877450 123.5285158269 232.2745619406
217.0108557128 150.2369416545 213.6550564985
206.9505239256 128.4519176963 239.2561894222
228.2694175183 72.6954591094 244.7775206426
196.5277215869 107.9413332460 218.9286689317
203.8658495759 75.7915899245 252.2310624524
207.7048728924 137.8881599220 215.7269282156
224.6823189644 139.8263585776 210.7297203253
202.9522541747 76.2794951508 254.3100657695
207.2841058189 124.6187002064 236.8112186725
217.6040942609 77.1707225241 263.5847666517
215.6450022415 76.5463331714 256.8697343521
234.9039532480 77.0721884741 234.4274704558
216.7500597835 75.5834199320 261.4811348687
227.7502451460 78.8133528763 222.6139518830
209.7909568597 127.6273681641 242.4945358428
212.2518090554 133.2919348740 226.7611939487
232.8818886230 66.7566675270 248.2185128905
203.8740888483 73.1078094962 251.4549151344
205.2082090545 73.1513292722 252.6735555550
223.7749908935 144.5434338107 209.9779457467
232.1372589896 142.1468565036 211.0110223311
218.8568857917 75.5653604270 260.5371992418
212.7592411317 89.3285849674 215.4069956914
198.0552340091 127.0434018992 235.7070365406
203.6634238398 117.3767894346 230.2892637123
228.3116050974 78.9569220921 219.7868832599
228.1580235450 82.5232021737 226.9663521296
207.0907672952 128.0750660513 248.2075803619
226.8063633949 143.4216963269 213.2978889296
235.8316654337 80.1361371373 229.6506726981
207.7403842691 130.6811535478 238.7057375014
204.4698248603 100.4372134912 215.2238895488
230.2294074400 69.5214896251 250.2508827588
209.8652856291 99.2722083292 220.8563622201
205.3639286782 99.0016726309 217.8122471346
235.0880904623 71.5326901532 249.4006264257
207.6160791846 91.5281199142 218.4418844630
207.6211106568 129.2016051584 243.5760690946
202.1212774703 125.1928147422 231.3791914677
216.3589596017 143.8264468360 219.3413591746
218.9496517427 88.3198142276 219.4501249326
224.7614718206 71.4886466506 257.4839175903
219.7466093738 79.8837983123 263.8583528081
236.8504960769 67.2550430523 253.2040671924
213.4700653284 94.4536018286 215.9525763811
231.3143411679 64.6968815987 242.9261425147
215.4039757445 138.0373064469 221.8121441275
230.1266689529 69.6030080861 237.9289114826
220.6318490459 137.6000455783 216.6778632463
210.0764365247 90.1767655176 215.9372911063
225.5645456256 65.3663937189 240.7348039082
200.9028226402 111.7865953970 223.4929915717
224.2596301978 139.2192863182 220.3948868294
235.6435171685 79.3193320347 232.1758006245
213.2652188781 150.9811233451 209.7460868021
219.3174376078 138.6832146067 221.6859652835
202.3528665889 126.9339240068 233.1057052863
214.7584456759 87.0359956923 209.6232673009
203.5221099821 77.4115380023 251.3929610172
196.2454381340 124.0654036168 233.4463245107
198.8670472081 136.3868951704 237.7780523756
211.4793181983 129.6466060059 234.2089536947
216.0206883580 79.6274895180 209.9147351645
222.2203703074 76.3638630031 227.3369226428
198.1858576845 104.6747484917 216.5072069890
207.1910867488 129.6943762874 247.9590666371
227.0830523016 149.8237807018 208.9329813605
225.9446074039 151.2888749408 206.8746799962
208.2122064573 126.4630858026 243.1820759381
228.9014904177 79.4514371147 227.8692961682
207.1023660957 131.6618283504 233.5852183587
222.1231914443 76.4693668820 264.2694470837
210.8613122775 130.8887454909 234.3268741475
208.0082757679 130.7185635445 225.1665250445
203.5233263280 95.3334336951 220.6137760017
195.0679072313 111.9431955379 229.9754675856
225.5434127095 75.1842206671 257.1690299782
212.3243459789 152.0666104883 209.2483370711
226.1736165445 78.6878975933 260.7987233261
192.4661257022 113.4466880719 230.2659265948
215.6906685227 89.1886672436 213.3803709802
228.6379367079 80.6608507570 225.7748565135
230.6900909260 74.7102888402 230.8536736740
225.1245253267 74.2635120892 261.0659972128
211.4793181983 129.6466060059 234.2089536947
224.5898925945 80.7008825269 221.0339553606
217.6400234428 139.8304389864 216.2223228519
230.1707551279 70.5880708978 251.7295580461
202.4333263797 131.4633413057 233.2326834481
230.6885441317 67.2173904891 246.7643003156
203.7972954684 105.5127485598 220.1316870065
218.0958047044 88.0497499906 216.8586180919
216.4124267252 131.6678560139 233.9875362589
201.2473716369 130.5862857077 237.3512748910
207.0072347088 72.8834168449 259.5830874783
232.8818886230 66.7566675270 248.2185128905
197.2024750620 125.2589312352 228.4384335348
218.7752784675 80.3114005023 217.3716070925
202.8938792655 109.5264967028 221.4288963810
218.8269437410 79.5423994667 263.3628229122
224.5142569412 79.5203519808 231.5437775950
203.0985552793 119.3749447773 231.3685699291
219.3923974138 83.4976479273 263.5748996067
195.0679072313 111.9431955379 229.9754675856
216.2800095587 152.5487973073 207.0420006289
211.1993451382 76.2074331625 258.9466525625
209.0032833843 135.0740722905 227.5165209611
210.4392027936 130.0757036351 238.5933987523
224.0358152076 138.9154626691 214.2271807682
215.8438291337 82.5953876224 255.3723408784
229.4798325888 80.7478112934 233.7109233319
211.7913472131 129.8514090439 229.8132272427
218.4179000457 91.7663864863 219.5618893906
212.6221684670 134.3920422738 224.7868193024
216.9813761348 83.2984071159 212.6735910641
213.6813020178 71.1767144233 258.5844592019
216.3593914211 147.2028432570 219.7439812343
224.8322427145 72.5591318835 241.6908354172
205.2753920747 133.2328103793 240.0692738993
209.9037321647 139.2798178599 215.8695408797
198.4896567017 115.1917258511 228.9781944316
228.4211172613 75.6866872166 255.9167062345
226.1794554605 74.8308454269 254.2486503124
206.1261201837 130.2214361119 247.2089981407
218.1827346559 80.6728146685 217.3735166097
221.4057709395 146.3421772768 211.2643405068
222.4671428501 144.2919364333 212.9174745631
217.6495512262 135.1829021216 221.7773069203
227.4260236838 76.7284064353 235.5768635725
203.6655897083 126.9525280853 240.9051598636
211.8146684226 89.6755310358 217.9863921348
213.9215110086 146.1877300082 215.6388342923
203.6814926553 99.5486534590 220.9305804513
232.7053070317 80.3409476413 229.7969625440
202.2524723517 108.6404944611 216.3262616605
198.1521602170 114.7097100208 230.5429674662
203.5872973824 99.5847317607 217.5148890302
229.4719495675 64.4186301655 240.6043283110
197.4014535849 120.9303479974 228.4545682682
222.7362116532 140.8781551413 219.2636203100
218.5817914402 76.4640349048 258.2190805225
205.2502539054 132.4939574280 221.4428352433
214.7765682426 81.9010486222 211.6350465027
230.4335940435 77.9413710491 234.4033086780
207.6359705813 77.8745395235 258.2703100353
226.4250847388 143.4755069616 215.0102652700
224.5898925945 80.7008825269 221.0339553606
214.9259024596 131.0841169006 232.8779925032
222.6155118095 78.4024400959 217.4219917750
216.7345901531 151.8197505576 209.0704047748
228.4762050720 82.8385046560 225.7601693612
206.5517045306 129.2774528583 226.1754335905
225.0074969150 76.8668604634 225.0418578243
219.5708859347 75.3732140541 260.0937150885
214.3324865562 84.4655970607 213.4560561807
202.8173878765 130.2973229062 242.0096537473
231.6353642550 65.5755627372 241.5430768864
193.6111882450 112.3593162154 223.2218859621
220.6116689683 143.6968689381 220.6046816878
226.2873111672 82.0581614956 215.7785580984
220.3951011203 80.3097757217 216.5736875014
216.0734232915 135.5853432742 219.0491483677
231.3950197226 73.0494957059 240.3851622627
231.2539314949 73.8336302632 239.0965160198
225.5472458030 66.4705569348 245.4162992339
225.2795700079 70.5916655673 253.6508305961
230.6133565897 67.5414363534 249.7519193610
205.1264355180 97.5014118958 224.2753532950
197.0583417011 114.5708348585 225.1684509652
208.5340687509 91.1262014077 221.0821735685
217.2908708649 151.2231827039 212.6907540826
225.8026226166 77.2109105216 232.3491415610
229.3960091408 82.6541520355 222.7076145767
203.6755367999 101.4804201849 218.6914513984
209.2442104562 129.8659272497 248.3780392946
224.5282751339 141.3047083457 210.4588008402
202.7028045926 130.5387654569 221.3493894197
219.6913529198 148.7541761374 208.1650546322
211.2248794933 89.1495792127 216.8347128975
218.7798825197 74.7991267244 261.9963310414
225.8155051341 77.5874274797 226.6196547414
214.8997784184 77.6463234736 257.3809220213
209.0241115755 92.1041586561 221.9861492534
213.8550541660 132.6756731012 219.3355574402
202.8424993835 136.1971443700 234.6965935921
230.4158076752 70.3887000931 250.7233232111
199.5401907536 110.1573611588 222.8248623177
204.7388841279 129.4951379820 223.0533944396
224.7777648644 140.0542393782 214.6640558735
207.5459690276 137.3498139463 215.7234227703
228.9470528419 70.6331141728 258.6537704826
203.3000177644 75.6292382666 251.8990601331
226.9078772543 152.8968157094 213.2202170391
203.7864755631 97.1375344617 219.7011221934
206.7401480932 137.3500734505 218.9066605046
201.7886289553 123.6428908404 232.7971766408
206.4120107395 72.6137328185 251.0618666514
227.1375291081 143.0870106759 214.8039577311
209.0617282594 128.7404899932 227.7720573517
226.9193658785 77.3250533368 239.2646546108
193.3143515511 121.4936946783 233.3236148305
223.1878399400 78.9783022331 258.1088816155
215.1519724932 76.8543465214 262.1687578365
201.3315742711 129.4139637411 237.9318528479
215.5317592377 145.6579278486 222.6562441164
207.1910867488 129.6943762874 247.9590666371
230.3762732419 75.4082515778 252.0556100849
223.3807127005 74.6133999752 231.6511409848
220.7573026991 78.9592680035 259.0019233180
219.3239552540 82.8110685576 209.8555753875
232.1341474145 141.6740861712 210.8971355644
229.6062769709 138.7820271882 218.0885994683
219.5047946216 82.2008535421 217.0561209082
201.1913145472 105.3463693018 222.2531252990
210.4282424318 93.0809102447 221.9492010853
207.9666136861 125.6911351293 242.0114312863
201.0594332488 114.2720762922 223.7769092062
207.9744271428 73.0946449030 252.3190460197
204.4754796982 103.9293522664 214.0968639228
225.9962276468 77.9224546772 262.2788286010
210.5010691868 73.2575107709 264.3730818704
201.4534199667 102.7260553213 215.1674891679
224.6147633094 89.5875964238 223.8349053326
195.1194442434 121.0798424021 228.5613446954
217.1360130036 130.2567021084 231.3796925771
204.8237654371 127.3179226653 233.1556212062
226.7121607010 80.3652593986 253.0229017891
224.6858322163 83.6265042888 216.0874272325
228.2301422535 76.0320752119 261.2082046929
231.2156017109 72.2070959776 241.2553292290
228.7821827136 76.7177214060 229.0184007721
224.5339570003 139.4538272433 209.9235210713
207.0658507226 127.2019207975 235.4764290223
221.1683695870 80.6453489044 212.0476758134
227.2795927958 68.6370106585 253.4968724300
204.1052208703 135.8002091531 235.5134983417
228.7576901364 72.4891161033 235.2958241634
229.9532061185 70.1415305959 236.4450731232
200.3747130404 137.2142827867 234.9025403150
190.0095482053 110.7509356928 225.6522063905
217.8306638663 143.5975198935 209.6096311337
224.4330551438 67.0998696296 242.4237492936
224.6378035400 67.3198126202 245.1500899813
226.0247080868 78.4979217008 260.6956852702
231.5318564095 73.5386300880 236.8508870305
223.2900701546 92.8165312320 218.4244491588
225.5819446719 72.9318863939 257.1564595608
198.0338392723 133.9033493207 232.4576065716
225.3753605373 150.8760109012 213.9963184368
232.6661641298 70.3043740774 254.6967218507
205.4344528431 104.7252813561 213.6755029714
223.5361315148 68.6340667526 242.5232401743
203.8168309876 133.8977051417 221.7192799859
221.3017563202 145.5487633050 209.7234934785
217.1250959816 81.4194106195 209.7129627234
215.1845590320 137.7345589531 223.1408433183
211.4504427106 74.3031579023 261.9796685888
197.0178150910 110.2800126917 228.5500401539
227.9131546501 141.3763404954 218.4285683337
226.9193658785 77.3250533368 239.2646546108
202.2254372865 126.6972099338 238.1154404097
190.0895829991 114.2059005133 223.8509688783
236.4526334213 66.0044769496 251.3076376317
229.5373773230 80.7669287597 228.4244881460
202.2191680612 117.7910342413 229.2674237236
214.0339143282 129.4937373958 222.4190262008
194.5765762298 116.8222032735 229.9126161842
226.2464767935 89.4041708578 222.5151685627
202.8938792655 109.5264967028 221.4288963810
207.1940593551 130.6323996573 233.2261462177
219.6042181911 96.9119510059 215.3768621790
222.4851053832 76.5487061967 257.3742143064
213.3667984699 145.8328699622 221.4451785603
226.0722661793 77.1298766822 236.2157070796
213.1997627861 142.4830636557 221.5657315452
212.1754186066 96.2016631708 221.3939055639
198.6825487240 120.0268349608 232.6215851698
207.2784293875 126.4695717528 237.3464878595
206.4305856770 132.4655119486 222.1654588175
213.1338713760 138.3766793572 222.2904129755
202.2521474222 130.5570755042 222.7079710700
221.1846118798 92.7181540028 222.2055157091
215.4120394670 142.9874294335 213.0304367265
204.3508098969 136.5721636880 236.6841375830
198.2216205206 109.7424123765 226.9383566608
218.7074500359 139.2690161043 222.9633672069
233.5378251129 69.0217665600 252.9199852022
201.3781758988 107.6287689813 218.7643917252
211.1698638966 88.6521875309 210.1878248962
235.7926488603 79.3477610630 231.8195837650
211.8201489341 130.4933832726 238.1714986495
214.0339143282 129.4937373958 222.4190262008
215.8108413120 125.5565804043 231.0997612036
228.5918078722 79.7286086383 228.3395457999
229.4850977097 73.5334815358 259.2557609106
224.5699761729 79.8621357980 223.0053510578
230.4127291248 142.5186145640 213.4710953387
200.2857690137 105.4661358691 223.2388994221
213.8417740515 81.3877866424 212.2758435821
200.8122901290 107.6151034050 217.4423117158
202.4932878040 111.9020159852 227.3087376017
214.5520352182 90.5203655159 210.3634381617
207.9028509577 125.1356075119 244.7824654427
205.1368425472 105.4666248970 220.9887295353
215.8108413120 125.5565804043 231.0997612036
204.3617816428 134.5391592619 235.8037048467
217.5689984248 92.6166290671 214.1992408382
216.7337162067 152.0902874683 209.1053257689
190.3828434775 114.3436969259 227.0882742312
226.8951741415 77.6517751955 217.8798795568
201.1662926714 115.9293969707 234.2232482193
203.7559573243 118.7415262772 229.6718403761
228.7469849654 74.7572780731 229.8574287963
213.1116566512 132.0784129483 220.0667930808
220.6116689683 143.6968689381 220.6046816878
225.8955399569 141.3277257303 208.7435185260
199.0433327216 122.8546705737 234.0810714831
223.6247030980 85.7132841865 218.5410601474
223.7489519583 76.3766302645 217.3395539502
226.9764821995 138.1963121402 220.9233187642
201.7933755265 109.9269404290 212.4570012808
236.0890106946 72.1619408038 249.8318555192
211.6116692675 143.3819352462 213.4638376793
204.3617816428 134.5391592619 235.8037048467
213.3364705961 125.2770664782 231.3436856897
198.1858576845 104.6747484917 216.5072069890
196.9945207344 115.5530355396 226.0842389052
227.1694520421 83.4913101862 227.1570074705
193.6233702689 123.8128517418 229.8183117850
209.4887233581 132.9578996548 231.1163105953
218.4063010396 90.0679490873 216.5302087839
225.5882733562 78.6961818541 231.5834042324
223.8220086567 69.1349540964 244.3056183109
