189.7187715705 106.2191925444 264.6400581486
216.1553839731 96.1650398786 214.8762282346
209.3934528133 136.3469563352 234.9472645438
229.6093866567 89.8983683347 227.2957347218
221.1831523749 130.1236675523 225.4412609335
221.3583763005 55.2826960651 237.7653728763
212.0826823292 124.8754668040 207.5234890496
209.7490412960 99.8787782102 207.3238872710
205.5243599437 104.1608502607 203.5298421987
227.2988807292 63.1968682342 246.1008001034
216.1728201700 133.6515198845 234.9682654047
219.6137915303 130.0475910349 212.5331291455
215.0473347328 133.2603936911 214.3582200979
203.7459601957 113.7489086153 194.0046847434
221.9272040652 59.2862635782 244.4030493957
230.8447083705 71.0729336333 239.9464028998
218.9459050390 96.9456131720 224.6129363812
206.0242013693 131.1662442856 233.4976561382
223.1901723366 126.2853340752 229.0024310068
196.3160373774 112.4373446518 270.7889523890
209.0332494869 124.2599337418 204.2266136120
210.6569892429 113.1679376135 201.3620938073
189.4725487723 110.4059370609 262.7346340986
207.7981844247 107.6316739975 211.4829252580
211.0210821940 100.5202950933 211.2543511235
225.3406052003 85.5901427940 239.8889844564
192.4437429073 106.6921087848 263.1065574663
215.7378087893 135.3024161525 230.0252348391
198.5196531693 116.0451473400 254.2073523263
223.5399296976 62.7613239485 251.2112219687
206.5361653399 118.1956338041 205.6477045801
217.3284857175 130.0764973730 228.9692484399
217.2289463054 130.9087893541 205.4464255753
224.8552496420 58.0509430532 246.1676645501
225.4254372930 79.9038025039 240.3837526782
198.6432324712 122.7577273661 258.2580819403
203.7053152670 108.5097570922 200.5814536504
199.3226622190 116.8204627837 258.6916190008
217.6838960189 92.9135850548 223.0370286182
208.4899584058 127.7555247990 204.3521793478
217.9294315934 52.8990385087 249.9865621260
210.6555995586 126.8956325772 204.5592101703
224.3816698333 94.6264652350 226.9180225477
232.2370560386 74.4807568744 248.1030044716
224.9484481546 52.4939523407 243.6318684870
229.5797033965 87.9607485605 241.5291613046
225.3126288492 88.3188554447 235.5693871206
204.3881345680 113.1665866080 195.9709526726
221.1694401535 132.5477640318 229.6516366693
217.1173989120 95.9395587611 223.5129877990
208.5732859862 101.1071300999 211.2900003932
198.5466907275 118.4690986290 261.1887888806
221.9272040652 59.2862635782 244.4030493957
231.0911748491 89.4244906421 236.2249919417
229.8136707094 77.4380251982 240.1948336826
218.9958042843 94.5363605152 221.1615685429
195.3987971277 111.9637542917 271.5323333723
189.7627779381 114.2232649083 257.3826580062
216.3843394494 134.4369660776 229.5135132871
224.7912971346 60.0525331161 242.1715802856
218.2605255866 128.1298502518 227.3813766874
214.5515054937 103.3650882308 218.7498288641
212.3002195769 119.3884691615 243.0410292052
209.0364918288 131.4964310002 236.6897026317
205.0074166913 120.4276565212 197.9347378703
211.1503573870 119.4207362368 200.6454104183
228.8110458206 61.4798330311 244.5918463995
193.0290476571 108.3289548824 264.9787938575
220.8534020241 130.6390184769 203.2111090434
227.7493005207 81.6485577944 246.4271499236
217.7875928942 135.3115625291 230.9975412288
213.1265987424 128.4657087528 237.2342347405
231.0359004549 72.5214006215 248.7648663085
214.3730450303 130.5711424521 210.2125226232
221.4911761021 129.8052034514 212.8806728797
191.1066040827 117.4473610859 258.1335548617
205.9392932418 128.0817285099 202.7690319311
206.6181704585 131.2226971653 204.4966117678
216.0498045008 132.5368027248 237.5907820015
212.7554991356 53.4665932173 240.3121160470
222.6331662081 55.6794309192 237.2222984759
191.5041643862 113.8418164547 262.8147883163
231.0232038993 78.9648466537 249.3274503015
205.6433039221 122.1058363682 245.3459675903
209.3318919128 123.4707738192 251.6220975492
218.3815602304 137.3755602094 222.5723662211
194.6476386430 111.5199629825 256.6004821599
224.7020804143 75.4538509958 250.1597656191
192.9114812045 110.9517705029 258.7845098055
214.6521562975 103.8888160035 215.2344932475
193.3488903445 113.9541583104 268.6441462427
205.5387512586 119.9557549787 255.0003409386
223.9042268162 129.4372620299 229.2597505201
193.8546871269 106.5876506791 259.1372567058
219.8920605441 52.1748434073 244.7336438941
210.1354398152 112.8350287487 205.9794700854
207.3026848309 109.1306092079 197.7886922463
194.7666875988 110.6496655383 270.7856756240
207.4662745923 134.1109437336 236.7220003726
202.4895366833 113.8221726271 196.5415449446
216.4869173242 134.2090933930 218.4791377001
229.9185301714 83.5571403007 240.1230511739
221.3786305435 89.8300820697 235.5909608814
210.3744576858 111.3357795978 204.3481073004
214.0672826318 100.4061151480 210.9998576935
222.8001354714 56.8273873072 246.5272634094
223.8819420839 137.3191152450 225.2412812421
206.9044439468 126.3670300415 203.2584847283
226.5903963185 82.1417591236 246.3716463491
220.4204699840 91.1489912817 224.5695827173
215.9095010132 124.9191413945 206.8241782345
225.4208979622 88.6315393416 240.3364336773
197.1429599767 110.3768190382 259.8838694434
209.6361152266 106.3039058192 205.5288772033
217.4085577138 54.7052756075 250.2615803928
221.8345853222 138.2755360907 225.9854752206
220.1982055702 100.3298678004 216.6338597241
230.6943437008 89.8214988890 234.2626691851
216.7590139443 94.2315537111 223.6161064482
212.5867279090 126.6462928051 227.5645811705
208.9868727188 122.3018663620 250.9631881314
221.1192164003 132.0409122433 242.5694722407
214.8823573924 127.0920400918 244.4906376715
205.4830400020 120.5754442322 202.1081618107
190.5335985020 114.0920493911 258.7272659836
228.5252075888 78.0393697205 247.2634160285
216.2404589327 96.5534220323 212.6552286533
225.4183880121 86.2632325701 233.0060587423
216.8640004586 137.6825349184 212.2214904916
205.0881055555 117.7424302628 201.7120712023
192.5094063058 110.5143321470 267.5007014347
232.3362566442 77.8789433100 242.7265232369
205.9928742588 121.6912248612 205.7732703159
196.5256544459 111.2974708498 264.3324724222
218.9856608691 103.9498736148 215.8478408956
225.5363592251 85.5088278327 228.6148009913
213.4423659169 119.1784528956 241.0756942400
230.7985537361 65.7608110066 236.6568322071
216.4732949171 135.9807371750 207.7253684329
224.1340944857 81.6084482877 234.1686972823
233.7605261623 61.8690516533 240.2135356008
226.7509430595 74.1200181238 244.8997486587
225.3683126597 86.9229215068 232.3633332867
230.3623414922 71.6493522750 248.4058945825
207.8970345804 130.8563757429 236.8151209833
224.0022129984 94.9281482767 221.5469128543
224.4341935909 137.1228497840 224.3864210198
230.2850041500 67.2753215019 242.0521801321
227.7752058935 59.4787960541 246.0578133474
226.6724171649 84.5116978063 234.8641339961
224.9978291428 100.8704204389 222.5027856848
207.0396732517 113.5022763177 196.1584771876
223.9935995585 84.6783297358 235.7038111651
199.7857617234 116.8171666980 252.5607147979
228.4106876449 64.4142597164 239.4440014085
206.9895318958 116.8456890063 205.4364282578
215.9681903942 131.2167668747 213.5729664339
201.3788599054 115.1937486067 258.2131655913
222.0060159490 137.1057893322 220.3370496893
235.3353609787 69.8935980582 240.9498875633
208.5250339727 120.1690778713 201.6623850843
218.4391157452 135.5406972047 218.4841685199
209.1038219478 113.1622750723 196.3448356953
226.7748084640 100.0979605967 222.3526761516
217.4967240396 136.4213289227 223.7428423766
228.1088666892 91.6098120864 230.3606931785
217.9746999562 138.1306477613 223.4280902822
227.1592319760 63.2188562933 248.3862689687
208.0951939628 131.8121432370 200.4162161359
218.9407102654 102.2655379684 210.1397174857
191.5041643862 113.8418164547 262.8147883163
207.3215655157 109.3499283430 208.8744614658
203.7727283024 112.6343179109 200.5492025755
211.9226499541 130.1315084046 206.7706059623
229.5797033965 87.9607485605 241.5291613046
204.7224720308 127.1133280305 248.8914542553
208.5741997873 134.8137926592 233.9935228419
218.7504740470 132.8782444067 232.2296098526
226.0547228167 62.2115465605 248.1684922362
220.1008967943 88.7111133919 234.7095640680
215.4809579727 102.9301146941 210.3951500303
231.1676645204 88.4748546667 240.0106794584
216.8118160857 134.4887924506 214.9919056066
218.8412487513 137.4555875871 225.6453505998
209.5201999242 130.6370224198 202.6606810217
220.8041291254 101.5114527496 215.0762255596
222.8001354714 56.8273873072 246.5272634094
230.0420289616 60.6188281284 242.1731970197
220.3411942721 97.7688244036 226.6413824738
224.1479028311 86.8908133334 231.4374796274
215.5735520456 133.3676492792 212.2772439075
213.4746536214 121.0294811565 202.6125199190
191.1448537845 111.7513900119 259.6470979137
228.5306113763 79.3088851819 246.5083835324
230.0420289616 60.6188281284 242.1731970197
198.4601983754 112.7866646973 256.1631454152
208.5891012017 128.9375354927 196.0328845653
206.1229969222 124.6582002130 197.2609639987
212.3846049749 120.8926723411 239.8682635464
200.2136269128 120.8633383958 253.8682838394
229.4248260677 76.4819903902 241.3463375327
219.7627231476 96.2679464242 223.5909889523
202.5868538470 116.1002669039 249.9069314079
211.8556596517 102.5691767988 215.2392509327
217.2008883915 121.0579214775 243.5657941630
194.5526825194 115.9077066258 254.7391881004
204.0791550471 121.8538083643 247.1060855367
217.4806171543 129.9252161103 228.6370890019
230.5074084591 77.7114175442 250.7745990793
223.3049159664 128.5497832990 213.8421798478
198.9850149343 118.5694836785 260.9343119710
219.1735290792 131.7731566595 245.0523297240
220.4649796958 136.5017631759 225.4408855694
220.3855120512 130.8467802791 219.0371515331
212.8358837389 128.5212521142 244.2165422431
221.1651485828 91.7427548619 229.0027201108
219.1566139099 130.7415783051 230.7070418420
217.8375610878 93.0363103860 220.7010210033
230.1672166122 68.5444644825 240.5197237781
231.6071278761 75.6843943281 246.5273350279
206.2480564155 120.3278069990 252.6843128299
214.6521562975 103.8888160035 215.2344932475
206.7192016742 126.2863626515 201.5133196167
194.3794652546 114.3667430180 261.8304621932
210.9428577648 125.9093203161 229.9263874069
211.0060651399 124.8105126089 248.1460350097
223.6650374660 132.0370499554 214.4712070676
232.1654591622 70.9281618793 245.3552449052
205.8977791433 125.7648724374 241.5506584308
213.6358146090 128.2027403024 238.1043441157
226.7165340673 89.7705343338 239.4783339974
201.1935446482 110.2049913931 194.8648879711
233.5993845759 66.0402751524 241.8869127014
227.5738215076 79.4472015764 246.8855636605
187.4912858510 106.2071184928 261.3002237643
211.1273520215 131.5045165654 237.3408689805
230.5074084591 77.7114175442 250.7745990793
216.6302108752 124.6981178384 206.2517859794
229.8782930185 70.1238046724 238.1230773641
224.0022129984 94.9281482767 221.5469128543
205.3404367093 130.1037284874 203.6152149544
193.8828912386 113.4488553574 262.9263912613
234.8797930951 61.9288618341 239.4333052889
220.3136337744 124.7584611307 205.6057210240
223.3633659997 91.5590279429 223.4146705828
219.7137200920 129.7941358683 203.2107510673
209.7425147127 116.5667137897 197.5046849911
224.9484481546 52.4939523407 243.6318684870
221.7827471838 61.3680437639 250.7701684640
212.5591061173 126.8730330634 231.6071619452
219.8032358630 139.4239720291 226.8867564334
219.9416347996 129.1748401862 210.5543235041
227.7164728620 84.5777921023 233.8810768779
217.3885933089 137.6936526400 208.7909198833
221.8113866334 88.8634409650 227.7678760995
208.8409019512 112.0616315166 203.9447038488
212.1191684983 129.7686100576 240.6135371739
227.4453977337 88.9166465154 237.6495116522
234.5388460707 69.3023511254 243.8492575815
204.8986605451 126.0526199419 241.3448737464
218.7683563964 128.9526647349 212.1969632147
202.4895366833 113.8221726271 196.5415449446
220.1865431805 133.5191272020 207.2797279473
207.5843398821 126.6896792272 199.2623443928
210.0817022887 109.6457444526 205.2039371005
214.2400687027 100.4278659171 210.9352631101
207.8205379900 107.2135872064 212.2259678007
217.9765323927 135.6327985894 215.3491706895
224.3387722678 87.8726887787 236.5372275929
227.2652738136 96.1162728404 217.7305818805
203.4740077716 116.8089077548 255.5135609055
220.7043068214 129.6812320670 225.2501076844
200.6787402866 117.9078889783 247.6081633623
208.3980573659 105.2335374878 208.7230539055
206.7202892781 119.0943483136 249.8451939978
224.1507421356 84.8907100512 242.6409267158
213.1274223511 132.7058180415 232.5712960704
224.1321389445 59.6199575387 247.6702959740
228.5213549151 72.7063828695 249.6823195636
224.4569476635 84.0699959793 234.6231238905
231.0911748491 89.4244906421 236.2249919417
207.2224322206 121.4036888390 199.9981013755
210.1615488612 121.6992117623 243.7106635094
197.4841340867 112.5107615849 259.6572031601
230.0304934921 68.8256839616 240.0293820141
221.8449857829 58.7602964911 242.9285818271
193.7768531186 109.5762035484 259.7912831499
216.3694002804 125.0315748521 230.7201914361
218.3442154295 121.9739694152 241.0141195399
211.9689794571 100.0919297984 208.1651001405
203.6705782124 122.6822459513 256.4483338606
215.6951865754 133.1480989945 236.1294433172
203.6705782124 122.6822459513 256.4483338606
231.4624381352 72.4846221957 240.8087554990
195.0223940741 114.6263367479 265.6617500818
218.4524317926 130.9521738283 235.0018097049
209.1910401181 117.2997000296 206.2729014147
198.5466907275 118.4690986290 261.1887888806
193.2452713535 109.3971636965 266.7270461989
209.4973860672 107.7054157989 202.6300784162
212.1564075752 99.9462700128 210.0537127926
221.9545439890 90.2331187582 232.1758524124
223.7768561369 90.9433802907 234.5804590428
234.2781921597 67.0748778922 240.7835875218
219.8719587252 104.9557265524 219.3503405769
223.5399296976 62.7613239485 251.2112219687
215.5595688761 130.9100551871 223.5570623718
222.3573231704 132.4437072340 219.4250956372
210.4650575793 118.2021595368 204.2288943380
219.4919739215 54.5725633742 249.2536218922
212.1919272163 131.2099491349 232.3133305452
228.8110458206 61.4798330311 244.5918463995
220.5276967709 128.5914372753 224.7500169086
214.4288235646 132.5197850683 232.6733594204
218.2084307130 49.9354756207 245.1819561913
206.7584170705 101.1722493568 210.9284489037
217.5896604353 97.9030593705 224.5296492249
213.7744648281 129.8392066567 208.1666734443
202.8682656167 128.7049871658 243.2744537663
218.6833195363 130.1478258775 208.2624121609
217.5753224964 130.4218719969 236.7456018285
201.7919134440 116.9631095578 246.8440487067
216.6179223932 133.3378195920 236.9738854227
232.3958395710 88.4412012643 234.2018267729
210.9621487856 129.5545674893 200.6628661197
224.6546240743 80.0350160568 239.0391440707
192.4162367339 113.1373989239 268.0007959666
214.1078446400 54.6508968501 241.2449816439
192.7829179872 112.8180168672 256.9229419090
217.2359496155 134.1279371033 231.8886153621
227.8991907657 83.9106645601 237.2358424767
207.0078443363 125.5464866801 195.8355555766
211.0627873378 127.5243674059 240.5180452744
220.2017972673 126.3416719021 216.5206647089
210.6477227162 128.4089022827 233.0643992819
219.3020818709 95.5797137534 223.7102277590
219.0700775634 55.8743210368 240.0037690018
212.8913281382 97.6363418227 213.6224061095
220.3136337744 124.7584611307 205.6057210240
208.3980573659 105.2335374878 208.7230539055
201.8959294851 122.3707627370 247.8657225837
206.0242013693 131.1662442856 233.4976561382
212.1605420698 104.7296553823 208.8317552812
198.1508066680 116.0768112752 258.4826664568
210.3932031304 122.5421194668 196.7280301294
214.2972595409 134.3304503786 233.7277766587
235.0156355015 62.7475193968 238.5204881619
217.9058424883 55.1467191340 248.2045886829
216.5537608442 99.7094933130 211.6371265760
204.4028911963 129.1695556493 248.9653164896
217.3091974623 133.2906117158 226.6952428879
223.8945294858 80.8844964198 236.1737496288
231.2704600640 77.4474041078 247.7277303879
212.0845078530 103.3976682749 206.0461031202
228.4351347106 77.9851260632 250.6140096354
231.2942634069 59.3793598961 242.7426850615
225.5363592251 85.5088278327 228.6148009913
219.4001866765 54.5040743966 247.0645490060
200.2136269128 120.8633383958 253.8682838394
201.0971488397 110.1397005309 198.8349708125
220.9262282301 57.4744488375 240.7873035966
230.8447083705 71.0729336333 239.9464028998
207.8205379900 107.2135872064 212.2259678007
221.3264263142 133.3967808847 211.9780628308
214.2411218280 55.3364220237 239.7866844367
207.3583184931 130.2495411342 199.6794087658
207.9463589854 102.4531379881 206.5489619670
209.6416729936 108.4626878358 205.3410578076
217.8219639008 131.2199170096 206.1443614789
220.8169834122 132.4214057110 226.4346624670
215.3988794762 54.9173296845 240.5524081186
221.4044251682 132.6442658213 210.7817372505
216.9817900333 127.4903170433 212.1542821989
211.9689794571 100.0919297984 208.1651001405
198.9963706933 118.9806709476 252.8989860015
220.1011860002 93.6456997792 219.6403697983
209.4291366599 109.5613926956 204.1461760540
219.1903949507 50.3403149646 242.8198451685
218.4860954395 130.6113286195 235.5258925007
233.2940593025 74.3219472043 246.2230818975
215.0658576862 96.4539908523 217.0941959069
210.3998173337 125.2882699218 204.4788739069
225.8546020547 99.6453209821 215.9418643182
220.9938425441 80.1987296521 246.3848851337
214.9920059624 100.6065658835 219.2696146840
224.8311369959 101.8069771226 221.0303739795
214.0175753871 123.5641545062 245.1472601179
219.9759864897 126.5074820255 207.8484139943
206.8168471474 131.1069438475 201.6246342312
216.4509992218 52.3765796786 239.1523968758
196.0623110257 110.0106036620 270.3244003538
215.0233913070 135.0575845411 210.1082130516
223.6937208313 85.6155813980 236.5937224555
214.8853476804 53.6315882528 238.0501189039
222.5714392082 104.3224002081 213.2459932487
233.9533442585 62.1080035794 236.1089348213
222.9313432790 83.3187240781 242.6637782315
190.9420437122 108.9950718665 259.3268050495
213.6653183625 103.5636669898 215.8124339786
195.8073949903 113.5719318499 265.8809516956
202.2926110851 120.7803484669 257.4754231277
217.8295512456 130.9091905987 236.6416538610
212.2977449250 128.8323299871 206.9413239200
209.4417965169 119.5330419224 249.5098415176
223.7926637147 79.9782861044 235.1834945789
234.2466916396 70.8150757201 242.1822499172
225.4250567189 78.5746378899 241.0092840596
211.6107610604 127.1460394540 246.8681032207
216.3129141829 54.5104376497 240.1781655456
204.2430556353 108.5321782364 198.2683747040
228.0423759348 57.7269641164 244.6237245965
208.8409019512 112.0616315166 203.9447038488
189.3816329522 108.5967087396 264.6235292735
216.9642933071 55.3952483600 242.2875936428
226.3040105024 90.8715837970 226.0382663756
233.6986954486 68.6674920532 244.9307380146
208.7635899521 126.9207759911 245.0200888417
221.6030457314 131.6154338171 209.4625142015
216.5049381020 134.4945006346 218.2886751617
205.6512251843 120.3670908642 200.4216404540
224.7371438137 73.8544635711 249.7847280254
214.2400687027 100.4278659171 210.9352631101
216.8148718405 132.5324966034 237.7448000563
230.8739844128 84.6974415074 235.8508199336
209.9137915940 129.2479578663 202.6193843182
201.8179456499 121.1069092903 252.5451847268
211.6886636753 104.3107548169 210.7836551448
220.8486896424 103.6841541414 211.8225188941
233.7041994873 76.4374808996 245.3777559592
226.2492643244 55.6866034162 239.1182009897
223.0224695148 78.1908026389 247.3074535266
228.1519742584 81.1460404733 243.0775445782
225.0739788714 55.2774010240 237.4426719565
216.7705372234 131.3862189135 225.3941333002
195.8132105071 117.2653037672 255.4094796999
231.0359004549 72.5214006215 248.7648663085
216.1308239646 53.5863069296 249.3801835795
207.8398940745 121.9403228435 201.6926676257
223.0483223790 81.1203208989 237.3546547140
229.0129769158 87.4227999989 227.9121293711
219.5533594232 134.5893014271 212.1221007527
224.7648957323 80.8113295488 241.9343944365
230.5441732344 77.4486150537 247.0133441223
214.7829633949 127.5512455191 239.0699024436
213.0323534440 124.8928907045 228.8347778123
204.9008666937 108.0798697868 207.7595951995
204.9139601835 124.3760104259 245.9129689188
212.5160382567 103.7496680762 213.0962552482
209.1555486950 132.7170554237 237.1023330520
217.0502113979 129.8717318324 227.4319518265
219.2095393223 53.4613665622 241.5786241334
217.1835812933 135.6263072995 212.1476282573
205.3848050790 123.4908172342 252.8398625593
225.3174099774 98.8141928201 222.4289234505
202.5886758786 112.1557725988 198.9796098854
211.0725732997 129.2457499279 230.3405552062
223.2831979378 135.0949585622 225.0404865433
210.5038367199 116.5600291200 205.4170853063
229.6415726834 70.3321305892 235.9487756609
225.1121948321 55.9782057100 236.7300078645
206.6218769420 111.3953587038 202.2992116692
206.6889669639 103.6088938848 213.5859786802
194.5788865928 108.2926666240 261.5550368026
226.2825252251 64.9567876570 248.6342231433
211.7603175881 126.2031058311 239.5706889974
192.0177588826 113.7325437876 257.5478212452
220.8135487202 58.2342105073 244.9493073980
202.1096863022 114.6188433479 196.1658522076
221.3093039341 101.8807854378 210.6356781891
214.2356611757 102.2299646251 218.3793206605
218.5739999835 96.2091933997 216.2605882872
214.9452261975 131.9738917302 229.6447445436
204.4506786010 110.4397781660 200.7640888546
218.9963322768 94.0650237199 222.2362915555
219.6137915303 130.0475910349 212.5331291455
228.5709197923 80.5075478640 246.8175629483
189.0235189657 104.3324195592 261.2743151748
210.9080852152 127.6153415687 205.9827270001
219.4001866765 54.5040743966 247.0645490060
233.0770695297 76.7343493164 246.0664463748
224.3537897339 86.8009919301 225.6434944489
224.8628017564 76.5468866426 243.7003696305
209.0569736477 112.9480495286 205.2321449464
217.2673351046 125.5420198945 242.5700971381
216.4004026783 104.1145456765 217.0985736739
205.6596847906 114.0282751844 200.4830049029
221.7095541465 138.3515121737 221.2086470273
219.5079187160 52.0651990997 243.4762577844
218.9958042843 94.5363605152 221.1615685429
215.4667324313 123.8580130802 229.6175488424
208.7541694162 114.8162281061 201.1971711340
224.8311369959 101.8069771226 221.0303739795
218.4062124320 121.5230781682 242.3068905618
195.7114098715 115.0979456939 261.0312121057
223.2122996047 86.7238360774 237.3688430212
198.7075049507 113.6624018927 257.3579406666
216.5086105008 104.1876569636 213.4606015671
218.1464272633 137.4563534789 210.9980727533
205.7358912080 115.4529844618 201.8488618578
193.5977575699 114.5857888784 258.4379307008
221.7014723343 135.6729665686 208.8909116432
223.9456344512 87.4928783468 228.9579414518
203.9413477889 101.9705869316 210.7286455651
205.3379282950 119.7312414340 252.9780322393
193.8546871269 106.5876506791 259.1372567058
225.3408653403 88.4123553666 224.5448084551
222.5275401059 77.1129966185 247.1468943504
219.3166300144 127.7639030556 229.6779548126
204.7151171222 124.7843859755 249.9838886160
229.6360500148 60.5347469377 242.2344813770
221.4141429895 64.0794775385 243.8524823097
217.2873494721 130.6138014113 218.0170075543
213.4050659095 126.2579872568 196.7461432257
230.7439309740 69.1151390879 236.4146025307
218.4784689828 97.8402875142 214.6952688371
192.9704530144 109.9449265577 259.7507556219
215.1739921412 98.8605751380 212.8363048062
214.8853476804 53.6315882528 238.0501189039
215.8961302641 136.7600190202 208.6672620692
210.8366244831 119.9840195964 205.3661426367
222.5807944378 131.6043046818 212.2833365493
206.1229969222 124.6582002130 197.2609639987
230.8391491123 73.1189634669 242.2209867162
210.4812003895 104.7490962103 207.1170179120
213.4975952362 121.3074677312 204.0841162103
230.6576562210 68.1007672263 246.5864916890
232.6625327340 89.1090407992 235.5644149310
204.4675000295 118.9198416586 252.7509986971
189.0704183222 112.0236995438 255.0844143474
217.0923663352 57.6727895014 245.1951358256
196.8349328019 119.1953455166 256.8370885460
217.7343793373 102.9679960349 211.5168149019
217.5003839709 105.0243008677 217.0292748660
223.7284481926 89.9570889802 225.1848083156
227.1430240731 89.8628641545 241.1621911274
226.3571966396 64.5023859014 246.6225164176
229.4069045682 89.9302611661 230.6096778127
218.8797568594 56.3256751279 242.4233773051
207.4793375769 111.6530816863 202.0667659758
227.5149542880 64.0832935623 247.3882400994
219.1246209753 102.2406304455 210.4384382293
198.2122965196 116.3443326163 267.4778431317
197.4041775897 112.9664211859 254.3210254063
209.9680422278 123.2172973664 244.8983325161
210.3671167372 126.5735299262 206.7432919589
190.0355653575 114.0604939995 254.0366375641
229.2560095701 89.8622735474 235.8614972024
212.6655750885 129.8966680702 227.9545656377
215.1820699221 133.4176062625 228.9978009237
229.7518849966 80.7284625226 239.2206392875
233.0141267383 67.2953822408 238.0129047953
205.5679071647 128.2082543306 249.2276201861
213.7593756035 124.9016459186 246.8622635539
214.4693670120 53.7317476869 244.5142668326
213.3367122665 129.5093552540 203.1266093936
217.0274522953 95.5120173488 220.4120624428
217.5718288312 128.6312030160 238.4400099260
227.6835966701 74.9367775104 245.5430989348
235.0012837728 70.4261144538 242.5518208224
208.7088321979 127.1609152349 245.1791250321
218.4272741200 128.3180648595 231.3855890683
229.1756545092 81.9770870619 245.1209135708
220.2073612154 94.0109899613 223.9646524854
205.5679071647 128.2082543306 249.2276201861
226.5170328653 79.1005787636 237.6782882193
207.3986292945 125.5305167898 199.6699899510
223.9946508856 54.2964457364 244.5952979221
219.1246209753 102.2406304455 210.4384382293
226.8616044463 85.9181127747 239.0732151965
227.8091290472 86.5209062440 232.5837045641
229.6219403314 84.5489106266 238.6593168313
209.5395181621 106.0546211938 207.6387331247
220.9799357063 133.8236828060 213.1702540155
209.7216037189 118.2011610378 206.3371268002
212.0397505126 104.2802738737 207.6491457242
230.5431234289 71.9045613266 240.4571866963
210.6921084961 130.7274446069 200.8580297755
224.0022129984 94.9281482767 221.5469128543
224.4866768007 138.7886544430 223.5446318646
215.1177578030 102.9270229977 216.6061152351
198.3882131432 113.8679343397 265.9223750524
214.7858609350 103.5494108970 212.0371272127
207.7352992845 102.0397912907 204.1185905189
208.3171662978 108.7261398084 199.2194100568
212.3208256357 125.4655353748 230.1841449510
228.6318625924 74.7950486426 250.5128151973
221.9209551360 100.9681138671 218.0573340787
217.6951828871 130.3194887036 244.0645752909
217.2008883915 121.0579214775 243.5657941630
209.3375258391 127.8475744114 204.2361899752
220.6795082402 131.4298501637 222.3921714178
217.0557542359 130.5207877920 236.8726857001
216.1807150130 134.1639981704 211.5118792647
216.2404589327 96.5534220323 212.6552286533
211.1825341681 119.5787207427 241.0913406964
219.7786719358 101.1558734506 215.3638294988
223.9925644187 84.0012798744 243.9326266541
212.6778217477 127.6956949680 245.4078392631
224.8836583673 85.7450527949 238.9019958226
196.6538141862 111.4007184707 254.4066033917
201.1770842039 117.1520504218 258.6031555506
231.5125278709 62.5100188422 235.8885635438
223.6497151836 126.3701676818 228.7394010513
230.8543511687 87.1895327259 238.1438851453
191.6418431307 105.8936313191 263.9971855334
197.6999038373 111.8724459843 256.4451990294
206.1771534853 120.1716469272 245.7101727909
211.4558693854 135.7043664616 235.6219914040
204.9729095282 107.6954988317 198.1124921937
215.1080875187 132.9977506700 208.3200333802
206.4257932737 109.2414353436 195.4952248059
219.7524117907 52.1968314663 247.0191127595
187.0824992694 108.6332361447 264.1836516608
210.7913281153 119.6040749562 201.4404917180
216.3973535955 133.7841095189 228.9633119209
210.2550662031 126.7487140304 242.2146654243
216.1387067647 97.4308522353 220.2816515651
229.4491104858 87.9823156646 229.8709643645
220.9689407473 135.3093825876 219.0002029769
231.4893258072 61.3736098638 242.7713828781
224.6000142910 86.7145932542 242.2798549189
213.4316315300 130.6180035776 241.1434124748
199.6486312710 119.8059853575 253.2105353697
215.4722553245 102.9556365033 211.1453874633
208.9039760751 111.0435221284 199.9426032112
232.4954208528 61.3387234652 242.0808221231
225.2833974376 92.3002201477 230.6758711581
219.7990726189 128.8853710922 217.8030998449
219.2495456981 91.6585691644 224.1393076916
231.4624381352 72.4846221957 240.8087554990
217.7642285343 129.7867312004 224.6643924517
208.7468761884 109.1502601714 199.6214079301
214.9548436597 128.8645939329 212.9377805775
204.9403889311 111.9338027145 192.9000030431
207.7022857159 127.7651662167 199.1429482413
230.2276913403 76.5332047787 247.3549302725
214.7057412380 128.0007354800 204.3698725078
211.5319042762 128.1237899688 196.6916727469
203.5091296309 104.1870627393 211.0297499613
202.8682656167 128.7049871658 243.2744537663
212.4840959657 100.8311453867 216.6016272747
225.3298270898 59.1692659302 241.3037707811
197.3435472199 116.2170359478 269.0672095307
217.9439561351 138.9219478667 225.4457408901
217.8155258778 130.2201276748 238.1893306600
207.1110342144 123.2049029822 201.2409157948
227.7520359743 78.4329054283 248.5718553009
195.0968793005 109.2793516412 262.4126348790
206.4257932737 109.2414353436 195.4952248059
221.7462023310 59.0509698939 245.5926576742
208.0114553133 119.4425010948 250.8566347170
194.7775071560 107.2638346198 260.2358137536
194.7185353462 108.2706785649 259.2695679372
227.9274915895 82.0017906466 242.9793974386
207.2647692080 124.7289851032 249.9946962593
192.5094063058 110.5143321470 267.5007014347
216.2601539103 122.9263811519 238.9704088856
219.1975136711 56.1876022740 242.9243861373
200.0295227216 122.1569407313 257.9431532475
216.7153832900 138.2931826961 209.6210037710
224.3061849254 126.8307087186 215.7523430383
217.7881511151 97.3647201437 223.8472104964
214.9878740825 104.2845283295 214.1963256384
205.6555650522 114.1611672330 197.5366621010
216.0509070253 134.0125289473 235.1314155494
214.2218133055 126.0254092470 245.5648267949
208.3955188461 125.8755932940 243.3123307189
205.8130718502 125.8380406372 247.6507949046
209.2369921179 131.9010796254 198.4351645916
217.6877764801 131.8062779674 222.3348271396
212.2045345166 126.4813918476 194.4473019105
194.8487475387 109.3817469306 266.3205937999
227.9444080707 85.6332145606 237.2764242542
223.1759226036 59.0737024234 246.5813301031
209.9909109255 106.5500457977 212.0006865165
226.8235364264 71.4388126458 249.4381487497
224.6328141541 136.0940177798 223.0671979708
214.9088881560 52.4561284841 246.6072737172
213.3360267543 104.6494925384 208.8850259240
220.7407905848 102.4625714058 215.5826176254
195.1796831118 110.8415900345 263.1544815763
216.1186246255 125.6079480790 244.8071194421
215.6363015407 135.2849621922 241.7719802824
212.6690606122 123.7486356856 199.6971371164
222.0205896775 99.3144502764 222.0352841527
227.6835966701 74.9367775104 245.5430989348
201.1935446482 110.2049913931 194.8648879711
203.1229290311 103.8546103870 212.0463674615
218.4522326348 126.0627783919 217.9118036531
220.9799357063 133.8236828060 213.1702540155
212.0397505126 104.2802738737 207.6491457242
204.7431059019 130.1696498466 248.7448086334
203.6681808187 116.0087153479 254.4139380488
220.8488494545 124.7276867338 229.3356768435
200.1877234254 118.7116758497 251.1998259440
229.4886108768 83.0348985991 237.4807337904
216.0579783132 95.8211839457 225.7109736751
206.6035836188 112.2281615079 205.3245187414
226.4156271039 83.7473869948 234.7999655830
224.9978291428 100.8704204389 222.5027856848
218.9958042843 94.5363605152 221.1615685429
231.9685479995 65.0324139171 236.3544163945
222.0310073229 88.9817944373 226.1618712515
215.7776827398 94.4859950054 225.7972842696
201.3527393938 117.7503745310 251.4621296406
218.1404401059 99.4217592876 220.8337843776
194.0214184969 114.5144811981 267.7384702966
222.5345904265 134.0543666973 220.1024820503
214.9536185784 99.8633200022 221.3656070214
206.2377630129 123.7375665855 196.9160054404
223.0772660268 82.2883644094 242.8670752036
229.4903625329 89.8979720466 234.8823334864
203.2157291711 122.7572867939 255.1316181089
223.8956520095 63.6257612176 250.2131930994
218.2605255866 128.1298502518 227.3813766874
201.6811246187 120.8079304726 258.6113526731
189.2629369647 115.1907459151 256.5713604440
219.0503597146 130.2072187141 212.6603016022
198.9228431807 116.9661642901 248.2128576892
212.0810348713 129.0626069258 211.6970359472
220.9855776043 138.7123705058 226.7589380650
228.9109001633 90.3262751619 232.1244468311
201.4504826731 115.3329473744 247.8588460034
224.5597200816 90.9502852930 224.6964278715
218.0620877529 125.9800789029 241.6162645221
233.8506195329 63.7088207155 238.2581844653
230.5431234289 71.9045613266 240.4571866963
218.7214717988 55.1374226104 242.5067789049
187.3951569605 106.7916166428 263.0026667667
195.6054003770 115.0331355757 259.9779701690
212.0397505126 104.2802738737 207.6491457242
224.1907489277 77.8130209619 247.4290725299
230.0304934921 68.8256839616 240.0293820141
223.0100653308 129.7915870491 205.9566691670
228.1375439618 70.6144003887 241.2856254853
194.4939898919 109.1846025416 268.9053269062
221.3073118678 100.7249047928 220.3211965304
225.9817446817 77.2652380425 250.7063834304
204.5739463407 107.7116213897 206.0171283506
209.9478268403 118.1655442590 202.6346522242
222.4377628039 134.0000322620 224.7043206126
217.1518372775 95.7345041560 217.1213078174
192.5094063058 110.5143321470 267.5007014347
215.2152673969 96.0670422462 216.1011603321
227.1542836492 61.4432277306 245.1937955318
197.9019572227 116.5259618297 259.2984125431
229.9643403494 76.6694381377 247.0223498882
225.4029765809 83.6512418188 243.2104147577
203.7053152670 108.5097570922 200.5814536504
218.4583175028 98.8351032127 220.0617444453
219.4433521691 128.0209411394 218.8011276127
207.0167340732 113.6389655126 202.5207208566
229.5629090288 68.6778897333 243.1632262293
226.4156271039 83.7473869948 234.7999655830
218.7788505371 128.5167317631 209.8277316110
220.9917799478 77.6815243683 245.2263239322
210.5198545147 99.7475646573 208.6684958786
224.4866768007 138.7886544430 223.5446318646
220.6268556473 98.6168652225 223.7036280592
219.9416347996 129.1748401862 210.5543235041
233.9421382085 66.6054851785 238.9967773265
213.3917408710 123.6740666022 200.2536359558
200.6685893713 121.1453431804 247.9696510242
230.4137634940 89.4431665757 236.6272230872
220.2246000324 61.4390888605 249.1251539796
222.5378165014 98.9094438465 218.9121125007
229.5897902589 81.5227893380 241.3765422522
224.7020804143 75.4538509958 250.1597656191
215.6506776089 126.4541024643 231.5576481708
209.8014865226 115.5598698445 198.4709308075
193.8828912386 113.4488553574 262.9263912613
216.0049274738 98.1152151921 220.1541182405
230.6026234066 74.4006859385 242.8179214696
222.7411114024 96.4716683510 225.3173738097
220.4204699840 91.1489912817 224.5695827173
210.9080852152 127.6153415687 205.9827270001
226.0136536241 75.7820026081 244.1374143663
231.6670639681 84.3734251782 239.7809740238
212.4187598820 127.2489632219 245.6825122219
219.7699340786 52.4826400164 244.3215355200
226.6192226906 63.8655339074 241.5409120839
202.6161793992 122.9392261250 251.3740249748
221.1831523749 130.1236675523 225.4412609335
205.3120095773 111.6651254451 205.2507264014
212.3253132300 127.2604588694 240.2284374671
221.2675264044 80.4246488238 244.3510435316
224.0985171232 85.4513645105 242.4659401299
218.7214717988 55.1374226104 242.5067789049
213.0894813475 124.6778003756 247.1380765091
213.8573678908 52.6952612675 238.7901348550
221.5393300853 80.3455951324 244.5921735437
218.3275158879 131.1320957450 214.0429857935
210.0885829876 106.2283847090 207.6018544744
220.8534020241 130.6390184769 203.2111090434
204.1130047892 120.5116481726 245.5238142832
212.3540039261 128.5938738809 240.8245290655
207.6929260405 105.2411850636 202.4784171147
201.0547887946 113.2010559044 193.7464062431
217.2259386755 132.1923105685 218.6077974441
224.5214280868 129.4244874578 216.1923774596
206.3723609824 129.1838274777 243.8426379308
218.3275158879 131.1320957450 214.0429857935
223.5027463821 88.9705029866 226.1753106250
209.5098120926 105.8196988965 212.6063004801
229.1307165797 86.4065345554 237.9952832962
214.0108176293 133.6338072832 238.8697430556
200.6934233276 111.4757168585 194.8204596191
219.4080543609 97.5203289617 215.3417048541
221.3606915438 132.3298600615 217.1225308571
215.2470270823 129.5735106880 204.9305754077
196.6356182121 110.3811170330 270.7150901547
217.6694770583 129.2123030253 215.6825539802
218.9146152885 129.5023342970 230.0182827507
216.4545666810 127.2537891024 233.0182009958
219.9460687790 126.5268042675 231.0031769229
209.6164511797 130.1813640790 236.2986420431
220.9546416773 53.3550711887 238.9653505741
216.2498761986 131.4751435652 237.0870515867
234.7970458543 67.9648597130 242.1342541455
221.1831523749 130.1236675523 225.4412609335
207.7981844247 107.6316739975 211.4829252580
217.5128291752 136.8628356731 228.8496388410
221.4044251682 132.6442658213 210.7817372505
211.1917948461 121.8955297571 240.1974881852
210.9580610168 127.7214931073 227.3615187620
216.2925388044 103.3012389518 212.1731604695
216.2650622276 131.2724261128 227.2187102169
213.5652234678 124.1511750630 239.7479518722
226.6513121536 88.4832283737 233.9823557678
193.0349554453 107.7665509554 264.4313273950
200.2816979854 115.0445674968 271.0208040716
219.6781135634 127.6504168427 218.3992448193
218.5199825027 128.4180958991 213.8715332032
212.9705348552 104.4278773252 211.8009174610
213.7966004633 127.3645438036 212.4772330379
224.6913132416 82.8683473044 246.5605436827
195.0001364502 113.4124015776 265.1776525951
195.8318327022 116.9125295528 259.3923242818
221.6645921274 132.5027884048 220.4428684832
220.1978787311 130.1116224475 217.7400860581
194.1512300398 112.9821390243 262.2171575954
211.2628522890 127.7869168311 194.9690171232
198.1809094594 113.8841923066 256.6757560243
223.9721228958 99.1490640310 219.0820650936
222.0166661830 126.2765526451 216.8822161983
208.3775269519 130.2286591298 231.4660970173
229.7161979179 91.2008757575 230.4170079571
211.0099233734 101.4121917230 204.5273492912
204.8784507889 118.5540340843 252.1397231787
204.9881191094 114.4575173767 198.6141232672
209.4987460465 111.6678874843 200.9015462677
222.4628903779 132.5417672628 220.0023835855
190.1096100160 107.7683302526 264.0230941228
209.7425147127 116.5667137897 197.5046849911
220.7043068214 129.6812320670 225.2501076844
219.3020818709 95.5797137534 223.7102277590
211.4355557941 129.5679855336 228.8391052502
219.8493851066 135.8037035673 213.8859007726
197.0637444594 109.2865799106 268.0765726641
217.5896511097 58.1142330279 243.1381441156
212.9023453538 129.2157434785 227.2054867972
205.0232257921 131.0543887359 235.5743763530
219.4016569060 97.9211049499 219.9023469426
207.8398940745 121.9403228435 201.6926676257
211.0627873378 127.5243674059 240.5180452744
226.6192226906 63.8655339074 241.5409120839
221.0821533109 65.6737792477 245.3490918299
223.5399296976 62.7613239485 251.2112219687
224.8803194983 94.1398115118 229.1543741965
229.2623877554 83.0705153778 241.1832083663
196.7125589802 113.8238219080 269.7134596182
206.9289589337 121.4860595422 201.3030372673
206.5186463847 127.6329218312 201.5986360506
210.3049222530 118.3258099366 200.3092444875
206.8007705568 126.6552798412 242.2742224866
221.4768657760 53.2328829134 242.9029482109
209.0380191039 135.2406139465 237.6974060303
218.1958929746 95.8005984519 216.1382506992
209.4501150602 122.3945208640 249.2449317226
207.1524855843 125.0874188057 250.1570202260
232.1743773338 86.6930079229 239.6918282990
218.2632555357 136.3778666433 212.8368664617
210.1752307727 128.3633724167 197.0819188761
194.2337811591 112.9250556104 271.2700296758
235.1552842548 62.7255313378 236.2350192966
205.3379282950 119.7312414340 252.9780322393
221.1226596073 95.7239054263 225.0302039359
227.7752058935 59.4787960541 246.0578133474
201.3527393938 117.7503745310 251.4621296406
207.3317578496 121.6161263513 252.6838878013
212.9023453538 129.2157434785 227.2054867972
205.3830773342 119.4828330340 202.3226201158
219.7390989499 132.4572232043 230.9984298686
191.9442271106 111.8256865509 256.3251589778
220.9855776043 138.7123705058 226.7589380650
190.6741628721 111.1183004941 260.1643246982
199.2036670681 113.7950258872 256.8097877094
222.5548082926 92.9597432803 229.9613170306
195.5264955812 112.4195815539 264.2072643559
219.6361637366 56.0504140875 246.8598679609
216.4823528953 129.0582069346 228.2531476911
229.9185301714 83.5571403007 240.1230511739
209.9076392690 110.0897949684 205.5137380768
212.6479108505 121.6099961014 244.2059903189
212.3871568632 121.3422310922 198.2826067934
218.4784689828 97.8402875142 214.6952688371
193.2452259974 114.1587346810 258.0278116413
216.0579783132 95.8211839457 225.7109736751
227.2162264535 98.9075938386 217.0813191775
210.6972720860 105.6355142223 208.4044590096
216.5575911721 92.6906291470 224.5415719552
221.3470075645 98.5926457053 218.2795359385
221.7048834395 100.0816958553 216.7698929811
220.9869516259 88.9157001414 227.1449283696
219.3012671072 135.2742550044 231.0996295913
233.2966313720 72.5756184141 236.8756724339
216.6179223932 133.3378195920 236.9738854227
231.2679419033 73.8914637736 242.5991499864
226.5108488178 95.2934640661 219.8557606005
210.6569892429 113.1679376135 201.3620938073
210.3492833145 118.7997501589 206.7334489543
200.6787402866 117.9078889783 247.6081633623
226.4653378832 56.5730287442 240.4056409858
207.8634330463 110.6695798656 196.6279626147
209.3375258391 127.8475744114 204.2361899752
220.2161384072 89.0469136943 225.8003197620
206.1920220984 115.9568521991 204.7411857533
235.0822751837 61.8969690027 236.1193621980
231.3891938603 71.4469571589 239.1653043015
209.4033651133 128.1351008095 203.9897221284
197.2005304873 113.7724972730 254.6626898508
210.2487485042 126.9418382026 248.1381597816
214.2859492538 98.2493567107 218.3499082214
217.1348315229 129.1907544114 215.4774838070
216.9834865515 99.4997363044 221.3676060834
203.3464266965 117.6754262411 256.5510931746
212.3339377503 126.8402530444 198.4554263995
209.8474287005 109.1414160326 204.7157473350
212.6288398136 102.8848673320 215.6044463203
197.4810533459 111.4760433330 271.0512560856
221.7412927335 132.8598965948 224.2647533538
219.9661084574 126.1586121719 216.4863640330
215.7787337570 95.7245785037 218.2337817355
229.8903821365 64.7494462337 235.7910673287
206.5145211849 124.7446797137 199.8741224685
211.8871094060 120.3594610849 197.2126948170
222.9604277188 56.8703390201 240.7202132226
207.9457053490 128.4150182731 198.1882910169
207.1524855843 125.0874188057 250.1570202260
191.5354361489 110.2894879020 268.0017602388
205.5535919315 117.8039608049 246.6396739118
230.5261243122 84.7105777670 232.3672151346
223.5115586162 135.1652528101 222.4454166972
223.6497151836 126.3701676818 228.7394010513
222.3673593771 134.1728613773 218.4370641353
210.6434854732 116.5380410610 203.1316164409
216.3920274119 53.3834236238 238.1861510594
223.9510047566 84.9282934083 238.2586455464
208.4177390920 130.3679159494 197.4814228897
233.3339779325 63.1394052334 235.5979146527
211.8474389765 103.9636377269 203.1230937967
230.7995515767 87.6314489380 231.5975682846
196.6356182121 110.3811170330 270.7150901547
192.7698590525 111.1009224657 253.3931581062
211.6359430997 133.4573208494 233.9045383825
213.4535542674 51.8596289868 239.1881835469
205.0881055555 117.7424302628 201.7120712023
224.5214280868 129.4244874578 216.1923774596
201.4198462859 112.8206411526 267.5036423058
221.3006078478 92.4235851985 220.6115516234
203.9368446624 115.2437317134 248.3541728129
217.1683812899 50.1259446400 248.5675205249
220.1545297284 94.6051680174 224.0424788554
222.2335693139 51.9975224299 240.6097348226
231.3294318739 76.4405601627 248.6939762042
213.8193375228 123.3283964148 238.7500376082
230.5709475111 70.4720747264 239.3197482833
219.6781135634 127.6504168427 218.3992448193
223.5244235526 64.2091113242 249.8104608524
202.7854646561 111.9514061131 192.8865129746
219.6687387505 135.2612441383 215.4676226247
225.8669174514 80.3461198232 237.8708063442
221.9769384919 131.7639791734 230.1491254429
212.5160382567 103.7496680762 213.0962552482
206.6218769420 111.3953587038 202.2992116692
214.6340377437 101.9195476211 221.4394692556
224.7648957323 80.8113295488 241.9343944365
233.5982797381 68.2229396807 237.4530802823
205.1564606276 112.8202207263 194.1874441407
227.7868749528 76.9352200415 247.1345589951
215.1177578030 102.9270229977 216.6061152351
228.5298669933 88.1004695444 233.7641617176
221.8198229361 126.9199243795 215.2570162287
213.7128383975 123.9012464704 204.5241506316
208.5593762838 123.6313567570 243.4245323529
204.8870495979 121.9602121434 246.4249384999
201.6006306392 116.7520474411 252.9222662873
206.0480356439 121.6327972705 202.7659102805
206.0674220787 119.1107699408 205.9781128784
229.5720587214 79.9692826540 243.2736416708
218.6473326219 131.1189911988 243.2270863379
209.5543821999 124.1933436217 204.1427079761
219.8268271628 136.2334920058 225.2073737002
204.1300534750 108.2110833398 206.4149865919
226.1548862871 52.3032258440 240.7572815549
215.5351794754 133.2208149253 208.4995228766
210.2504333401 125.7266967500 248.5582258216
192.3753441531 113.6869730582 266.2561498328
212.3005795495 104.2840862868 207.3335442177
215.7859322543 120.5758397653 243.5128239150
218.1025970530 97.9706732599 221.0597722131
217.6292323766 128.0907405141 227.9335898188
214.1850862857 49.5321502333 239.7119330189
207.8906841590 114.3987672117 204.5601270653
220.4955743025 99.6282434200 211.5347831491
221.7618093196 124.7295884557 231.8289329316
212.9454875851 54.1974343477 240.6447830151
211.7552741657 126.2161680310 245.6402712755
223.1331189084 81.4965927381 236.2454174972
214.3741909566 134.4757554044 243.9239970085
209.9917156270 109.8986880694 207.4267267265
218.4524317926 130.9521738283 235.0018097049
233.5982797381 68.2229396807 237.4530802823
218.6833195363 130.1478258775 208.2624121609
197.1429599767 110.3768190382 259.8838694434
208.3291156733 135.1501404124 236.4610458568
206.5186463847 127.6329218312 201.5986360506
233.5327237539 59.1238105567 239.7478046937
222.3330519238 87.5740707930 235.3844960077
194.9512603179 114.7891936591 268.9730035023
208.2358368434 116.8148857349 197.3686517341
197.3850871415 115.5851788677 254.5948620788
219.8579632115 53.5012066495 245.5619256018
230.1170794102 65.2131745521 237.8188166756
214.6340377437 101.9195476211 221.4394692556
226.6959698655 60.6402387547 241.6487672458
210.3744576858 111.3357795978 204.3481073004
210.1672150942 108.1858326130 206.6049994050
226.5108488178 95.2934640661 219.8557606005
209.5395181621 106.0546211938 207.6387331247
210.1796842313 115.7537446149 200.3532851187
224.7912971346 60.0525331161 242.1715802856
221.8198229361 126.9199243795 215.2570162287
218.9733236767 98.6861737184 219.3398464370
213.8560552572 130.6230264464 210.5214399491
235.1453190114 60.3285175366 238.3099374157
207.0396732517 113.5022763177 196.1584771876
204.0791550471 121.8538083643 247.1060855367
198.7772921615 117.4016856546 268.1355916014
192.2163251178 110.4161772493 254.5178182389
203.1064020074 108.8246930991 198.8599513409
218.6236843811 97.1487248969 228.7819895576
231.7216554209 77.7010007818 246.4553434794
196.5256544459 111.2974708498 264.3324724222
206.3845903026 103.8207314921 205.0270123070
201.1770842039 117.1520504218 258.6031555506
224.8486845004 79.7985296159 237.0256145878
209.0445803176 129.6383499328 197.3300664712
217.7205423103 133.9381586652 246.1861348170
213.1414914624 101.0192082539 208.1044098582
201.0932452309 127.1445676453 244.4500497644
187.6923588496 109.9905970495 264.2431965941
202.1338162335 112.9577426744 197.5395727124
206.0480356439 121.6327972705 202.7659102805
227.9834041249 58.7338080615 243.6574787801
212.4206062130 127.3678098595 195.7347430081
227.2066008493 64.8510586937 247.5897068934
223.7768561369 90.9433802907 234.5804590428
213.0098420520 133.5219517335 240.9464632705
221.0218903783 89.4163593718 231.5325021363
209.8579301090 117.4204555081 202.4904402446
213.1073501514 129.9590864035 233.7565585831
221.7520119410 103.2798786395 218.7407911153
213.5261005055 120.9761076123 243.5284703713
228.1517450732 75.3584735096 245.3396731992
