234.3182830811 222.7833862305 211.1459960938
265.5473937988 220.3198547363 229.2100067139
214.8116912842 237.5573730469 265.7899780273
214.4288177490 236.7840270996 261.1200256348
233.7359619141 223.3088073730 213.5167999268
242.5397491455 238.1900024414 204.5000000000
205.5772247314 241.8153533936 264.8099975586
265.4639587402 215.3399963379 223.3137969971
225.0586090088 226.5056152344 247.1576080322
201.4482727051 262.1033630371 269.0360107422
205.2420654297 247.5180511475 268.2120056152
243.5302886963 234.6998291016 210.4949951172
223.6718597412 232.8175201416 233.8519897461
226.2689666748 233.7892608643 219.1689910889
199.5939483643 263.2699890137 265.8738098145
221.7621307373 234.6769409180 255.2031860352
224.8186035156 229.5856170654 213.5776062012
253.8646545410 224.0723571777 224.1600036621
227.4797515869 235.0700073242 245.0100097656
250.5516815186 227.0573730469 204.3500061035
233.8649902344 229.9569244385 217.7453918457
261.6125793457 214.0399932861 251.4880065918
205.1367034912 262.9597473145 267.4100036621
260.3840942383 226.7028503418 231.5000000000
203.3040008545 267.0921936035 274.0699768066
206.2686004639 249.3956146240 271.8475952148
201.0740661621 278.8628540039 275.3099975586
200.1483917236 260.1479492188 266.1160278320
197.0482635498 254.3672943115 269.0610046387
226.2155761719 224.6959075928 220.6389923096
205.6038055420 242.8071899414 270.4812011719
216.4157562256 226.3759155273 231.4929962158
266.6507263184 218.7366485596 242.0360107422
199.0588226318 274.6940307617 281.9600219727
219.6539916992 232.6522064209 256.3799743652
223.1567077637 239.3897399902 245.2899932861
240.7843017578 232.8740692139 210.4423980713
214.3616943359 249.4673767090 267.7599792480
214.6199951172 249.9952392578 264.3574218750
204.0089721680 259.8692932129 262.4590148926
218.2159576416 226.3888092041 240.4568023682
221.2716674805 230.1193542480 230.5104064941
265.8082885742 211.4833831787 243.3560028076
209.1997833252 234.1957092285 263.2218017578
229.7640686035 226.8328552246 219.2500000000
264.4136352539 217.6369781494 225.2796020508
230.2289581299 230.1881713867 218.5469970703
218.5446624756 227.8623504639 236.9100036621
199.1607360840 267.1900024414 271.1225891113
253.7108612061 227.7929687500 225.0999908447
197.7165832520 280.3117065430 274.5657958984
210.8562927246 232.0287017822 264.6949768066
260.2867126465 211.0197296143 252.0299987793
209.8914031982 239.4100036621 262.7388000488
206.4182586670 246.8972930908 274.8110046387
217.6888275146 225.3240203857 230.4799957275
200.5213928223 266.3200073242 268.1087951660
212.8440704346 236.4728546143 260.7200012207
234.2539978027 222.5722045898 211.0899963379
206.6017608643 247.9367980957 272.7810058594
221.7659606934 229.4788055420 244.9268035889
258.9521484375 226.4569396973 223.9231872559
255.5140686035 223.2928466797 227.4700012207
254.5817565918 235.7468109131 220.5910034180
265.4116821289 214.8593597412 251.3504028320
202.9179229736 272.0476074219 278.1170043945
210.4546661377 243.4723510742 265.1500244141
247.0227813721 232.2790069580 214.3961944580
251.7989654541 225.2592620850 224.3190002441
205.0418701172 239.0075225830 263.3619995117
243.4740753174 236.7328491211 211.6999969482
212.8742980957 238.3240661621 263.2723999023
202.3288269043 251.9340209961 271.0100097656
219.3489532471 237.0081787109 259.9069824219
220.0918579102 224.3275299072 233.5419921875
210.6338043213 245.8372039795 270.7112121582
259.6338195801 206.9371948242 253.3612060547
199.6297607422 272.9800109863 272.9700012207
218.4389648438 231.1292572021 221.0989990234
198.9862976074 248.6186981201 265.6549987793
264.6174011230 216.9998626709 242.6199951172
193.1925811768 263.6400146484 265.6279907227
218.5897827148 235.4357147217 247.2317962646
203.1417694092 263.4268188477 265.5109863281
262.0620727539 206.9104003906 251.8370056152
253.8699951172 221.6808471680 227.0899963379
212.6892089844 234.8875885010 262.8381958008
258.6682739258 220.8733825684 224.6259918213
267.5316772461 216.1473693848 232.1600036621
258.9336242676 228.3869781494 226.3795928955
220.6340789795 227.6528472900 225.4099884033
220.5497589111 237.4700012207 243.5299987793
251.4446563721 224.8323516846 212.2700042725
261.6136169434 214.7869873047 238.4995880127
215.3997802734 239.5457153320 263.4118041992
218.7482757568 233.9533843994 248.4660034180
219.7516937256 223.8273773193 233.0399932861
215.1182708740 232.3933868408 247.1860046387
242.5325927734 237.1900024414 203.7579956055
267.3099670410 216.2652282715 223.6973876953
265.4467163086 218.3797302246 255.7599945068
263.4385986328 214.2256164551 255.8076019287
199.8682556152 241.1873016357 266.4109802246
260.5708618164 211.8729705811 253.3499908447
240.0838012695 231.0171966553 216.9111938477
250.8586120605 233.6256256104 224.7476043701
236.2518615723 225.0875244141 209.6619873047
204.9921417236 271.1969299316 271.8432006836
214.7263031006 233.3386993408 246.3150024414
258.0440979004 230.4528503418 214.2299957275
231.1916961670 226.1873626709 213.9799957275
216.6451416016 228.6900024414 241.2730102539
204.9365844727 253.5416870117 271.0458068848
216.1516876221 229.7973632812 219.1600036621
204.4116668701 275.7393493652 275.7703857422
232.6966857910 224.9199981689 211.6119995117
232.3234710693 226.0830535889 211.5659942627
218.8208618164 234.2029724121 258.0599975586
221.9036254883 231.9669799805 219.8395996094
216.7740783691 237.5828552246 257.9600219727
203.6727294922 263.1001281738 264.9490051270
208.1184692383 249.7362823486 264.9997863770
228.9452819824 229.8369293213 223.2340087891
248.6182708740 225.5133819580 205.3059997559
217.7214050293 229.5599975586 220.1788024902
224.6759643555 224.7388000488 245.7968139648
262.1914062500 214.3300018311 237.7987976074
239.7899932861 226.7452392578 211.9373931885
210.5440673828 241.4828491211 266.7400207520
258.2399902344 223.7652282715 221.0473937988
257.9866943359 207.9900054932 247.8020019531
266.1087951660 210.3240203857 242.8300018311
213.7346649170 227.7023468018 220.1999969482
252.1333923340 228.5998687744 218.4326019287
205.1532745361 259.7781066895 263.1840209961
198.8159637451 254.7588043213 264.5968017578
214.9391326904 239.5958557129 256.5639953613
198.5274200439 278.3998718262 280.5399780273
262.8208618164 217.7529754639 241.3399963379
200.1486053467 273.2955932617 277.1575927734
208.2847747803 233.5653228760 268.0909729004
224.5082702637 234.0033874512 243.4459991455
214.6333923340 240.9098663330 254.2226104736
204.4152832031 260.2969360352 273.7239990234
266.2016601562 205.3873748779 247.0200042725
231.2046661377 226.1223449707 213.4900054932
213.4620666504 237.0780487061 252.7120056152
246.5059661865 225.7888031006 208.8768005371
270.4074096680 222.4398651123 234.1699981689
202.2316589355 274.8293457031 276.2503967285
217.5540008545 226.8122100830 224.2500000000
229.5588226318 229.0340270996 221.7399902344
202.0697784424 250.9557037354 271.8417968750
260.1697387695 226.6499938965 222.7000122070
198.3072357178 262.7553405762 266.0099792480
263.0572204590 225.6353607178 224.8300018311
221.9564666748 227.2212371826 233.3300018311
206.8397521973 245.4600067139 265.0199890137
212.3246612549 228.7523498535 220.5399932861
196.8934783936 275.7130432129 280.4359741211
204.2036285400 242.4169769287 265.8296203613
202.9827270508 275.5001220703 275.5390014648
209.1674194336 242.3098602295 265.0599975586
261.6816711426 209.8393554688 248.2904052734
262.9282531738 213.6573028564 243.1210021973
217.0914001465 227.6000061035 241.5187988281
255.3802947998 223.5898284912 227.4149932861
230.0697479248 226.5200042725 243.4000091553
222.8374176025 228.1698608398 210.0899963379
209.1036224365 238.2069854736 267.7796020508
268.6286315918 214.4717712402 246.7959899902
204.8340759277 257.8628540039 266.2700195312
256.5408630371 230.5629730225 213.9499969482
201.3197479248 261.1099853516 270.7299804688
202.6139984131 268.3922119141 270.5699768066
217.8339996338 235.3022003174 247.0000000000
219.4919281006 223.7889862061 243.0380096436
205.1379241943 262.2276306152 267.9469909668
213.3840026855 233.1222076416 248.6300048828
251.5982818604 226.9633789062 211.4459991455
227.4797515869 235.0700073242 245.0100097656
251.5819244385 224.7689819336 212.1980133057
204.9516906738 271.5373535156 271.2299804688
201.3267059326 268.5097351074 270.2400207520
261.2933654785 215.1898651123 251.0526123047
259.0582885742 204.7633819580 247.8359985352
262.3266906738 209.3600006104 250.0220031738
243.0772247314 228.9953613281 213.0100097656
264.8022155762 215.9798736572 232.5199890137
266.1716613770 217.9393615723 242.6504058838
227.7743072510 233.8140716553 218.9624023438
259.8997497559 221.6999969482 223.7799987793
203.2799987793 253.5752258301 262.0474243164
218.3513946533 233.2799987793 233.3787994385
193.4082794189 261.6533508301 267.8859863281
218.6317596436 235.9568023682 235.4110107422
258.0938110352 226.6384735107 220.6913909912
224.5992126465 230.9375915527 241.6582031250
271.9989624023 216.4081726074 233.5070037842
209.1708679199 240.3629760742 267.6900024414
250.5516815186 227.0573730469 204.3500061035
266.6240234375 212.6722106934 241.5899963379
225.5043029785 233.1240692139 218.0623931885
215.2520599365 237.7003936768 250.8269958496
216.3840789795 233.2028503418 224.2299957275
234.1555786133 226.7159118652 218.1289978027
258.2740173340 205.0022125244 247.8099975586
245.3772277832 237.9353485107 205.1100006104
197.8886260986 256.0617675781 267.8460083008
259.9097290039 204.5099945068 247.0400085449
198.6833953857 267.7598876953 275.8125915527
242.9040679932 228.5528564453 215.2500000000
221.3821411133 236.8369293213 255.6531982422
223.5131835938 228.1145782471 236.1279907227
217.1686248779 240.8317718506 256.2060241699
251.3167114258 230.4597320557 208.7400054932
219.3540039062 226.9222106934 233.8300018311
232.3717651367 228.0467987061 208.5510101318
225.6774291992 231.0998535156 211.2299957275
200.8489532471 276.1481933594 280.4570007324
262.8374023438 214.6798553467 227.1399993896
261.5214233398 211.7599945068 249.9687957764
265.9636230469 218.2169799805 238.7195892334
262.1582641602 216.9633789062 228.3560028076
254.3467102051 232.6997375488 219.3800048828
206.1539611816 243.3500061035 265.5038146973
197.0191345215 263.7958679199 270.2139892578
220.0918579102 224.3275299072 233.5419921875
254.3197784424 227.3557128906 209.3417968750
211.4817657471 247.5868072510 264.5910034180
213.6587524414 238.3860015869 252.0785980225
216.7634735107 234.7530517578 253.0559997559
213.6252899170 246.1469268799 269.9639892578
197.6239624023 264.7099914551 265.1337890625
264.1387939453 214.5740203857 229.3199920654
251.6997528076 228.1999969482 210.7000122070
224.7166748047 230.9799957275 241.5319976807
234.9489746094 230.8192596436 209.4389953613
199.4757537842 239.9159088135 263.0029907227
212.9072265625 250.0653533936 269.0799865723
211.3567047119 241.2397308350 264.2600097656
267.7316589355 218.0973663330 230.9600067139
227.5633087158 227.9726867676 219.9479980469
226.4388275146 224.2040252686 246.7399902344
252.2436218262 227.8369750977 225.8896026611
269.3240966797 217.7728424072 237.5800018311
196.5087432861 256.8359985352 267.5485839844
221.9220581055 225.8303985596 236.5970001221
273.5021362305 219.5769348145 232.8831939697
214.6021423340 245.7769317627 267.2232055664
223.3947753906 225.8453216553 236.8309936523
228.9452819824 229.8369293213 223.2340087891
202.3034667969 259.2130432129 266.5159912109
257.0900268555 231.1608581543 222.1199951172
209.1036224365 238.2069854736 267.7796020508
222.5106964111 233.7310333252 248.3302001953
239.2042999268 231.3640747070 209.6824035645
227.4897613525 230.3500061035 241.4900054932
222.6988220215 227.8040313721 234.8699951172
202.8216857910 249.0573730469 268.3599853516
212.5607147217 241.0266571045 266.0759887695
204.5432739258 240.0381011963 263.0340270996
201.0636444092 255.9378204346 268.4240112305
203.4572296143 270.2753601074 270.2899780273
232.0522003174 225.4398651123 214.4400024414
217.8859558105 230.0487976074 234.1068115234
222.5040740967 231.1828460693 235.4899902344
221.2027740479 231.9989929199 244.7061920166
243.2591247559 232.4758605957 212.1739959717
210.0086059570 239.0056152344 262.6575927734
205.5772247314 241.8153533936 264.8099975586
270.0892028809 213.0975799561 237.1481933594
257.9566955566 228.7597351074 224.3999938965
263.6965942383 215.6716918945 249.3957977295
196.7659606934 251.2888031006 267.7668151855
248.7686157227 230.3317718506 207.3059997559
225.2667083740 238.6397399902 246.6999969482
200.8908691406 264.3329467773 272.2200012207
240.3762969971 226.8087005615 214.7050018311
212.5607147217 241.0266571045 266.0759887695
207.5816650391 253.9893493652 270.5103759766
265.5489501953 211.6381835938 239.5769958496
256.4663085938 225.6186981201 212.0249938965
216.6759643555 227.3588104248 225.3768005371
255.2782745361 227.8633880615 217.9960021973
220.7436218262 239.2269744873 244.7195892334
201.8239898682 259.9021911621 271.2899780273
197.9533081055 260.7026977539 271.0979919434
212.5167083740 250.6797332764 270.4800109863
200.2686004639 240.6656188965 267.6875915527
258.2172241211 230.8953552246 211.9900054932
262.9427185059 209.5301055908 247.9089965820
261.6174011230 213.7498626709 251.0200042725
209.2816925049 247.5173645020 270.0799865723
224.0655822754 226.0059051514 232.4989929199
224.3886108398 227.0656127930 214.4275970459
231.7697601318 226.8699951172 212.0900115967
214.9789581299 248.3581848145 267.5870056152
232.6946563721 224.5923461914 215.3600006104
208.3620605469 236.6480407715 263.3820190430
248.9046630859 224.2923431396 226.0200042725
205.5732879639 260.7481079102 264.0140075684
247.7267150879 230.9697265625 213.0399932861
212.9667663574 234.6920166016 250.7946014404
270.6466979980 222.1297302246 237.1300048828
213.9643096924 247.9640655518 264.7324218750
208.8336486816 238.9978179932 262.6540222168
210.4813995361 238.2799987793 257.4888000488
245.2064666748 230.6312408447 211.8099975586
197.1086273193 276.9317626953 278.0559997559
219.5988159180 227.0540313721 226.7299957275
259.6489562988 228.8981781006 212.9969940186
201.1921386719 275.9169311523 279.1632080078
266.7818908691 213.4575195312 226.6219940186
239.6097869873 233.6557006836 210.2518005371
268.5167236328 218.8597412109 241.4900054932
209.2816925049 247.5173645020 270.0799865723
253.0779113770 226.1276092529 228.1569976807
219.0213928223 230.2599945068 220.5388031006
267.2888183594 212.8040313721 242.9899902344
214.0040740967 238.0328521729 267.1900024414
262.7582702637 211.1133880615 238.0459899902
212.3914031982 239.3500061035 256.8088073730
203.8843078613 261.3240966797 261.9524230957
208.2274169922 234.8898620605 266.7899780273
201.8239898682 259.9021911621 271.2899780273
232.0522003174 225.4398651123 214.4400024414
260.1314086914 207.7500000000 245.5688018799
233.1008605957 230.2829742432 214.8099975586
224.1316680908 237.9593505859 247.4403991699
239.2042999268 231.3640747070 209.6824035645
265.1686096191 216.5256195068 235.9076080322
263.4266052246 223.1316986084 228.9057922363
194.5747833252 259.2053222656 269.6309814453
252.3782653809 236.6372985840 224.0210113525
215.3679199219 241.9576110840 263.2470092773
227.2272338867 230.7153472900 210.6699981689
272.3103027344 209.6398315430 247.4550018311
218.7808685303 228.9529724121 237.7500000000
206.8197784424 234.1957092285 269.2417907715
244.4249877930 239.7569274902 209.3353881836
221.3774261475 230.9398651123 220.1000061035
269.9414062500 218.5800018311 230.8988037109
219.3188171387 232.1740264893 255.7200012207
219.3540039062 226.9222106934 233.8300018311
258.1627197266 231.1201019287 213.8089904785
229.8063049316 224.2687072754 244.1450042725
246.5059661865 225.7888031006 208.8768005371
191.3617553711 265.8967895508 268.6109924316
203.3638305664 273.4384765625 271.3114013672
266.6438293457 216.2971954346 228.0012054443
203.3040008545 267.0921936035 274.0699768066
201.7033081055 276.6026916504 276.3980102539
223.1867065430 235.9197387695 234.9299926758
258.9239807129 222.9799957275 220.9038085938
218.5736541748 239.9978179932 247.5139923096
206.7886047363 246.3256225586 269.8375854492
241.4797515869 234.9799957275 204.6800079346
262.6572265625 216.6753540039 252.8800048828
227.2367095947 228.9597320557 216.7200012207
197.2317657471 255.4067993164 267.0310058594
228.5582733154 224.5133819580 243.9459991455
219.8338012695 236.2872009277 251.6412048340
207.5764770508 239.5912475586 267.0500183105
224.1008605957 229.6829681396 246.5199890137
255.1467132568 230.2897338867 213.9100036621
229.3021392822 238.7769317627 245.6131896973
202.8767089844 256.9897155762 266.9800109863
260.1697387695 226.6499938965 222.7000122070
199.6779174805 276.8376159668 282.4869995117
216.0082550049 230.6472930908 223.9410095215
199.9697570801 270.4599914551 271.5299987793
200.2572326660 279.0153503418 271.6399841309
215.0797576904 235.3699951172 245.5299987793
216.3719177246 225.0589904785 232.2480010986
252.9746551514 225.8723449707 215.2799987793
218.0186004639 227.2656250000 246.8276062012
222.9388275146 223.5240325928 243.0800018311
265.4372253418 208.0653533936 245.9000091553
250.5762939453 222.5287017822 224.7250061035
218.2159576416 226.3888092041 240.4568023682
269.6208496094 219.5429687500 238.2299957275
204.5432739258 240.0381011963 263.0340270996
217.8816680908 240.6493530273 255.3904113770
232.0586090088 229.6056213379 211.3576049805
263.7191162109 217.9958648682 234.7039947510
209.2108612061 246.8029785156 269.7500000000
199.9497528076 241.7599945068 261.7899780273
251.5136566162 231.3778228760 215.2039947510
235.4842987061 228.2940673828 209.5923919678
239.5527801514 226.1390075684 215.0061950684
264.7239990234 204.4222106934 246.4600067139
264.0897521973 207.3899993896 245.6200103760
228.5979156494 238.5076141357 248.3170013428
221.3189544678 235.9081726074 254.7269897461
229.5067138672 230.4197387695 217.5099945068
250.6636199951 226.2869873047 225.2395935059
214.5067138672 237.0697326660 247.9499969482
218.2863006592 225.0187072754 241.5850067139
219.3639526367 236.4600067139 245.3137969971
225.1592102051 229.6975860596 231.4881896973
252.3157653809 225.2759094238 210.9730072021
259.7140197754 225.2622070312 229.5400085449
224.1918640137 233.8475189209 234.5319976807
261.9717407227 229.7768096924 227.6809997559
198.7814025879 277.9599914551 271.5687866211
226.6143035889 230.6840667725 241.8224029541
205.9192657471 245.0191955566 268.0442199707
203.9632873535 240.5680999756 261.9340209961
264.9616699219 210.8973693848 239.1000061035
256.3939819336 222.8399963379 220.6638031006
210.0439910889 232.5122070312 264.4899902344
200.1708679199 269.4929504395 276.0700073242
260.6497802734 224.7767486572 223.8300018311
264.0267028809 229.5297393799 227.8499908447
257.7672119141 233.4253540039 219.3800048828
241.3402862549 226.9998321533 216.7350006104
218.6936187744 231.9769744873 221.8995971680
245.5416870117 230.5673675537 208.3800048828
202.7046661377 261.7323608398 274.7000122070
263.9688110352 210.0140228271 254.5999908447
221.3774261475 230.9398651123 220.1000061035
265.4707031250 221.5866546631 232.7160034180
202.7042999268 267.4140930176 268.5624084473
228.2608642578 226.9429779053 218.9700012207
214.3294067383 243.5525360107 261.1340026855
202.4740753174 261.7428588867 274.9500122070
220.3989715576 237.2392578125 253.5089874268
242.5397491455 238.1900024414 204.5000000000
256.4817504883 230.7868041992 212.5910034180
269.0497436523 215.9100036621 230.5200042725
208.1057586670 233.3259124756 267.7229919434
222.1502838135 234.4598388672 237.1250000000
222.9321441650 227.6369323730 229.6031951904
216.8427886963 227.3690032959 236.3961944580
248.3388214111 225.3340301514 205.9100036621
240.9146575928 234.2323455811 206.0800018311
230.2289581299 230.1881713867 218.5469970703
214.8486022949 234.3456115723 252.3475952148
220.8527832031 235.7489929199 260.5762023926
243.7816925049 229.6973724365 213.4700012207
261.2157897949 214.5859069824 239.7129974365
225.1720581055 225.5003967285 217.7070007324
254.5299987793 224.2108459473 213.1500091553
264.8663024902 209.3887023926 240.3050079346
219.9640045166 226.2122039795 223.4499969482
219.2551422119 232.6199951172 232.6430053711
238.6440734863 233.2928466797 214.1799926758
201.4967651367 275.9120178223 271.1846008301
222.0059661865 228.2488098145 219.6068115234
226.5357666016 229.4559020996 218.9530029297
240.7843017578 232.8740692139 210.4423980713
230.5739898682 225.3122100830 243.9600067139
262.5186157227 216.3156127930 255.9976043701
266.4888000488 210.9940338135 249.0099945068
251.6521301270 228.1669311523 210.1431884766
252.5425872803 226.0399932861 209.8180084229
258.8716735840 228.7073669434 214.0099945068
222.7283935547 239.1279602051 245.3059997559
230.2621307373 231.1869354248 221.8731994629
224.4767150879 233.7997283936 244.0000000000
223.5192108154 237.1075897217 248.7182006836
263.9882812500 210.1033782959 239.8459930420
205.7306976318 243.9510345459 270.1302185059
243.4797515869 234.0800018311 205.7100067139
265.5489501953 211.6381835938 239.5769958496
210.3339996338 236.8822021484 258.5199890137
200.3566741943 254.8699951172 261.9419860840
233.0704650879 228.6669464111 218.1473999023
199.4140014648 277.1322021484 271.9199829102
197.1836547852 264.7278442383 268.3940124512
227.3314056396 227.6499938965 242.3688049316
225.1592102051 229.6975860596 231.4881896973
216.3633880615 230.2398681641 232.8726043701
257.7489318848 233.8581848145 220.9969940186
267.0655822754 213.8659057617 225.9989929199
222.5936279297 231.1769866943 218.6996002197
232.0586090088 229.6056213379 211.3576049805
208.7438049316 250.1271972656 276.7112121582
196.7659606934 251.2888031006 267.7668151855
204.2399902344 237.0608520508 265.8900146484
206.2318572998 258.2175292969 264.6119995117
264.2546691895 215.1923522949 243.1799926758
244.9867095947 238.5497283936 206.5099945068
215.8982543945 234.1273040771 253.2710113525
256.7294006348 235.1825408936 221.6439971924
266.5787963867 211.3840332031 244.7200012207
203.2799987793 253.5752258301 262.0474243164
199.8666839600 258.0000000000 261.4419860840
217.5846557617 232.5023498535 255.1600036621
255.8182830811 226.0733795166 209.1860046387
248.5391235352 231.2458648682 213.8840026855
198.3147888184 263.0553283691 265.9009704590
242.4466857910 232.3200073242 205.8020019531
250.9219207764 222.2389831543 226.1380004883
200.9067077637 243.0497283936 263.4700012207
250.6440734863 225.2728424072 227.1399993896
209.5988159180 232.7540283203 267.9100036621
204.6164703369 238.7612457275 269.0100097656
229.5800018311 232.1352386475 221.7973937988
200.8533935547 260.9998779297 263.8226013184
204.8007202148 254.5766448975 269.9759826660
205.9537963867 241.3771972656 269.9912109375
272.0049743652 222.6069183350 232.8653869629
252.5834655762 224.4130554199 227.9060058594
222.1579132080 236.3576202393 237.9369964600
202.3772277832 241.5853576660 260.9199829102
261.2933654785 215.1898651123 251.0526123047
262.2586364746 218.1317749023 239.6660003662
197.3997497559 258.0000000000 263.2399902344
222.5033111572 238.5526885986 248.2180023193
241.0640716553 232.2428436279 213.8399963379
213.3152923584 235.4569244385 260.0939941406
207.2521362305 263.3169250488 273.1731872559
215.7259674072 227.3988037109 232.1668090820
222.5033111572 238.5526885986 248.2180023193
199.8988189697 276.2640380859 281.6600036621
218.2188262939 226.9440307617 225.6499938965
216.4272308350 236.0453491211 245.8099975586
207.3167572021 236.6720123291 268.4745788574
267.3099670410 216.2652282715 223.6973876953
272.0738220215 219.9071960449 237.5211944580
264.0399780273 208.5452270508 252.1174011230
256.0816650391 229.5893554688 224.1404113770
265.2608642578 214.8929748535 249.4099884033
215.6382598877 228.8872985840 234.5510101318
216.8433990479 232.5298614502 228.1426086426
229.7979125977 229.0276184082 245.5469970703
220.5374298096 232.0198669434 232.1000061035
213.1757659912 234.0059051514 247.5330047607
219.0516815186 238.9973754883 253.7899932861
223.7239990234 227.3321990967 243.8300018311
209.5233917236 235.6898651123 264.3725891113
223.4616851807 227.3173675537 242.7599945068
262.9822082520 207.7898712158 250.7500000000
256.3939819336 222.8399963379 220.6638031006
200.0888214111 261.3940429688 271.0299987793
221.7621307373 234.6769409180 255.2031860352
205.6416625977 266.2693481445 272.7203979492
216.7908630371 237.0629730225 261.7799987793
260.5320739746 220.5680389404 227.1420135498
254.6736297607 229.7469787598 209.6396026611
264.9791259766 217.5058593750 242.7640075684
200.2372283936 259.4953613281 263.9400024414
211.1866760254 239.5200042725 257.3919982910
249.7906951904 232.0510253906 213.9701995850
198.7074279785 279.3998718262 272.1999816895
252.3251495361 232.1399993896 220.8730010986
255.5046539307 224.4923553467 222.7799987793
199.7888183594 259.1340332031 270.5400085449
256.9316711426 231.4973754883 218.0299987793
268.7526550293 213.7967987061 245.5429992676
233.0704650879 228.6669464111 218.1473999023
225.4397888184 239.2257080078 246.6217956543
263.5889587402 227.3881835938 225.3769989014
214.6739959717 228.8321990967 218.6000061035
234.6016540527 227.8893585205 214.9204101562
216.6282806396 235.2733764648 252.9759979248
258.2208557129 206.8129730225 253.3000030518
256.2982482910 229.7472991943 214.6210021973
259.0719299316 204.1189880371 248.2680053711
258.1733093262 206.2226867676 252.9380035400
265.9933776855 210.4898681641 247.6426086426
219.5089416504 239.4258270264 259.0620117188
239.9267120361 233.6697387695 211.5399932861
267.2874145508 219.1998596191 234.4000091553
252.2500000000 233.3752288818 210.0074005127
224.5838012695 231.0671997070 246.7411956787
261.6964721680 206.6312408447 253.0599975586
260.6740112305 225.4421997070 223.2600097656
209.5659637451 237.0688018799 259.7568054199
204.7631835938 253.6045837402 265.2879943848
235.7089691162 231.0792694092 211.6089935303
263.3051452637 216.9400024414 253.1029968262
252.8937988281 224.9472045898 227.9611968994
218.4451446533 236.2599945068 253.1029968262
239.1492156982 225.4075927734 211.0381927490
206.2552947998 237.4369201660 267.8040161133
268.5167236328 218.8597412109 241.4900054932
258.9841003418 222.4728546143 227.8300018311
271.3532714844 217.8581085205 230.6840057373
254.5579223633 236.4776153564 224.4270019531
222.6499938965 238.3652343750 247.5673980713
205.0499877930 251.3252258301 268.3474121094
223.1274261475 234.4998626709 221.8000030518
221.3097534180 232.8399963379 232.0100097656
255.4738006592 234.3672027588 223.9311981201
215.5172271729 230.7153472900 218.3200073242
208.0355834961 248.8359069824 276.5690002441
243.2082824707 229.5933837891 207.5059967041
205.5272216797 262.3453674316 266.0099792480
203.0782775879 267.3833618164 273.3460083008
261.4872131348 209.5353546143 249.3400115967
222.7046661377 237.4723510742 242.9600067139
224.4521331787 228.0469360352 242.0431976318
266.5040893555 213.0528564453 252.0199890137
267.0655822754 213.8659057617 225.9989929199
263.8083801270 220.4779663086 227.0760040283
197.7459564209 274.0987854004 273.3168029785
196.7659606934 251.2888031006 267.7668151855
205.2604675293 251.9669342041 272.2974243164
268.3764648438 213.7912445068 239.9000091553
269.1738281250 217.6071929932 237.4512023926
197.7459564209 274.0987854004 273.3168029785
230.4938049316 228.6071929932 218.6811981201
200.5222015381 256.4298706055 262.1699829102
199.9986114502 253.8556213379 270.8775939941
205.4799957275 275.5752258301 273.3874206543
264.4908447266 216.2829742432 244.0199890137
221.6526489258 236.0167999268 248.7429962158
198.8213958740 257.0400085449 261.7088012695
214.8040008545 227.2422027588 219.3600006104
196.8646545410 274.9623413086 274.6600036621
262.8374023438 214.6798553467 227.1399993896
267.9321289062 218.2869262695 230.0731964111
232.8908691406 231.1929779053 211.7699890137
196.5767669678 253.0420074463 264.9445800781
205.9438018799 264.0871887207 275.4411926270
223.9372253418 229.5353546143 241.5400085449
257.9255981445 226.4759063721 222.1289978027
258.3359375000 225.5588073730 229.5167999268
216.5367584229 231.2220153809 230.9546051025
271.3532714844 217.8581085205 230.6840057373
255.6340789795 228.9828491211 216.4799957275
217.5551452637 226.7700042725 240.7730102539
223.5439910889 225.9022064209 209.8099975586
262.9282531738 213.6573028564 243.1210021973
199.6016540527 259.9293518066 265.5103759766
219.6267089844 235.5797271729 252.3800048828
226.2188262939 234.6540222168 247.2299957275
265.1867675781 216.7920074463 224.4645996094
198.8136444092 266.6878356934 268.2640075684
213.1272277832 237.8053588867 263.0499877930
256.1140136719 222.4721984863 223.9799957275
212.9400024414 243.1808471680 266.8399963379
265.2440185547 212.1222076416 226.4400024414
201.1620635986 272.0003662109 270.4769897461
206.4182586670 246.8972930908 274.8110046387
244.5146636963 228.8623504639 211.1900024414
262.6689758301 228.7192687988 224.1589965820
249.5246582031 227.9523468018 212.6600036621
221.6372222900 230.2853546143 239.3200073242
269.0140991211 214.0028533936 249.6299896240
205.8092651367 250.3091888428 265.8341979980
229.8972320557 229.8053588867 216.1100006104
259.3446655273 203.7623443604 248.4400024414
204.9449920654 276.4169311523 275.3054199219
210.1536254883 239.9969787598 258.8496093750
267.8192138672 212.6275939941 254.2381896973
254.4738006592 226.4971923828 228.6112060547
253.2536468506 231.8578186035 216.6239929199
235.1427307129 231.9701080322 213.6389923096
269.1643066406 216.6040649414 240.1224060059
208.8343048096 251.8740692139 267.3824157715
214.8527832031 233.5590057373 253.0961914062
204.2297515869 241.1399993896 264.5299987793
225.1789703369 227.5292663574 209.7989959717
231.7697601318 226.8699951172 212.0900115967
216.5546569824 235.9723510742 260.9400024414
253.3479156494 234.7176208496 224.9469909668
230.2689514160 235.5981750488 246.5269927979
216.0146636963 236.5523529053 251.4799957275
255.1026000977 232.9900054932 218.7879943848
266.5328063965 219.9490051270 236.2462005615
200.5222015381 256.4298706055 262.1699829102
220.1617584229 237.5568084717 235.5010070801
262.5674133301 218.5998535156 254.5899963379
263.4063110352 210.2387084961 238.7649993896
237.8540039062 229.2221984863 209.5000000000
249.5508728027 223.6929779053 226.3799896240
245.1621398926 236.1469268799 206.8931884766
249.9997863770 231.0157012939 214.0218048096
233.1846618652 223.0323486328 211.9299926758
246.7716827393 232.9373626709 208.4400024414
252.2921905518 225.7098693848 213.2899932861
211.1182556152 247.0973052979 270.1609802246
242.5555725098 226.4459075928 212.1490020752
249.5517578125 225.8168029785 225.1310119629
201.6079101562 249.5376129150 269.5669860840
265.8978881836 215.3176116943 256.3970031738
267.2322082520 212.2898712158 243.6999969482
222.2886047363 230.5556182861 223.5276031494
215.6189727783 242.5992584229 259.9990234375
225.1792144775 227.1475830078 231.3481903076
206.5588226318 268.6140441895 276.2600097656
240.8786163330 237.1817779541 206.2159881592
220.7920684814 229.5580444336 244.4420013428
201.7766876221 265.9700012207 267.6019897461
234.1599884033 230.5852355957 207.4373931885
225.0586090088 226.5056152344 247.1576080322
263.5921325684 223.4769287109 227.1331939697
264.1892089844 212.4775848389 237.9581909180
254.3467102051 232.6997375488 219.3800048828
261.0897521973 213.6699981689 252.0200042725
199.2140045166 248.6322021484 265.1299743652
251.8074188232 226.6398620605 211.7100067139
204.4152832031 260.2969360352 273.7239990234
208.5966796875 244.6999969482 264.8320007324
205.0833129883 253.2026824951 271.0679931641
204.0274200439 242.1998596191 265.3699951172
211.1008605957 248.0629730225 271.6000061035
224.9182739258 225.1833801270 210.7359924316
220.4167175293 229.7297363281 231.0299987793
213.6516876221 235.9973754883 259.3199768066
230.7702941895 224.4598388672 246.1750030518
204.0625915527 265.3299865723 268.1180114746
211.4036254883 249.6069793701 268.1495971680
208.1933898926 236.7098693848 262.4325866699
257.2986145020 208.5756225586 252.4476013184
211.7616882324 243.3273773193 267.7099914551
240.2619171143 234.1089935303 207.1679992676
222.4046630859 230.1223449707 245.9100036621
262.1027221680 229.6101074219 226.1889953613
222.4055786133 235.9659118652 249.8690032959
224.6616821289 228.1973724365 240.2500000000
197.2636260986 263.9969787598 269.1396179199
200.6188201904 270.5540466309 276.0200195312
242.5325927734 237.1900024414 203.7579956055
205.5916595459 265.7993469238 274.0803833008
262.2820739746 216.3780517578 230.6220092773
267.0016784668 216.3473663330 229.8500061035
223.1949920654 233.0369262695 242.4253997803
256.6442871094 230.9140777588 217.5424041748
229.7238006592 227.3471984863 219.0811920166
209.3374176025 234.7798614502 264.7699890137
213.2852935791 244.4269256592 268.5840148926
217.2182617188 228.1072998047 246.2310028076
272.3072204590 211.0453491211 244.9000091553
214.6249847412 234.0069274902 221.8954010010
271.6379089355 220.3176116943 238.4769897461
222.2886047363 230.5556182861 223.5276031494
221.6152954102 226.2869262695 230.9640045166
264.5403137207 211.6298370361 254.7250061035
225.5508728027 230.3829650879 212.6299896240
249.3682556152 224.7772979736 227.1610107422
258.6446838379 225.7223510742 230.3800048828
218.2316589355 240.3693542480 251.9403991699
218.6322021484 226.6898651123 221.8799896240
201.1620635986 272.0003662109 270.4769897461
210.0552825928 247.8269348145 271.3739929199
255.3879241943 225.4876098633 228.2269897461
212.7167053223 240.3697357178 261.7600097656
242.0462951660 227.5086975098 213.3150024414
202.6921386719 276.1769409180 273.2431945801
264.6108398438 211.7429656982 243.1100006104
212.4972229004 234.7953491211 264.1499938965
212.4972229004 234.7953491211 264.1499938965
224.5582580566 225.7472991943 214.8610076904
197.1086273193 276.9317626953 278.0559997559
259.7140197754 225.2622070312 229.5400085449
263.9636230469 221.2878265381 231.6239929199
211.2133941650 236.4298706055 256.6525878906
218.9494018555 236.3625335693 252.1040039062
270.6466979980 222.1297302246 237.1300048828
218.0738067627 231.8571929932 224.9812011719
262.1582641602 216.9633789062 228.3560028076
225.0586090088 226.5056152344 247.1576080322
266.9667053223 219.0197296143 225.9700012207
251.5819244385 224.7689819336 212.1980133057
258.7251281738 226.3300018311 226.3830108643
227.9839935303 233.8622131348 245.5700073242
242.0152893066 227.7869262695 216.1040039062
261.5214233398 211.7599945068 249.9687957764
209.9479217529 248.3576202393 274.5969848633
214.3827819824 249.3890075684 267.4262084961
210.4038085938 235.7572021484 270.4912109375
233.8649902344 229.9569244385 217.7453918457
258.4042968750 229.4340667725 210.7924041748
206.2182617188 248.8972930908 275.9509887695
232.7274169922 228.9798583984 213.7700042725
204.5140686035 255.2728424072 269.3399963379
256.4049682617 230.1469268799 209.7253875732
267.7899780273 217.2152252197 243.4573974609
225.7636260986 240.8869781494 245.1595916748
218.2316589355 240.3693542480 251.9403991699
262.5621337891 222.1969299316 225.4131927490
246.6333923340 226.6898651123 210.8026123047
226.2155761719 224.6959075928 220.6389923096
214.3218688965 244.5975189209 265.4119873047
216.6846618652 237.8223571777 262.4000244141
206.3940734863 240.8828430176 269.8800048828
241.0027313232 232.5200958252 215.2189941406
265.9783630371 220.7879638672 230.8959960938
245.1367645264 233.4120178223 212.0946044922
199.1208648682 271.9729614258 276.3000183105
218.0267028809 240.5297393799 254.3499908447
262.0986022949 212.3756256104 254.7075958252
200.2372283936 259.4953613281 263.9400024414
197.4357604980 249.2859039307 266.8730163574
209.5051422119 237.7700042725 267.1929931641
219.9882812500 224.0333862305 243.0260009766
218.3489685059 240.0592651367 260.1889953613
212.9316558838 240.1093597412 266.6503906250
229.4716949463 230.1073760986 242.6100006104
196.4813995361 261.0100097656 265.1387939453
228.1262969971 234.1986999512 245.7149963379
199.6382751465 248.0933837891 266.6759948730
215.8257598877 227.6059112549 243.3030090332
250.3246612549 231.9523468018 223.8000030518
258.4042968750 229.4340667725 210.7924041748
213.5497589111 235.7799987793 246.2700042725
215.7233886719 241.0398712158 264.5625915527
213.1272277832 237.8053588867 263.0499877930
213.1882629395 242.1172943115 262.8410034180
207.5816650391 253.9893493652 270.5103759766
258.7289733887 230.2292633057 211.7789916992
248.5391235352 231.2458648682 213.8840026855
244.7227783203 238.3090057373 210.4861907959
202.3620605469 239.1880493164 268.2820129395
202.5516815186 248.6873626709 266.7099914551
242.7997589111 236.5700073242 203.7600097656
266.5328063965 219.9490051270 236.2462005615
202.7539520264 254.8200073242 261.4738159180
235.5389556885 226.1581726074 208.9570007324
261.2759399414 213.1188049316 240.0668029785
228.0951385498 228.6900024414 241.8930053711
212.6774291992 235.3898620605 248.9100036621
201.5136566162 267.3478393555 268.6940002441
225.4088287354 229.2340240479 222.6799926758
258.8716735840 228.7073669434 214.0099945068
245.5839996338 228.4022064209 210.3500061035
220.4537963867 227.0872039795 247.2812042236
266.2789611816 212.8081817627 241.4969940186
257.6438293457 227.2272033691 226.1911926270
260.5708618164 211.8729705811 253.3499908447
225.3838043213 229.7971954346 246.6611938477
199.2140045166 248.6322021484 265.1299743652
215.7308654785 229.5629730225 234.5899963379
205.9852905273 262.4369201660 273.1740112305
206.5721435547 263.0869445801 270.8731994629
212.0789642334 234.7592620850 264.2890014648
201.7327270508 242.5601043701 265.5989990234
259.2233886719 209.2498626709 248.6826019287
267.2322082520 212.2898712158 243.6999969482
210.6202850342 232.8498382568 268.5350036621
223.3227844238 226.9989929199 225.2261962891
257.5674133301 207.2698669434 248.0899963379
250.2039947510 226.9022064209 210.1300048828
224.3872222900 227.7853546143 209.5299987793
256.4738159180 230.9272003174 223.3511962891
226.7982788086 225.8533782959 243.2460021973
220.0188293457 227.0540313721 235.2299957275
250.4586029053 225.1256256104 227.5075988770
260.4140014648 203.3022003174 247.6000061035
261.6136169434 214.7869873047 238.4995880127
247.0155792236 230.4859161377 213.6289978027
242.3914031982 231.5500030518 206.5988006592
214.9921417236 246.4769287109 266.0932006836
216.0146636963 236.5523529053 251.4799957275
258.3359375000 225.5588073730 229.5167999268
218.2888183594 235.6440277100 261.5000000000
243.2227325439 238.1300964355 210.0889892578
226.8367156982 231.3297271729 212.0699920654
255.9139862061 228.0122070312 217.7299957275
240.2619171143 234.1089935303 207.1679992676
223.3767700195 228.6720123291 216.9645996094
212.4967651367 250.5220184326 265.1246032715
200.1708679199 269.4929504395 276.0700073242
211.5240020752 243.0122070312 264.3099975586
221.3774261475 230.9398651123 220.1000061035
215.0527343750 243.4900970459 262.0290222168
270.4074096680 222.4398651123 234.1699981689
256.3216857910 222.8173675537 226.0700073242
218.6040039062 233.2722015381 253.1100006104
202.0088195801 248.2240295410 269.2000122070
268.5772094727 217.9253540039 237.8600006104
222.5106964111 233.7310333252 248.3302001953
214.5007324219 239.5000000000 249.9925994873
201.8888244629 261.9940490723 270.5200195312
240.5033874512 228.3898620605 212.5326080322
232.5549926758 231.2969207764 215.9953918457
216.7208709717 228.3629760742 225.9299926758
266.5367126465 218.5897369385 236.3699951172
263.9882812500 210.1033782959 239.8459930420
263.9678955078 228.5776214600 230.1169891357
205.8374176025 253.7298583984 268.7200012207
222.6988220215 227.8040313721 234.8699951172
207.9067077637 252.4297332764 268.3600158691
211.5240020752 243.0122070312 264.3099975586
214.4339904785 236.1822052002 258.1999816895
218.6936187744 231.9769744873 221.8995971680
240.6634674072 235.9630584717 208.5959930420
264.1242980957 214.1640777588 237.5923919678
217.0907135010 240.8566436768 251.4160003662
257.4172058105 225.9153594971 221.6600036621
198.8567657471 268.7420349121 273.8945922852
252.2346649170 229.6123504639 221.0800018311
197.3786163330 276.8117675781 276.7360229492
206.0174255371 247.2098541260 273.1999816895
209.7759552002 236.0187988281 265.0867919922
244.1472320557 237.2453613281 204.0400085449
195.4855804443 259.3858947754 271.5490112305
266.9233703613 213.8998565674 238.6826019287
254.8302917480 224.7998352051 211.7850036621
211.9574279785 242.8798675537 259.8799743652
265.3874206543 215.6098632812 248.0099945068
207.4746551514 246.1423492432 265.0800170898
263.0117492676 218.4768066406 254.3209991455
224.9619293213 224.0589904785 214.4780120850
218.9662933350 232.3587036133 253.6349945068
267.3467102051 215.8697357178 247.3199920654
227.5249938965 242.0169219971 247.0053863525
231.2046661377 226.1223449707 213.4900054932
205.5916595459 265.7993469238 274.0803833008
217.8339996338 235.3022003174 247.0000000000
255.3802947998 223.5898284912 227.4149932861
220.1316833496 233.0073699951 254.8800048828
214.8040008545 227.2422027588 219.3600006104
192.3862915039 262.6086730957 268.2049865723
199.4700012207 265.6352233887 265.5173950195
270.8203125000 215.1998291016 234.7250061035
256.9991149902 222.8758544922 225.8339996338
252.4818572998 228.1175231934 207.7819976807
201.6207275391 254.0299987793 261.9925842285
214.5743103027 240.4440765381 257.2624206543
263.0585937500 220.0856170654 232.4476013184
200.3392181396 264.3775939941 266.6681823730
218.5382843018 227.6033782959 221.0859985352
215.3679199219 241.9576110840 263.2470092773
212.8897552490 229.5000000000 219.1399993896
269.5649719238 217.2269287109 245.9753875732
250.6874237061 233.7598571777 223.2400054932
220.5374298096 232.0198669434 232.1000061035
212.4972229004 234.7953491211 264.1499938965
208.3104705811 240.9669342041 266.5874023438
245.1540679932 234.7328491211 210.7299957275
203.3638305664 273.4384765625 271.3114013672
200.7355804443 265.8159179688 275.4290161133
211.1008605957 248.0629730225 271.6000061035
260.8898010254 203.3367462158 246.8399963379
210.1443023682 248.0740661621 264.3924255371
219.3188171387 232.1740264893 255.7200012207
210.3867034912 248.2597351074 266.4200134277
230.0697479248 226.5200042725 243.4000091553
207.6789550781 264.9281921387 271.2170104980
216.7634735107 234.7530517578 253.0559997559
241.0747833252 233.0253143311 209.1009979248
263.0697326660 228.2400054932 226.1699981689
265.3543090820 213.1540679932 239.3923950195
265.1686096191 216.5256195068 235.9076080322
207.3439941406 244.2522125244 265.5799865723
263.4385986328 214.2256164551 255.8076019287
208.5979156494 246.7376098633 275.2170104980
263.8966979980 229.2897338867 229.5999908447
257.9566955566 228.7597351074 224.3999938965
257.7672119141 233.4253540039 219.3800048828
226.2688293457 229.4340209961 220.7899932861
192.5467071533 266.2297363281 268.8900146484
225.4192047119 227.1675872803 237.5981903076
225.8582611084 229.0572967529 214.2710113525
214.4467163086 240.0697326660 255.4499969482
242.1886291504 238.9917755127 205.1859893799
246.6940002441 228.1222076416 209.0100097656
227.5316619873 229.8993530273 245.0604095459
222.4057617188 225.4659118652 211.4230041504
223.8440704346 230.8828430176 223.9099884033
249.9546661377 228.0923461914 214.7299957275
229.7140045166 225.2221984863 213.4199981689
227.9839935303 233.8622131348 245.5700073242
264.1242980957 214.1640777588 237.5923919678
244.9072265625 231.4853515625 207.5400085449
228.3967132568 237.3097381592 248.1300048828
267.7899780273 217.2152252197 243.4573974609
210.6086273193 246.8117675781 264.9360046387
269.1067199707 218.8297271729 236.7400054932
262.9282531738 213.6573028564 243.1210021973
265.0867919922 220.4920043945 226.8046112061
257.5674133301 207.2698669434 248.0899963379
218.6774291992 228.5098571777 238.9400024414
243.7816925049 229.6973724365 213.4700012207
211.1416931152 251.9873657227 271.2399902344
210.3952941895 233.6369323730 269.5840148926
268.9447937012 213.8053283691 244.4409942627
234.9537963867 226.1772003174 216.2812042236
258.6089477539 227.0181732178 212.8369903564
245.1540679932 234.7328491211 210.7299957275
207.1433868408 235.6898651123 270.3925781250
201.4339599609 252.6499938965 261.6638183594
239.9333953857 235.1498565674 211.4026031494
243.5302886963 234.6998291016 210.4949951172
214.4689483643 246.2481842041 268.5369873047
269.4583740234 216.6979675293 241.7460021973
208.3686065674 240.7356109619 267.2475891113
265.1278991699 206.8276214600 248.9169921875
207.2621307373 240.6069335938 267.7232055664
202.7539520264 254.8200073242 261.4738159180
270.2188110352 214.8340301514 232.4799957275
217.4849853516 242.3369293213 263.7954101562
220.5497589111 237.4700012207 243.5299987793
222.6216583252 239.5993499756 246.0803985596
202.5707092285 256.2366333008 269.5159912109
211.2079162598 238.1076202393 270.8469848633
269.0326538086 213.2868041992 238.5930023193
204.2399902344 237.0608520508 265.8900146484
205.8567657471 251.6120147705 265.5145874023
205.6833953857 250.6298675537 267.4325866699
215.5839996338 234.1622009277 246.0899963379
232.8013916016 227.6300048828 207.9188079834
219.3167572021 233.1320037842 242.4046020508
198.4988250732 273.2840270996 279.9900207520
211.4817657471 247.5868072510 264.5910034180
255.0939483643 228.3800048828 207.4237976074
261.6125793457 214.0399932861 251.4880065918
262.1516723633 226.4073638916 223.8200073242
216.6774291992 229.7198638916 241.6699981689
261.7433776855 208.0898590088 254.8026123047
200.2572326660 279.0153503418 271.6399841309
257.9243164062 227.9440765381 222.5623931885
201.2413940430 252.3300018311 266.2788085938
260.1697387695 226.6499938965 222.7000122070
244.6843109131 234.7540740967 206.1923980713
254.5238037109 235.2171936035 224.5411987305
198.3597869873 266.2657165527 274.6618041992
256.9991149902 222.8758544922 225.8339996338
214.6199951172 249.9952392578 264.3574218750
203.9267120361 273.0697326660 271.7900085449
224.0272216797 229.1153564453 239.4100036621
201.5599975586 275.0252380371 268.9573974609
197.2636260986 263.9969787598 269.1396179199
260.1697387695 226.6499938965 222.7000122070
269.0625915527 216.7100067139 230.2080078125
223.3947753906 225.8453216553 236.8309936523
254.6736297607 229.7469787598 209.6396026611
226.9146575928 234.3223571777 246.4100036621
216.8757629395 226.5259094238 245.0130004883
239.7327880859 228.1690063477 218.8562011719
216.0308685303 237.1529693604 250.1199951172
220.3188171387 232.7840270996 257.7799987793
220.9049835205 233.4469146729 243.5553894043
227.8838043213 228.1871948242 246.4212036133
224.1747894287 230.6053161621 246.9709930420
263.9114074707 214.4199981689 244.6488037109
193.1619262695 261.4089965820 267.8080139160
192.8486175537 265.4417724609 267.0559997559
226.5757598877 234.8659057617 246.9329986572
210.4516601562 242.2693481445 266.3403930664
200.0517578125 242.2268066406 264.3809814453
198.3597869873 266.2657165527 274.6618041992
215.0797576904 235.3699951172 245.5299987793
257.7489318848 233.8581848145 220.9969940186
218.4736175537 232.9769744873 233.1996002197
212.1774291992 250.7698669434 267.4799804688
198.0404663086 278.7369384766 275.8174133301
218.5846557617 233.1123504639 257.2200012207
267.0971984863 219.9353485107 228.6500091553
266.5467224121 215.8397369385 248.8499908447
239.5455780029 224.3459167480 214.2389984131
201.8589630127 250.1792602539 266.3190002441
209.0408630371 241.5929718018 266.4600219727
226.2797546387 227.6699981689 215.0400085449
209.7008666992 239.3229675293 262.3800048828
229.5067138672 230.4197387695 217.5099945068
258.0822143555 220.8598632812 223.6499938965
197.4357604980 249.2859039307 266.8730163574
213.3840026855 233.1222076416 248.6300048828
209.4707183838 252.3066558838 269.8559875488
211.8493957520 240.6125335693 269.0139770508
269.2116699219 217.0073699951 238.6999969482
213.1886291504 231.2817687988 219.4960021973
210.4808654785 239.8229675293 269.3600158691
261.2472229004 222.3753509521 224.0599975586
267.2888183594 212.8040313721 242.9899902344
224.3886108398 227.0656127930 214.4275970459
204.9365844727 253.5416870117 271.0458068848
235.5389556885 226.1581726074 208.9570007324
255.4738006592 234.3672027588 223.9311981201
