201.5925337066 87.7938693145 266.0535946764
225.9003380118 75.0987655306 226.5130942997
202.4844647140 88.9876988780 262.9476681227
210.4916442244 93.0496995993 214.9664918576
218.2164206119 75.7147322934 263.7288600545
220.5323356393 159.4189227659 213.3353838449
235.1783274675 79.2588093608 242.0768990443
228.6987997235 74.0214988952 222.0205223209
200.1330082281 126.5230763386 221.4153732533
221.6639114958 74.3964050815 258.3855621789
221.6901177102 74.3947285259 223.3174355296
214.0578335163 148.9210216374 212.9008722608
235.2829649791 66.9398418755 236.8873431015
209.9253091286 113.8878527917 226.5670210169
194.6653311674 130.8168314501 228.5692728039
220.1547537565 84.5228978236 218.4297255107
210.5125778306 92.7964030614 270.6658403078
221.9085165568 79.6681246505 224.6748271761
214.5878260730 85.5804575487 267.4672494215
214.3411001274 91.3903458160 205.3679576286
228.3397288848 76.4924772565 246.8033423771
225.3775488611 79.4299870394 249.8286033414
234.1759621838 78.0362369785 238.8930229080
219.8454674630 77.0575070157 254.0150737043
230.6045430571 75.5785692802 229.9772811689
216.8872665635 150.9638029507 212.6940156430
217.7551469359 70.8685584095 253.6399780448
207.8311822805 147.2005629304 213.4914009256
206.4544088436 127.9439871025 231.0275883878
224.9630191138 78.3272319740 261.8408944550
227.2157042767 82.0642868373 251.6764854026
203.1298456500 109.5080919483 223.3076154849
221.1364607180 89.4785976911 213.6485878172
216.0990160822 92.9570993723 206.5286982571
215.2732846686 93.8162712821 214.2521239263
233.7353215007 76.2045162618 235.0601742574
204.9624913805 144.6900257640 224.3080877800
229.4355658721 73.3402261100 228.7315975493
210.4735194757 100.0077686458 216.2116251536
210.0086646536 143.5087043901 225.5339822536
211.6441478724 107.6405490489 227.0867782270
199.1869633184 138.4319038125 224.2704697868
234.2110261093 79.0221468283 222.6347717103
226.2362850865 79.1841923961 241.6807402273
231.5655577613 69.2200226959 226.6830756921
212.6052586243 142.8757432332 215.6429295196
212.1444763904 147.0064952757 210.3703356604
216.2774081191 81.9277183081 268.1852703012
211.6441478724 107.6405490489 227.0867782270
224.1735446905 165.9439499128 209.7944591700
200.3204707838 132.3191824707 229.7600878795
207.2352254918 80.6959270642 267.8170676134
207.0924594464 100.2515521131 219.8589489306
235.0910279994 84.6374014594 237.7179120410
218.5752468716 158.0984721572 222.3020857565
213.6336663303 143.5686745088 217.7110326384
210.1969383025 144.5318453495 219.5809111653
225.4146264312 79.7542904634 246.9805752695
206.6687567052 105.2861444632 222.5453059301
207.2382572467 117.0795581011 226.9077066254
199.9182299620 131.6658356831 222.0904129543
204.7318848606 123.8868928634 226.8801928896
217.6893201642 91.1432808785 214.3241740923
226.2791617568 164.4575716768 210.8326953327
216.2119893899 101.3967031350 220.2350179423
221.6901177102 74.3947285259 223.3174355296
213.1820216367 87.3942116907 265.0692548046
201.7369257425 131.8382116583 223.1099614874
229.5410468919 73.3114933160 237.0995771569
235.0490859428 72.8831541108 222.1599462960
200.6102556106 127.0965755577 225.9934999245
224.4624797398 73.7956276614 253.3012699191
216.6348148172 154.4834616540 212.9542946128
213.1820216367 87.3942116907 265.0692548046
210.7580201135 104.7819384468 231.7591280201
208.0871888395 108.7599727823 224.8444911607
207.0925088347 146.6942417218 227.6758099025
220.6327467881 73.4800040486 219.1825824675
208.2134248127 98.4472428186 214.2527110907
217.7767782388 161.0170583187 219.5440442840
211.9754454640 104.3183264271 215.8735067654
216.8872665635 150.9638029507 212.6940156430
215.8393046288 102.6907262929 219.3551628161
222.6315835693 73.3024048316 216.1816085241
229.3430343795 76.5062033975 220.8519163896
204.1764041584 143.4513469300 221.7407800990
217.8242288147 148.8819585618 216.0216035592
218.5060440704 157.1299379156 220.1498130839
216.1535589842 159.1479954961 218.1237448246
216.7558959853 112.5987917251 230.3787204021
203.9677648037 115.0626027293 220.2512019578
205.7267280343 83.9462303664 266.5931417400
216.6661401064 105.0138149079 220.1854822501
234.0370436211 66.9249652729 227.9426924092
207.1204606955 96.8532846325 218.7932363959
228.5835931413 79.9788884343 242.3597806778
207.6617916516 110.2676524632 226.8692368914
205.1857128636 87.9259969843 263.2169743213
209.0533753823 109.2536446431 230.5877777463
206.0181852172 142.6983596950 215.8242257382
212.5490360791 149.8330278731 209.8004797558
221.9976751666 88.6779576780 214.8036657081
199.3478240004 132.6557112034 225.2328354075
212.4750198671 96.4276579930 212.1932538791
218.8180397168 78.5657258134 220.2317897187
209.9456279786 104.6917774197 226.2404119169
204.2679843683 103.2002850418 233.6130279148
212.4818234629 100.7314499140 216.7247995026
219.7070600591 74.6171356617 256.6717146543
211.1156819322 91.1816588608 210.9849639239
223.1060840695 166.4164556467 213.0547110071
210.9370420549 157.1361981016 207.3695618385
202.0666510903 116.5688606930 223.6827061360
229.5365935559 66.7131027915 227.9577448134
236.3623315587 67.0846543204 235.3139459972
234.9400510849 76.3031136533 225.8295977667
220.3682565434 78.8132764352 259.1081406101
209.3727753640 85.1954747065 268.3562039569
203.2855466463 104.8313003650 227.2799268479
235.2703846769 72.4920657336 230.2665809795
225.9120527060 74.9444843481 223.8108979192
200.7912029421 139.9480409174 223.2041965624
207.9951449902 141.5811134041 228.5021760235
204.6765599034 145.5456638660 219.8696217926
222.2508587226 90.6417137040 216.7574562450
227.6000140677 78.0630220973 251.6846453608
210.7258612256 93.3738274141 266.6843282958
223.5313810425 164.0131702131 209.6895993445
203.5127216059 97.2210954670 219.4103279668
207.9715027394 94.5040119807 217.0686261050
207.3993662969 119.2421162428 221.1545366666
214.3922476465 87.8476525361 212.0189695221
219.1829717308 79.5062077188 259.8858774542
214.8632213820 150.8276434264 220.1133994342
216.5702190055 91.6003428936 216.2253483253
229.1438751186 73.6472358171 226.0433304003
233.4187927447 82.5406172157 241.6542291566
212.1426998894 85.2477575471 263.2142166060
203.9052467491 80.0208824797 265.4549825881
208.9687283815 145.7626722809 214.9475276819
219.9134411362 161.1292835294 213.4092976209
232.1624919509 74.6127549258 241.3044030778
218.6512721085 78.1404544331 259.4953252506
216.9441585107 157.8810504943 220.1757982075
223.6171318506 77.7870801033 225.9104935688
215.1877259580 89.1650920948 212.5118029772
226.0024818058 75.3060662119 214.5241257253
230.7148324053 73.7147534094 232.4570703081
217.7551469359 70.8685584095 253.6399780448
231.0714995117 76.7368843576 222.0979865856
214.8529315958 99.7823474499 219.1696914022
231.3868817803 74.5044080151 233.1033777998
205.5068127175 130.8462320226 225.8557318636
204.5573958573 121.7984701749 227.7877132495
221.6553284950 91.3529830912 217.7786485557
215.9497710276 110.2242647379 231.6103541468
221.1330319338 71.8708179856 261.2669748841
224.8661472475 164.2942669385 209.2874482524
211.5871977435 80.8119832973 266.7583864622
213.6082545506 148.0137096877 216.0668529891
235.4595347952 84.9926917156 239.0745079675
225.4904102539 78.5217695845 252.9275629271
222.3902451089 79.9265774427 213.5443223802
230.6021512760 65.9814537809 227.8648461866
218.3396664606 155.7694763884 217.8010939149
222.3085039983 78.6823109297 222.9120710239
195.3202540581 135.2399228224 222.3646629726
205.6561816630 147.5142527264 222.2334743028
200.4666553992 126.5415624981 224.5339967628
212.2795080066 150.1033072537 215.3007436076
203.9246180866 135.6779478913 227.0209111207
230.2317142893 68.2786887886 236.5631984261
209.2812796819 143.1258758355 224.5077793071
215.1821381407 150.0641373057 215.9947701294
206.6459516490 98.9603861125 222.3507278236
208.7499571162 111.5778529510 226.9621814906
203.0566111181 104.4559050494 229.9781450486
210.8929296352 110.5182107499 229.3729776012
218.6295149090 80.0593436326 265.8119588602
229.3954796579 82.4675209134 237.7332170235
211.3465415798 93.9492954461 270.7103985311
218.2625377517 88.7270445462 220.2816344373
221.8772060960 80.9523286943 242.1683788885
199.4518067336 86.0858606808 264.7063026211
204.6836372584 109.1704509210 223.8864745673
231.3774801510 78.8103422511 250.4239600866
229.6425580521 69.9346963041 237.9680940600
218.1747209191 90.5167077405 217.3706058420
211.3519831515 81.0545646180 262.8270931308
211.5871977435 80.8119832973 266.7583864622
211.4209064922 89.2945683627 207.0685206609
220.1891395811 80.5991776759 255.8826442727
201.9530364514 131.5731898210 228.8018398310
204.7094123761 79.5132531877 266.3562135128
219.1019102961 81.3499349431 219.2408729958
219.4384121220 75.5016118951 223.2691475840
235.9386058707 68.8871979312 238.0784455055
200.8380468843 83.0442595272 264.2277356510
210.9171063576 153.5314976242 219.5393227480
235.9360802746 73.2034142498 223.2774043533
220.9011589728 166.2567583721 213.3724752427
204.6954869375 118.2006203583 222.6045873490
231.7347023435 78.7384165808 238.3060727036
197.5242101521 136.4541167326 223.7468579622
209.7311455451 154.5365840763 207.5234166276
234.1731842153 77.0884041475 220.9959255610
223.8327705238 167.0188480614 210.4493577498
222.5447705191 160.9222398291 211.3855766642
220.1406871377 74.0919948627 259.4037004651
207.7775206729 121.8505648538 230.4904909826
213.3398978340 156.1144759111 207.3022187058
228.6503854977 76.8276811264 238.0033708507
208.0930506994 91.4964214969 270.2008874923
195.7340437998 127.7916760189 226.0169148523
208.9261074979 151.3456735816 210.0863666079
209.2859209217 144.1267129340 219.8841559994
232.8737891943 67.7081690577 234.1372506921
203.4614238184 125.9575544547 229.2568842989
214.5295362612 150.0779189752 211.1004759278
221.3048862330 156.7563107557 214.4754917822
204.3833009869 120.8724268314 222.5336456720
207.3961021850 109.9857720242 225.5856383015
203.7363530902 122.3015288447 226.6844464767
221.8522234561 70.9895907147 256.4864509141
219.6372971957 168.7671171186 218.1680739916
230.3823334912 79.8340019214 247.6227732939
206.3720332120 85.7248179621 268.9911681299
205.4121216555 142.8532905575 211.8620000767
223.5695624846 159.5685281637 211.6031627439
212.8869967524 151.4751377563 220.0228471468
232.5126933466 71.3144772930 239.7779334779
221.8470425234 81.8806364452 213.1661517042
202.9519456594 136.3249933673 227.1802208547
201.4862550769 131.7087383675 222.0915453680
215.3011241904 80.3010674322 213.4881012350
207.1913989862 125.9008698472 229.1125823080
219.3819705302 77.4909558658 222.2013158964
211.4735499256 106.4196446184 230.1620893108
214.9448187017 85.8423085797 265.1397229089
205.4743686309 95.9231242266 219.0678469652
207.2133943872 82.4195067062 264.0038678018
210.5394662477 88.9351307631 270.5842059176
218.4015060094 163.3372940045 214.6545619689
212.6327500930 89.7411572167 208.3954363572
202.5339495085 143.2505139031 217.5835380995
221.3781588318 82.2564481992 211.7558101727
224.1786523597 160.8903826156 213.5395338839
227.1895929378 76.0729428879 240.8511814096
212.8660370873 92.1046937603 268.6216633765
210.9391429428 156.9098311467 209.0491131045
230.6693785791 70.3652014043 233.2926253271
212.3912091175 93.0601271575 267.8975051949
209.7409247413 115.2390287966 221.7534664326
224.3849616147 73.5050442221 218.0990544673
230.5256237582 69.2004815022 238.7395293662
222.6315835693 73.3024048316 216.1816085241
215.1628331576 113.6190476546 228.3665223451
221.5199128493 91.0474218063 215.5787512071
234.0555803694 70.0383078507 229.5849602901
223.8119371242 81.2793508481 224.8019808323
219.5352879929 71.7487112737 256.3802925844
208.1858520343 142.6957451573 214.6305341437
207.4872023803 114.3667391722 226.3448636861
209.0477461223 114.2585473672 226.5775737077
218.3659707298 90.7452121595 218.4067320987
216.6182383637 157.6287474017 220.0187085191
223.1357077728 80.6095896223 220.3030239494
215.4554068238 103.4713304393 221.2183337003
210.7072779359 106.9352950960 225.0767323304
220.3682565434 78.8132764352 259.1081406101
209.6267556383 141.2481347536 222.7569379109
210.5394662477 88.9351307631 270.5842059176
211.1673649591 146.8184493427 214.3643966142
206.0815018489 144.3479749588 211.1217961929
211.1673649591 146.8184493427 214.3643966142
209.2132018709 149.4966208815 210.6991002101
218.5798936561 80.8292298961 260.9594827633
209.9111974252 109.9956350264 224.9313152612
221.2218232600 168.3242940736 214.4068551736
212.4996908792 112.3611039697 229.4933774429
206.4345020037 103.3542140983 220.3895190706
209.2889270324 108.4810169133 230.5402004592
202.7786832258 141.8036460925 215.5351039529
195.5004149378 130.1900459231 225.2001060843
212.3534723541 94.5018685117 216.2945445428
206.8991364156 104.2206889872 220.6584343992
194.3810373994 130.6501000167 227.4140319710
220.7971187365 82.1670325589 214.0945884771
205.3707933374 98.7861847134 221.9006375142
217.2843411197 111.6583661407 230.4801580356
225.6073092146 74.6538053142 260.4841345991
216.9823333262 80.7677334091 218.6508654032
207.7793776215 145.1581918707 224.3129271932
234.2892823603 67.3991352684 234.2139077110
221.4678719781 75.1009777973 264.5913208384
211.5446912847 155.8071941273 210.4986293282
209.4266035659 152.4635547613 209.2832217239
215.7113444473 95.4267300753 207.5962941035
210.9110808247 97.7528161666 221.3615435691
204.5136559329 145.9347887253 222.1724638027
228.4406665510 80.0066891837 242.6858110781
223.3617181081 78.9843497655 252.1345395752
223.6387705795 76.9584275577 224.1135615473
222.8122806318 78.8303797637 238.9765639546
199.6763736928 139.6140199829 223.5095761194
229.8272756628 78.8805410614 245.0502676735
230.0400982684 76.6176865943 220.9700727632
211.4735499256 106.4196446184 230.1620893108
214.5654205661 160.0298343769 215.7337333255
206.5365623912 122.0588184670 221.9528551206
236.0253206806 68.6070921076 238.1767997644
210.5394662477 88.9351307631 270.5842059176
208.6423729465 139.6560774234 225.7277991628
222.1324578296 80.2677022345 210.9077089444
204.5143011908 136.5715043254 221.1163784263
220.1558893491 74.3475282990 254.0584067547
224.5439598383 80.8135475160 245.5992185846
221.6749388140 81.6078188815 215.5952737119
204.1847770600 102.1122638868 227.3103594138
221.0001917373 168.3205450957 218.2305161912
212.1750841182 99.3299608713 221.2135921245
199.4212403701 135.0382189490 229.7296553135
205.7670116730 79.8733395820 268.4175435351
211.8969578335 147.8312757119 214.7901746600
218.3396664606 155.7694763884 217.8010939149
223.6317678675 77.8568188654 216.7112604270
207.2330377842 148.9291020786 212.7686571462
209.1386263257 151.5963581395 210.0200877790
205.0632670279 101.9590995345 215.8193368527
212.3484342911 144.3940628768 217.7925135350
200.7776866283 143.1452348529 226.5720713188
222.3811392335 79.8364401276 217.6491743616
206.6590792086 87.4418328285 270.3054476139
202.1246536583 101.3530562411 225.0546200588
212.5840509856 151.8379148910 216.8065849397
204.1224947842 146.4397225707 219.7173951264
203.4032734891 134.0773488212 220.8871966455
207.0130402628 99.8544096514 225.4193441692
231.3316868686 73.7665347413 221.2723585259
208.6145873695 91.3525716485 265.2954863838
213.6906682843 82.0368412791 273.0662423705
208.8141426049 101.8019280220 233.4202781073
222.9573096958 162.2020864055 216.6934445770
213.9491214687 79.8636268764 264.1011819320
205.1572848874 96.1298178386 216.6436309000
210.2061208654 93.4182765657 213.1744715982
223.4669810534 75.8241916747 249.3510221285
210.6267307599 153.6245160000 207.5165074075
210.0978244554 101.4638546964 221.8634141768
209.1131694746 102.1810862912 224.9344417128
207.2726872411 82.5353368471 267.0485861459
207.6128020629 118.6291130242 222.0594890672
217.9674241512 77.2296388681 259.2995668599
223.0928708577 76.7161527566 215.9136955030
202.1849571275 130.0412597366 228.5027771752
205.5044381191 88.9383549754 269.6841270988
207.6411203533 93.0635116404 266.7439838587
209.6255117142 99.7832918678 222.6166350231
205.4910448294 142.5727141821 211.0253990186
206.3384018683 90.0912473601 269.7286853221
206.7585986110 117.2456521919 227.9175579197
234.2748543138 77.2741720043 238.0872842404
215.9308193614 78.9639341258 262.4637131247
217.4859249619 78.4999703174 209.5361441653
236.3656818054 74.7540695695 232.2215249025
232.1823495664 77.2353175873 242.8752522368
223.1336206030 78.9698698134 245.7323547632
220.7742008994 73.2949103453 253.3944303644
211.6650569196 81.3796280067 266.3351616551
218.1747209191 90.5167077405 217.3706058420
224.7226073110 166.4733233811 211.8157761568
234.7921462729 70.9177802749 230.3075817246
230.0533002362 76.5036565123 223.6983997088
207.4997773841 92.0340502338 266.0438212392
214.3048932068 151.1769108679 209.3815668191
205.7130187575 101.4711836351 225.3200515827
211.8803694059 135.9053457235 226.2968012951
214.9843947922 155.1584086818 222.2478587215
207.1102258477 129.8357124071 224.4785474926
224.4593915318 77.7291659090 256.1612721305
210.8010020678 135.7605271448 227.8701777243
201.7966223616 102.7314051764 225.6034951791
227.9449031117 81.9603869199 222.7561651945
230.5581463670 76.9903881164 225.5569383736
238.4418041206 73.8283682975 223.8008093180
211.7162897632 79.6678397842 272.3099093711
214.2821845364 108.7344780537 224.6137464808
229.6376738877 72.8961365963 231.3877038354
204.6954869375 118.2006203583 222.6045873490
202.2988874422 144.3303535569 227.7190185201
211.7297395597 80.4554538791 272.8554646482
220.0914860741 68.9825884410 256.7315725826
234.0555803694 70.0383078507 229.5849602901
222.3925220131 168.0274936033 214.7394177430
204.2308619826 143.2940298078 228.0916534715
224.0247554562 165.1455377760 215.2262299829
220.0381250633 165.2292369004 217.5756484152
213.2626669715 107.7862481708 226.5098349152
204.1071931984 80.4403384030 263.6746355839
212.6002767626 101.8757656360 221.4525666008
221.2284691232 76.9508563298 242.3420455222
205.6251455295 144.2581752037 223.6415854454
203.6659298331 139.8283687921 222.2757150576
229.3954796579 82.4675209134 237.7332170235
215.0103670594 87.6097879261 213.6587127807
210.7319036011 110.0475859036 224.6422892842
235.5397688056 68.6966279478 233.8651248501
211.6259869257 140.5857053016 214.0319705741
213.6740914006 158.4404427253 215.1498259457
218.7391411271 85.7986179840 215.2767823266
209.4963594220 118.4791744007 226.0590547535
218.2272725067 85.7069599130 216.7694795493
203.0320909384 134.5129957196 225.4216360446
207.7911833359 82.3335274872 266.9676784092
212.1444763904 147.0064952757 210.3703356604
204.1636903560 117.3235243847 226.8765678020
203.7405334492 147.9117938984 225.6820170363
224.2142069615 76.9813591701 245.9839247241
208.0997350207 147.4322843960 218.9447034359
235.4595347952 84.9926917156 239.0745079675
219.5889160867 73.9878416288 254.1721672086
204.8454676980 141.5398654738 215.5872798639
229.2897262043 78.7982483024 224.8336753752
216.9029388664 91.7470381602 212.2825673091
217.7670835847 158.9700548997 220.8897105174
196.8563255683 131.9266777791 219.8042201403
201.0970107123 105.4969193226 223.6584747939
212.7814950610 148.7497662677 214.7613589616
212.5515211831 150.9742600223 207.4641127920
207.6411203533 93.0635116404 266.7439838587
224.5751109440 79.5390180038 217.3292737757
216.7419481079 155.2202423969 220.9008342629
202.0031609281 134.2419060322 220.7805851288
213.5641117487 154.1902475122 206.7341335352
215.4554068238 103.4713304393 221.2183337003
200.5511859044 136.1246711824 215.8716689624
229.9131508304 73.8481459736 242.1419790276
223.0400179220 76.4170324472 248.9026258089
206.0554282318 85.7072643143 266.0319033253
228.4246820336 77.7386908980 219.5553765975
206.6592225745 119.5300779752 221.8501623470
224.2566006074 77.5897786518 245.7535772900
205.7822573717 124.0475758868 222.8009644328
201.6190086491 144.8752815940 225.6740093971
206.9675482060 123.3546331481 222.0232195048
203.3421344771 104.0873280830 231.7701653079
234.8752629620 76.0975604078 239.1448210874
237.9500430972 74.3492373421 220.1481829955
201.8041370521 137.3510041872 220.9752889660
218.5223822692 163.3176061343 214.8669163766
224.8816792018 162.5544505280 215.2552442555
204.4072319028 117.3370235778 229.1529299082
231.4499972267 70.3101993496 227.3900785089
212.3536902099 97.2128106754 213.0594420074
223.0288697485 80.8595008298 221.0003308450
211.7063765027 142.0651368862 213.5284986956
208.0930506994 91.4964214969 270.2008874923
211.4903237680 154.7215979397 218.0363344517
222.4905036039 79.4204872674 220.9264565983
229.4112273177 75.6716355795 250.0992087321
207.3574261047 121.6293002901 221.9641539117
200.2415479268 85.9261830832 265.9814375997
208.9399632497 144.6444752947 220.7682278260
217.3318138163 154.1731058760 221.2510261506
213.9313794930 151.8064495623 210.3777351384
233.8536328804 71.5884277208 234.8032844781
231.5870158334 76.8994135299 223.9108627650
209.2597354142 144.3386432352 220.6289165896
202.0031609281 134.2419060322 220.7805851288
205.7177344781 147.8025462042 217.9329763197
217.0247482476 147.2308307140 214.5946270808
206.6431417054 108.1430374485 227.4770416279
225.2655622512 76.9719711467 227.7649662151
208.9112596324 104.7782029566 223.4073756821
238.8453524715 75.9043588502 220.0082079108
235.5350736124 80.8431279604 241.3188470250
219.5011213122 86.0713627498 213.4079953480
209.8166754502 96.5429162361 212.4205051935
203.0426078126 141.3444674530 227.2245883576
205.4066962208 112.7512690635 222.2105841417
231.8192127446 78.9190683723 238.0609294971
212.4924776396 93.1616521273 214.9603825659
209.4215982700 145.0616299896 223.6700603456
205.2932109489 123.6285764105 230.3862360565
205.7177344781 147.8025462042 217.9329763197
195.7248218157 136.8434270291 220.0332934788
208.0749324102 148.4552511825 211.7017518526
215.5601321605 95.5820925624 212.7514193943
210.8115922996 118.1643581588 222.9539572040
207.7425866960 113.7243481433 223.0266166071
207.1573887119 137.2451711586 221.1868419165
208.9199141912 122.0038435383 228.8252307771
221.2205475835 80.3501681589 221.1938818127
214.0612226517 101.7375365551 221.3210138391
228.4170786262 74.3543105590 240.1830533763
214.8951728405 102.8904395824 221.3655468798
223.7761916681 164.8405324027 217.7704776598
201.8041370521 137.3510041872 220.9752889660
235.4442881687 76.1685452131 225.1799346867
234.1272490586 76.6032993283 227.8966182288
238.0991778666 77.9735488560 221.8896218290
204.8997513442 127.6704474699 231.1854719618
220.8711548775 84.2057782940 216.2416471350
206.1866915105 130.3013039856 227.9007409866
211.2020413573 150.0033332866 209.4028802928
203.4614238184 125.9575544547 229.2568842989
228.8729245868 75.9051223362 244.2690113563
219.9207043999 80.3794021496 262.0105575272
223.8973577301 82.8531072986 219.1393443631
222.4507338553 76.9238459416 244.4233584132
207.1727852458 142.9526709676 219.8114033926
226.4496956516 82.2101387788 251.2178326935
224.9689957266 72.9645433734 245.5241045246
225.5011203026 73.7900327179 249.9849626572
221.5158847438 84.1409817302 218.0414247111
202.3924461372 116.4366244224 221.2584071782
209.1151110760 145.2216396229 212.6634219623
201.8042921175 103.4529667708 224.5130992614
205.8318484141 148.3504677717 226.4819505919
225.5954477257 74.9269307003 220.8516331146
221.3727432237 86.7990168103 214.7016346548
220.9854022146 156.0763375518 216.4113258774
229.8406644156 81.9971707337 251.1179523933
204.7318848606 123.8868928634 226.8801928896
232.1378140016 68.8490571067 231.5347523388
220.5825056708 164.0768137800 217.1226557317
212.8869967524 151.4751377563 220.0228471468
201.6060756371 122.1087684293 221.4781798274
206.6524875127 117.4821518413 224.1272866387
203.4032734891 134.0773488212 220.8871966455
212.3246121942 87.5509473028 264.9661239598
233.8591764904 75.0981182149 236.1241721373
212.0109074219 150.1560895891 209.1683244079
202.8712464609 130.4202634930 226.1174675015
201.5717183252 81.9584573578 266.4903465774
206.1578154336 119.9839301973 231.6198513955
205.4699398583 89.7470147875 265.8974864358
211.7570135986 141.9562192526 213.7582917741
199.8157050001 135.3528582724 228.0430612166
219.8766284174 76.3265619961 265.5467169918
214.5838838382 78.1736448045 261.0456110710
197.0333614346 133.6258141598 229.1841345901
235.6224499119 72.9594032653 232.5582392621
229.3734504240 75.7410883734 235.8509541651
211.7236375472 91.9514265310 270.2869316657
218.5135132609 91.2779663552 219.2106157553
208.7766030274 150.7583416027 210.1715594278
197.8997828506 131.6851014192 225.7537707536
225.9450038033 76.1252375151 243.0048606445
218.1737180193 154.9899284026 213.4591648150
221.2235960815 78.6441402030 223.7435534730
232.2730463808 78.8183014687 242.6566860923
217.7670835847 158.9700548997 220.8897105174
220.1891395811 80.5991776759 255.8826442727
202.9547829715 89.1069320268 266.3790832952
226.4039004501 77.3145028690 240.9668268247
218.0406567343 70.4999920858 255.4319731213
212.4818234629 100.7314499140 216.7247995026
194.0955140405 131.0186769832 225.6220117117
214.5981705280 148.6003641419 215.3153250732
206.4813693982 85.2933711051 265.8182665278
233.7353215007 76.2045162618 235.0601742574
232.7057805507 76.2168849608 242.5278160696
209.2812796819 143.1258758355 224.5077793071
230.1027610631 80.4235683616 238.5878414911
221.2205475835 80.3501681589 221.1938818127
231.8548016918 67.6116389213 233.3530270623
202.9675393302 124.4908566157 226.8524739960
224.8219612166 69.8146990218 256.0749877467
212.2694471399 145.4783467250 210.5903410325
214.4494167683 89.7435095620 209.6698726131
220.4960437585 78.2176554733 254.4412602900
225.1146462459 73.9324630723 256.5736730082
235.6579028259 76.1580278781 224.7057428596
220.0023391492 170.2958147778 216.8022714809
234.2805851679 66.9384644660 230.2190545153
213.7059513874 79.8079763257 272.9460124280
210.4183287537 109.3083203873 225.2939529387
219.7070600591 74.6171356617 256.6717146543
236.0253206806 68.6070921076 238.1767997644
215.2606191654 81.9554280347 270.3192260186
222.5546660305 82.2288777292 212.7475721023
232.7295355417 78.4788889862 223.9718813490
226.3025519463 76.5610824007 219.2476809282
223.8472682043 74.3616195562 249.8041791901
200.5238654411 86.6422703091 266.2453622835
211.2563445460 112.0028786168 223.0323094092
202.4610758963 79.7040853313 265.2886925602
204.1636903560 117.3235243847 226.8765678020
220.3158862276 75.3785865565 222.9947809600
217.7877759598 88.7596377515 217.2504898086
212.1444763904 147.0064952757 210.3703356604
234.7921462729 70.9177802749 230.3075817246
203.6618912269 108.7991666459 221.1429442195
210.6438930581 119.9233141749 224.5850698795
218.1747209191 90.5167077405 217.3706058420
235.9386058707 68.8871979312 238.0784455055
227.1001652175 75.3356712122 226.3655604208
222.5077782786 160.6972641478 211.7123072962
210.7961855176 85.8405153909 263.4675706957
227.0040709698 76.0031484521 252.1837593438
224.7954994004 73.8902397155 264.0653346188
223.3926463183 76.3497224813 258.1662353571
211.5712496314 143.3791129549 210.4763413839
226.3361289770 75.3245523715 217.6427492348
216.5929246252 109.5160428559 229.5749466411
216.4513054751 83.7260721607 260.1954584570
205.3270143268 147.8637132573 224.6233957593
234.1247401359 74.8861842996 230.7897187939
223.6811010576 77.7932032133 258.5807149187
213.5263062680 154.4253692911 207.7752808662
209.3520471438 122.7924842614 226.0691434240
200.1307586988 85.0882174005 263.3730985922
235.9271634304 82.0939184207 240.7180996209
207.5858957099 116.3412290506 221.8336868294
207.6703825620 100.2406251627 214.6225706333
214.2821845364 108.7344780537 224.6137464808
208.5585501128 140.9969921162 225.6120014054
205.2571174005 140.6728785382 225.4089676767
217.4286543355 165.4365331972 215.4475735603
217.6583245409 145.2985948056 214.5750311171
217.0247482476 147.2308307140 214.5946270808
217.9674241512 77.2296388681 259.2995668599
230.5549313671 72.8801949267 226.5176878301
235.1783274675 79.2588093608 242.0768990443
219.3596475295 161.4686122885 213.5427745763
210.7528650511 146.1694654433 218.7315285275
221.9997177422 77.8660594873 241.3855931416
224.4751282370 166.5039865655 212.3815295463
228.2855912651 73.2021514622 225.3147827741
219.9953555043 78.8775978955 209.6622888549
230.2317142893 68.2786887886 236.5631984261
230.7703506952 67.7536190130 236.6910826282
222.4074576527 166.9764159134 210.9532943171
210.3672549090 91.7653340806 212.0126710267
229.0524768329 79.6030766802 243.7701222093
209.2812796819 143.1258758355 224.5077793071
210.5125778306 92.7964030614 270.6658403078
209.5735049786 108.8122569913 223.7053537898
212.3536902099 97.2128106754 213.0594420074
207.9951449902 141.5811134041 228.5021760235
204.6962574442 99.4837517039 215.1920623935
208.8802261527 99.2426516405 225.5049049687
208.1024427914 87.9207488946 265.1706236326
239.2588839065 76.2998225734 222.1606333491
212.0713952677 95.7562595036 212.1456024754
203.4873582203 121.3044159553 228.6156214320
220.8762334328 73.3891355476 263.4165810920
231.9837384297 77.0335484675 248.8190326299
209.7311455451 154.5365840763 207.5234166276
214.8305975844 78.8697174806 263.3216754897
230.9827456366 78.1346060439 250.3090367849
219.8350481509 84.5370055676 216.0386418848
212.5816087141 91.4346899824 215.3840657510
215.4808180117 89.8627073253 210.7977864356
221.3430770926 86.0576888124 219.2601657749
209.5321267364 111.8028633154 225.9137265220
227.1161133209 78.3721643102 228.1918165762
208.4313449204 153.6403106915 209.1654633116
222.3816241768 162.7850907071 218.1425739439
210.5712517060 102.6653096914 220.5965875870
219.8009688522 82.6374291635 213.1386195201
207.6128020629 118.6291130242 222.0594890672
207.3134647750 105.5788813471 232.0131202741
203.4979879212 140.3413665671 224.9035944159
205.3634366229 105.8662843079 226.8477223064
206.1259503175 137.5711186640 218.9067880402
217.9162236392 155.8353618222 214.7866921057
206.2964654761 104.2196541630 227.6412120803
208.5790555420 123.1947550080 222.7189816735
216.1535589842 159.1479954961 218.1237448246
219.5011213122 86.0713627498 213.4079953480
228.5835931413 79.9788884343 242.3597806778
199.0806128679 86.5650013200 262.3766795730
213.5207438580 105.4477766629 218.3034176150
224.3368244037 77.1410467587 254.2928307994
214.4391895445 86.9407730509 215.7906102240
212.2694471399 145.4783467250 210.5903410325
230.7883061374 65.1578882451 227.1112018088
208.8347973977 137.1820460393 224.6392008036
226.9666051411 74.3150862183 243.6298279238
237.8423740400 76.2167627836 224.9118400803
203.1186148147 123.5977128610 225.5879945190
208.3299854866 133.9522612809 225.7148510212
205.3570270064 144.7118888621 227.9958010685
206.0815018489 144.3479749588 211.1217961929
207.1367501810 97.0890921822 214.3502727657
219.1558892677 90.7631019652 221.1427764779
229.3063401955 81.4820176214 249.1508854561
230.3823334912 79.8340019214 247.6227732939
231.8192127446 78.9190683723 238.0609294971
212.5402597782 80.7089805708 259.1541989562
224.4009705548 73.8683712961 260.3776339216
234.4236636869 72.1266985747 240.3524996207
208.9112596324 104.7782029566 223.4073756821
203.7599901494 138.5602732004 221.9644958221
201.1049700061 134.8092834145 220.6775069497
206.2907365357 113.6664335342 219.5220041885
203.1663061702 119.3235576596 230.8874763538
204.0869974490 120.5175920338 222.7840337317
220.3619458489 92.6508987122 215.1639660273
221.8129991566 79.6498552481 254.8171541422
202.3196120306 129.7225827888 225.1897125435
236.4640277835 78.5325548654 223.4741091149
208.9187262625 146.3827107441 214.3072314512
208.3062592289 113.5520823221 222.4693474129
233.8536328804 71.5884277208 234.8032844781
210.6793008759 91.1801842596 212.6325977779
203.2387637118 86.9989529134 262.0995668944
226.4685635715 74.5226493450 251.1511212825
217.8692568304 109.6872782093 227.7144548465
212.4860289609 98.3570940923 221.5330859957
213.6906682843 82.0368412791 273.0662423705
211.7381873710 85.9209007594 268.8750841691
195.3542464913 135.7762464172 219.8307761668
209.9126275506 142.7383514313 222.4814577552
208.6937447168 117.6960930444 226.9257144867
216.4303731600 80.2706243729 211.7086720122
204.5413218766 123.1838352336 229.3060673633
205.0558870710 100.9708046298 224.2500525954
212.8863332588 154.2785301113 213.6053634032
211.0414058545 102.1358653887 219.8495233841
215.4759707776 91.5132920056 210.2276328726
235.6836218836 82.0804192277 238.4417375146
210.8238566601 103.2277832684 228.6516884322
203.5757212478 130.5934123684 225.4388064232
201.7369257425 131.8382116583 223.1099614874
229.2713178187 77.2429406383 245.8996568776
203.8851563161 108.8456361674 225.9706090386
211.8832516412 93.4044448608 206.3381633737
215.3850801436 79.9944129401 212.4090498472
214.9458907660 142.9598590497 213.8176174908
234.4086814931 71.0612761292 229.3421768604
208.9828976187 116.8266766531 221.6571316226
207.7253659395 96.4480852971 212.8597007594
211.3207482923 100.1143147943 215.7196276883
236.0804871860 73.0023518741 223.2878601184
221.6539030785 90.0661405025 214.5597651687
201.3941653685 142.1595993201 225.3701318788
209.7024406053 146.3916483515 210.3481997202
214.0375403405 154.1393837805 222.8503122980
200.1387618126 137.0010696368 219.8508771035
226.4953311110 80.1213873213 220.1787407183
202.2576696676 81.5903485401 263.4080532377
203.5183599368 103.3316552222 227.1208042922
213.3731585223 145.8622437291 218.6838415045
221.3710708254 90.6565759478 219.0067751392
213.9412661884 78.3437075759 263.2328085821
214.6618462203 81.4748107815 267.8814464161
207.2451734470 85.2596139136 263.5761168737
225.6619248400 72.0824082637 246.4295874033
208.3326866345 136.4145878350 222.9985326086
215.2732846686 93.8162712821 214.2521239263
229.3175384159 68.0081316955 229.7912160027
205.7099488989 142.8210913043 218.7077093052
211.4085479435 118.7399313604 225.1516482803
224.0090926230 80.0376556974 240.0203462523
200.5149678112 135.0599797927 224.4838907437
214.5981705280 148.6003641419 215.3153250732
210.1815039248 149.9297105425 209.7496538002
199.5959367818 131.3750735850 223.7856428383
216.3020064467 78.4847988079 264.7933235814
206.1308015385 138.3021077682 229.2003414534
223.1416663791 80.0438103155 218.7342675913
204.4227725008 142.6193274829 221.2553765844
222.4514484643 76.9732684525 265.3134574208
205.1746466814 105.5646850339 232.6862199933
234.4240871653 70.3935981070 230.9415562166
226.4577892107 75.8505356021 224.4333996982
210.6789441718 91.8910506374 211.9851668751
202.9894098141 83.9183839197 266.5660471586
211.1202370367 90.8807643273 214.9595871906
230.7883061374 65.1578882451 227.1112018088
229.9311999751 80.0221459374 238.8287920083
205.1746466814 105.5646850339 232.6862199933
222.7531848357 158.1605550606 216.8888559459
224.3765144951 69.1424276653 254.7372701300
214.1261347246 100.2096002158 220.9712058014
217.7826024533 83.7651303364 219.4353081259
203.7405334492 147.9117938984 225.6820170363
206.0221454361 105.6917487772 231.5250785266
215.9497710276 110.2242647379 231.6103541468
202.5522235485 134.7712795006 222.8019021156
223.2580096833 75.4816306896 245.6187377843
211.0744061285 94.5538529622 269.0280593150
211.4099356905 86.3285647243 268.6833325614
207.1502699108 136.9934118409 229.1206771367
230.2836398152 76.6311857873 223.2464348693
217.4557463343 148.5266539563 214.6649884749
212.0240508597 156.9480018734 208.2176306554
218.2443257501 159.8698496378 214.8454011856
208.3056022293 84.6322193180 264.3030142298
218.5395224763 78.4869112439 208.8728573617
220.0023391492 170.2958147778 216.8022714809
205.1983004543 130.0475939000 226.7511777761
214.2248127089 155.7672179090 219.9630919520
195.7047677662 132.2927532733 224.9658511888
204.7579442293 135.3912525817 222.6155090193
216.5519065604 93.0767080732 212.8934853610
216.2146763569 145.4004676667 217.6291061153
204.9311720645 144.5185832581 222.3271630948
219.1558892677 90.7631019652 221.1427764779
212.1835353190 80.6828243192 265.1983141700
211.8754908941 92.3498596160 270.7282846110
217.9665368048 78.7328537496 216.0875943349
202.7127744860 135.2313590373 225.6939954242
210.0012875272 95.1057364411 212.1762174343
208.1334523802 118.9257063909 225.9966023665
209.5084829897 84.2926361629 266.1065061684
216.5003331291 92.5436759550 210.0089020972
235.9293334490 78.2388816903 240.8104562599
209.2426432480 101.3693543688 216.0259980199
209.8489751075 143.2085757291 225.7913043934
212.9629438146 99.4356594415 220.0651438408
223.5448843167 162.4774241204 218.8746279865
212.5178507783 153.9232255058 212.2487483189
214.6768899589 89.4786350530 212.3853604065
215.3332558193 87.5330025157 212.9449895449
229.4355658721 73.3402261100 228.7315975493
217.4880338957 87.7303480225 212.1412694193
230.4048158502 80.7164661145 248.7107301574
214.0767700189 157.2573340828 214.3832606290
227.9293105197 75.3586284510 226.6350571606
208.9257442301 150.2685941943 210.9249262624
204.4786562022 97.1116179770 215.7170755352
221.4416464064 69.6643808872 252.7295067546
236.5507552285 72.6203330000 221.0272650211
200.2453779322 132.7701740009 217.1695757982
214.2581992350 90.1922689853 209.4555187453
216.9486522646 82.6122273090 219.3907750853
229.6232258712 73.9687583681 230.9442008015
206.6687567052 105.2861444632 222.5453059301
231.8794805972 71.7620111481 222.9353785968
197.3823938876 128.0385640749 228.8145995823
206.7164073369 139.3463794408 219.0031852146
206.0741384379 103.3865221576 235.0626109638
211.2102190704 81.2295548429 272.0869109826
212.2893216856 111.5478917762 229.8449917405
225.4443632081 74.3852331292 252.6441283372
208.7254477748 146.5753320031 212.4878119160
214.3976316532 92.2079981591 205.7969611714
203.1298456500 109.5080919483 223.3076154849
211.0942946960 102.5606786888 231.3254934754
199.9502654348 137.4718059788 226.5185855905
209.0322871880 81.1818373459 269.4468085247
199.8778841662 134.2920844459 219.8523174149
211.9437244173 154.4104037981 219.6437512957
213.1047097057 145.1681409979 217.6931264694
198.5979803589 133.7843351893 225.8677704021
220.5651073706 68.8854861115 256.5084644541
211.3220300180 85.5632270102 269.0817470420
212.2893216856 111.5478917762 229.8449917405
210.6848386126 90.2711201529 271.2147003732
215.8560853823 150.6712600911 209.7997330208
208.9112596324 104.7782029566 223.4073756821
216.1449804204 154.6446921057 218.7031593542
212.0109074219 150.1560895891 209.1683244079
232.6320086077 79.4048295141 238.1079116209
209.3597223824 117.0023141207 222.0098300846
209.7694821841 83.5196831793 267.3456381676
202.2042773954 81.2224028933 267.4382987682
209.9456279786 104.6917774197 226.2404119169
216.9202027271 83.3502497639 261.6058251712
216.2782573433 77.5409061590 262.0711213787
234.1079282654 71.5768870039 236.7350895275
206.6368876381 108.1916464918 226.8417740438
206.6973607520 99.3795229351 220.5998835335
203.5421146659 121.3205878734 232.1674531874
226.7898863214 78.6825316214 263.0954265411
234.0370436211 66.9249652729 227.9426924092
200.8730493300 136.3412134989 220.9765696057
216.6395717408 109.0990485234 230.0669848991
200.8329510931 88.4027038794 263.7688204092
211.5589084558 81.0455413667 261.4122100253
215.0690603277 148.0094236161 214.1693120894
214.8246854642 146.4790839916 212.4970010830
204.5292252554 118.8770027589 230.9499125732
224.2120159821 68.0810364508 254.8446335484
228.2675475561 81.9418232043 252.3236160278
235.9751881502 76.8285207946 224.8262792809
225.9450038033 76.1252375151 243.0048606445
228.5460185986 76.6937182746 219.5983620006
200.1330082281 126.5230763386 221.4153732533
227.1121816124 75.5453543846 227.8400099961
205.0105924704 105.4842498265 219.8779694847
224.4988925259 76.4377769662 256.9636267570
227.8707628417 78.4800384001 251.0953362597
204.3715280099 144.6610692990 227.9392385912
209.4863437892 102.6271389647 221.4280700361
231.5225353410 68.3477411630 237.8798972102
208.5703747574 104.0471683968 225.9063110835
220.3213581751 73.7903196731 252.7892430682
212.8863332588 154.2785301113 213.6053634032
221.9449803557 79.4647732188 211.2621782171
215.9800807573 102.9286103091 220.5340644307
214.8227086586 153.3958412139 210.9616425182
228.5299165075 78.9148558431 219.5231986210
210.4673548966 135.7420409853 224.7515542148
215.9394264605 88.2947217955 217.2270595896
203.5421146659 121.3205878734 232.1674531874
234.9874858905 69.4983575832 234.3278992756
212.9629438146 99.4356594415 220.0651438408
206.5559424847 126.8578176138 230.4810728236
218.5690520529 82.2893862012 214.1656822909
202.5667947918 118.6632005394 221.8115639972
230.5549313671 72.8801949267 226.5176878301
203.6772923373 142.2250510474 222.8005449295
206.8991364156 104.2206889872 220.6584343992
217.7218030876 80.1797215602 218.1360284815
201.6716218734 133.5275856220 227.8046574123
218.5690520529 82.2893862012 214.1656822909
217.5590654071 79.5870082819 208.9562644924
196.0615278965 133.7322938654 220.6854006343
204.4362875000 121.4316760164 226.3130430819
236.0446081562 69.1833648732 235.7236509237
213.8695147397 111.0123801206 223.8909018990
196.1353771870 133.9921095461 228.8572788187
212.8660370873 92.1046937603 268.6216633765
218.4057232315 72.0287068671 254.0661646305
201.2968682790 126.9222470622 221.7095595636
217.7877759598 88.7596377515 217.2504898086
212.3534723541 94.5018685117 216.2945445428
222.3871272298 72.9158358937 221.2907728914
215.0442354751 112.8957574133 231.7426265623
226.8868749425 80.3443302110 242.1069519957
209.6879970244 107.9493849141 224.8442501110
196.7462321526 134.7740031784 216.0400516976
210.5542131489 139.8912839550 227.1403168278
209.2859209217 144.1267129340 219.8841559994
235.5397688056 68.6966279478 233.8651248501
230.4604368964 67.9604390179 226.6235746433
225.4720027065 164.7310965159 213.0764065403
211.0300973998 152.0501958867 215.2368612492
208.6798721280 103.5814996330 225.0289616077
209.4266764126 93.9059567709 214.1905343631
196.0615278965 133.7322938654 220.6854006343
200.8380468843 83.0442595272 264.2277356510
231.8296097194 74.5265645921 238.6141187211
224.6396268205 74.6683699783 219.4701271344
214.3029081899 83.1707163123 262.8551859068
213.7382004758 147.3909413883 217.3180389939
206.8846438028 139.7633722426 224.1501548893
203.5987293415 109.1322801942 224.7179570164
224.3765144951 69.1424276653 254.7372701300
205.9829131569 90.2279317658 265.8536833927
220.1013081370 155.5246510164 217.4027891018
213.1655660880 90.0235633453 204.8963860191
220.0350532217 78.6597454659 210.5083208075
229.3427120228 67.5593733166 235.0043901053
221.4866137304 80.4263009280 215.6003310268
235.4624563263 71.6668929918 237.1797690490
219.3971453059 153.8209116100 218.9981226847
211.3211568868 93.8491574635 217.6853169721
201.6754839198 117.0738059936 221.2276455435
205.5564342393 130.1733534344 223.8996884102
211.5007990472 106.5664715314 226.5200620300
204.5292252554 118.8770027589 230.9499125732
206.4208607270 100.2911425528 224.2347787478
222.8682739692 86.9718510324 216.3370981006
208.4606642557 141.4859158486 216.2238285795
238.5504585257 73.1726204243 221.2057324337
213.5442068718 146.7209448635 214.6248791419
203.0741638150 132.8817620253 227.2654387242
212.6941564329 147.1146034315 211.2880161742
235.0684448644 67.0441630362 229.0706062316
198.3536576629 138.4751866944 218.9551746919
230.0283129790 75.6623472604 248.6656069144
228.4758721089 69.5533258908 227.9595702691
217.9519695446 91.2796490966 215.8083079719
207.6487917957 87.2946907363 264.8689213320
200.1330082281 126.5230763386 221.4153732533
205.2502111528 139.6732251839 226.7260293084
219.5011213122 86.0713627498 213.4079953480
206.9622806764 120.5090436587 221.2734370876
208.3056022293 84.6322193180 264.3030142298
215.1800660705 155.7188477817 222.9113227981
209.4963594220 118.4791744007 226.0590547535
212.7414440778 147.5820455669 212.5680105691
198.5797612566 137.6703807964 219.9216557293
203.1464636409 132.3205742040 223.9094229806
208.8347973977 137.1820460393 224.6392008036
211.2688904146 108.0983787055 226.8191085183
222.8122806318 78.8303797637 238.9765639546
224.5103042791 162.3225334364 218.9356134633
206.4861603249 95.9289543673 213.9240609972
222.3085039983 78.6823109297 222.9120710239
218.9331828134 82.1367028493 262.2382371364
216.8665033272 77.6236746605 264.8601932160
214.6969734913 88.4487430349 216.5804648035
218.6705293083 75.5772589594 263.3113257359
215.8670629004 82.4353969089 217.0990976971
205.4121216555 142.8532905575 211.8620000767
237.2920139529 77.5803259677 221.0999722289
208.0749324102 148.4552511825 211.7017518526
222.9757686058 162.2180630713 211.4559380583
217.5590654071 79.5870082819 208.9562644924
229.8580273460 81.8704361722 240.6362756377
206.9928573051 138.3320293184 219.6422907156
226.8548325981 78.3380826592 219.4607857987
231.6714012455 81.1251720573 237.0497336985
219.3027796232 75.3721085067 219.4179225841
229.9620971739 72.4091539562 232.4380008596
204.2033268783 117.9512820372 226.3751425634
199.2029219823 137.6288519664 218.9844390716
224.6396268205 74.6683699783 219.4701271344
207.6487917957 87.2946907363 264.8689213320
229.9131508304 73.8481459736 242.1419790276
208.4782078501 106.5502531554 221.7504098668
233.8811808645 79.9276668696 237.9955301408
230.9007010538 72.4707200601 221.2019941417
229.8006323692 74.8689408913 227.3657890585
206.8260986089 145.1337475308 212.2022175146
203.0417352472 139.9813546402 225.7390947163
225.9021130234 74.0472436104 255.6864887599
235.4219333586 76.4723506140 225.2416493123
233.1191050915 78.3414827831 242.2769904411
215.0143940749 94.4271715199 213.4763448755
212.6229668386 153.6561905142 210.7405745810
219.9296093818 80.9387324017 209.8251788976
212.9792094758 150.5891792501 208.2188779981
232.4096147391 70.7084309816 228.3360516571
209.2132018709 149.4966208815 210.6991002101
237.9128472675 75.4278033151 223.7828899716
218.0737918805 77.9042919246 264.8745092353
209.3119735832 140.0873540464 227.3716309185
214.0415905535 149.1906821150 211.4118242311
234.6886178238 77.6899740594 242.4685990296
218.7352009440 77.0123202670 218.7321090251
217.8242288147 148.8819585618 216.0216035592
206.1709505132 122.9523475388 231.0893344005
220.3279495835 161.9017019495 212.5933281665
202.5850399705 109.1107785299 223.1269478852
216.3327027330 157.9973158071 218.2266912499
221.2654702927 68.5479766955 256.3324824446
208.4967647342 105.4892432014 222.7180813826
209.1676442389 101.7322641244 233.6709748694
225.1239271690 162.7593796215 214.7806681746
206.0221454361 105.6917487772 231.5250785266
230.1373779695 79.6412527283 242.9386271690
220.5615684828 75.9351244180 218.1836403311
206.3384018683 90.0912473601 269.7286853221
201.1862503066 84.2767016325 261.8421999556
211.1853350451 151.2510952743 208.2285746691
225.4566165387 166.0695362763 209.3838424366
205.3805686811 107.7944215708 220.0152146871
221.0745233854 82.7844357993 214.5377242736
225.0986378225 81.4658713222 240.3578027911
226.4561216632 82.6731214022 249.3917111354
198.9973942959 136.4623122097 215.2928098800
230.6045430571 75.5785692802 229.9772811689
227.2020541250 74.5522698090 253.5457297522
218.7285790324 69.4291204312 256.6691201956
211.5712496314 143.3791129549 210.4763413839
202.8891008339 141.9615337402 215.9863674748
211.0578119160 137.5173017620 224.8479513891
215.1617339572 154.9925008435 219.1917595644
209.4487541552 137.2862107426 228.6247772188
208.5924709936 155.3402699443 210.6059662682
209.3765189471 94.0288949137 267.9930270703
203.2514895962 85.7877459578 267.2551157255
205.0326380117 147.0068549853 217.3632409250
213.4882631632 152.4079275728 206.7381035499
217.6305564982 84.6060086278 217.9817438285
220.9559949971 76.4713744409 263.9733198874
214.9826986442 89.6229247679 212.1153747802
198.2083023388 127.6582658098 221.9933753708
221.2218232600 168.3242940736 214.4068551736
225.9614506261 166.5562907907 211.2423972692
234.1731842153 77.0884041475 220.9959255610
212.3120039956 84.1954365200 263.0911905389
227.2157042767 82.0642868373 251.6764854026
221.1891932292 79.4974296311 242.1867353184
230.3510943147 75.1280010510 234.1805957814
207.8926796370 139.3778229186 214.7693675533
217.6116883881 112.0951230388 226.7844735277
205.1743162272 106.3999268091 223.5326507452
199.6763736928 139.6140199829 223.5095761194
201.5722163759 138.8829342717 221.2743516219
218.0598689423 75.6639336369 261.7079424411
