208.0118806111 99.3194113470 208.0785890657
210.4463529064 118.2767855274 219.9421291915
221.4169976799 103.1669563444 210.7359813929
214.1263915039 134.4037140239 225.6497103631
208.9933349462 126.7170036205 226.1544963270
226.1478900423 99.2384700347 215.6378602127
205.8374696894 125.2245611109 227.6724946578
227.9258205942 93.5568816961 203.9422255658
218.7619122446 84.8644228915 242.5807913301
215.2707707688 126.1295929755 244.1003713827
208.5085785244 128.7277414265 227.6831951294
201.2264677307 118.8289395159 238.1975828326
205.1050587179 136.4758500756 216.3891130292
204.4128405835 102.0561721287 204.7291865552
207.2241729994 119.5483846312 239.8260012191
206.1130852268 71.2728266522 261.3807861297
228.7702359556 82.3514222108 238.4569520862
233.5573700978 84.7290752024 235.4325878602
223.9611133494 98.8737327486 205.3509205721
206.8265627764 119.2175581123 241.2087012181
210.7007124446 121.4125312594 247.5727910364
202.9858781302 74.9590033028 259.6115242976
238.6937828973 82.2413743862 238.4692976405
206.1906575416 126.2873451722 224.8136693777
223.8633694281 129.8095893898 239.8606056616
213.4747602086 77.7899109567 249.5666083859
206.8602194489 70.3849538980 249.0626380412
208.9907710949 69.9896945236 247.6833039301
204.7395978987 122.4060275955 245.7977901780
202.2792209217 138.4142360710 212.3170334551
200.4150711407 122.1517920111 237.7780331027
215.3819718305 77.9583555190 249.2104675733
208.3546822064 109.8231773925 224.4264362572
211.1739192545 129.3988559460 224.4674032456
208.8674880321 75.6679318918 258.2044023619
208.4941372066 126.5521739944 223.1462495741
219.4600134189 84.3999268433 244.9255892605
210.1775052807 128.4927226259 221.6984796901
222.9880676127 78.5541107798 252.2350490178
211.1492953708 112.5843766624 216.6744792613
216.5900797401 101.6269631855 214.0141562560
224.8432720931 91.1367483804 213.5694458716
213.2372105176 129.0839379603 231.0911598464
201.5525266894 102.6204418306 211.3255323432
226.6901406659 96.6780171392 214.3097430211
204.6643331485 119.1450722608 239.4740670585
214.5795983015 127.9814541685 252.3749853451
229.2244876871 91.7017565729 225.1307591242
227.9781581527 78.0954804991 246.3270461924
208.0122982114 126.3765595062 230.8152853174
209.1121313650 139.7771283431 222.4112780209
219.1151618001 70.8853592427 247.8637847517
205.0661946028 120.0694889878 229.5028973462
204.6231725316 70.1877272133 261.4287904384
231.6221568457 81.0080132037 240.6776467178
215.0084809144 76.3027482526 245.7202139869
214.8372809531 99.7571726446 212.6925683811
229.0369555875 84.3053892030 232.3838573396
219.3492091443 125.4535412856 245.2626715656
219.8167059153 82.9468541039 248.2697114496
224.3523356870 123.1073160186 238.8940639550
225.6122301408 99.2693171307 200.4761367207
204.9907696434 120.6116737517 242.9805638355
234.4096044086 89.1058125779 220.8697271639
199.9990699433 120.8794975774 238.3450397166
214.7960624682 125.3783585482 231.8712924486
209.2538436592 128.4346246948 243.1016058952
209.9023435307 119.7623829133 249.2270714863
219.6637234912 127.2103129820 244.2151191123
198.7000291206 121.7646243721 239.6072504046
232.5251281142 85.2167480320 231.2650721953
202.9556997169 71.8685736200 257.0526018657
228.2000992328 79.0845953362 235.4485810878
209.9620186944 121.3588871389 232.4575983586
225.6361682639 98.6564519617 206.2761641738
204.1311541904 74.2439211269 252.8568893572
206.8230172128 70.7551864607 256.4569661883
216.7908793531 132.3637325015 225.1878847352
208.0153578419 119.6408273964 249.4236444520
235.8613735300 81.2724062126 240.4115443877
210.3396023439 116.1590628598 224.4382206278
217.4080577292 125.7718953060 239.0007243123
206.8963794699 103.3838660580 212.3337705059
218.7073586693 74.8661199223 251.7010302991
217.0214585047 121.0178515071 247.2780014491
204.0456163304 110.3729941000 224.6441269035
208.3694017532 101.2198433637 203.3170814750
207.9929054509 95.2573355512 209.7115873133
206.6118022821 131.1188552837 228.0281486702
204.9112672711 101.8442528826 212.0994240020
225.7436665717 100.3404768762 204.1710747461
209.6145964464 106.0078222944 213.2979898610
216.1166113615 128.1028395003 238.8465469840
207.7729987186 127.0356850324 223.9534680052
218.4017267947 122.1637908138 244.7059124752
232.2803820686 81.0305539456 238.5466048317
232.6538194935 79.9511028973 242.0723364226
237.9987188884 82.5944791675 240.2570276126
208.2564076083 107.2251535846 206.5570660095
213.7055300162 73.9043700953 260.3431891914
219.0765604734 123.6976601809 246.9883554052
217.0214585047 121.0178515071 247.2780014491
205.4068775540 109.5549808508 221.5901420118
209.7044271059 77.0942385843 255.2551834478
205.1960840539 104.4924130271 210.3591283145
199.0572998413 70.2590039826 259.4123323497
217.4416481609 125.7017655432 239.8284618449
233.8811983277 89.8229497981 221.1835248487
205.1095324070 113.1378568392 217.9037678185
213.5247308241 75.1582345570 254.6339531523
222.5614873451 79.3966095040 243.3533754702
221.7710829469 81.0875440446 244.1208375808
222.2036470355 126.6569962134 240.8211158210
207.6026231494 127.1011320723 221.6945506655
223.4013693027 82.2569085329 251.5465646178
206.1601250328 122.2873422296 249.9853803975
226.7622877096 77.9314735155 239.7629569579
220.9792567873 122.7718054728 250.7562375637
205.1095324070 113.1378568392 217.9037678185
219.1880229906 123.1973905295 242.4822006083
207.4207028508 133.1090454420 227.7868702508
202.5206854449 74.5878238983 258.7117593163
203.5227160609 135.7275101560 217.2493156032
207.1419337087 108.8609247303 212.2613486159
207.1950837175 71.9010748899 263.8285114975
209.8429341528 76.6284572635 253.9457145502
214.7960624682 125.3783585482 231.8712924486
228.5742364530 83.5432917990 232.6262229791
207.9892861644 118.8736102714 253.0312808110
211.9585314197 70.9775380131 252.8722906556
216.4663275183 73.1801290037 245.9055477703
228.4328032469 79.1496518610 246.0069023799
223.3485794122 98.8406142349 211.8321324918
212.0794582119 124.9537062180 228.3984107534
229.1257843272 81.6350975228 243.3765300981
210.8123944312 111.5122897926 216.4689481518
224.4695141672 92.8117466484 205.5991616092
206.1130852268 71.2728266522 261.3807861297
208.0118806111 99.3194113470 208.0785890657
209.1313739851 114.1734642114 223.9808289392
207.4548076243 127.1197622254 247.6369880360
236.7525019400 81.7507764192 235.3472174098
211.0771613716 130.6712034668 227.0816310874
227.4233799341 79.2596736068 230.2465747709
221.3213859184 99.0327829085 215.4933176822
199.0572998413 70.2590039826 259.4123323497
211.6251727830 77.3090364614 256.8216249903
209.3343285451 71.2875236791 248.1902304342
207.1958827950 115.1446403164 213.6258471346
231.7605477737 92.1369999874 221.4442926341
230.4239148953 85.1441656528 242.3954447683
220.1204996040 126.9497594418 233.6106618764
203.4372176686 76.3855537711 264.6983141914
221.0163944253 98.0397847621 211.0159542578
221.6035732866 78.5649645447 248.4354626401
203.6238086998 109.4305534897 215.7686652124
209.6331871204 97.3768910737 211.8957382761
221.4363628505 126.2691681648 249.5525606640
228.6625870724 80.9374299789 227.7210832199
215.0338826514 124.4298446736 240.5229805957
205.5472605230 138.1898898509 219.3581062658
209.3407690200 135.2663362529 222.2590385007
202.4157784580 121.0516358517 248.2862235050
236.0176071080 86.9924318795 219.6550909774
228.7702359556 82.3514222108 238.4569520862
209.9567509871 94.9796949900 205.7015335766
208.6634947332 121.4183549560 248.4164883608
205.8666310141 115.4088197169 217.0374112927
232.3954261289 79.7974044547 246.4961722712
201.7779649479 102.5509180884 212.9216828662
226.9795429387 95.0620815946 204.4757755008
205.4477610346 105.7157668720 203.5620621238
210.2576377982 119.8608978545 235.9785835645
223.4083463394 78.7319427391 249.7553126425
223.6533396630 95.3337115708 202.6620342880
228.0293327520 91.6512402738 207.1799804042
213.8415852463 101.6443656221 210.2901745644
227.4627566124 81.3261131012 242.1924242297
219.1309629110 128.2180139119 230.4784954978
228.1709363888 93.2452518472 226.6892866437
208.8674880321 75.6679318918 258.2044023619
232.0725680607 84.7571503851 244.3981703230
201.5525266894 102.6204418306 211.3255323432
208.0124862009 73.7806968953 253.3987116107
207.5062315503 132.3877549149 217.9326602182
215.2973426057 70.5642731545 250.1130550644
203.3571018486 138.3308833093 213.2075799081
208.5633124424 102.3237034825 206.8668178970
218.7619122446 84.8644228915 242.5807913301
204.4089797926 103.3589085263 215.1251962504
203.9435907026 143.4804204183 214.2706168822
230.7364159589 86.1080465233 216.8834738380
208.4795375432 134.2681738324 225.3688800230
202.3286919329 124.4131401501 239.2094351976
224.2118283996 85.4182735811 247.0983252412
202.5206854449 74.5878238983 258.7117593163
208.9668203021 73.4349246037 254.0252485006
222.3257310411 100.5841764040 201.9218766317
232.2906487219 77.8520466697 236.9378717196
203.3085713541 121.0096368883 232.4566595897
207.9967608117 124.0464140251 226.8665529747
215.9239250341 102.3235812551 212.9965379092
204.8338327398 139.4108348111 218.2006783799
207.1142450484 119.3302711110 239.1359978078
204.1679716156 142.7258552685 212.1492760724
232.4421777125 79.4954733664 243.4662028781
227.4084063168 93.5334223290 216.5979707029
209.9543096981 98.0955958534 205.1183269401
217.4581542581 128.6139576916 247.3873379738
202.9815442627 114.5592952401 216.3146628686
221.3578125403 77.9562037612 242.1031343752
230.9465035633 94.8335921403 220.0147649008
209.8405530951 76.1204901968 259.2275026637
202.8878412255 73.3109273443 260.3526032324
221.6035732866 78.5649645447 248.4354626401
208.3591590384 120.3367092087 219.3479919615
211.4462757471 123.3013869346 251.6869568532
215.3031254551 122.1047592331 226.7345828540
203.4249284820 124.2280012878 241.5681461575
231.8619795517 98.4580633075 211.7536455170
206.8480344183 107.1911351990 208.6570990873
221.6933528409 81.1895241744 243.0055798153
224.2788754149 94.2213487954 203.1558375196
215.8362817067 77.2534242334 246.5803671016
217.1279110188 127.6106455857 233.9341432550
202.5445099591 119.3229491121 240.7880618182
202.5551382851 124.5337283552 248.4776748884
230.7601491348 86.4084740544 228.6707861957
228.3158704517 90.6936537852 213.3940103965
222.8984069597 99.8082382672 208.4934066335
219.1907911253 68.8524324910 249.7388539000
208.2349495763 118.9715055020 237.8954728374
200.4054656413 70.6327671121 257.3612694305
207.5483064363 126.7736488138 222.1241010103
216.3963465426 80.8471390731 248.2294135433
207.2829170031 70.0178640109 257.9663330423
204.8685111504 121.9262789556 230.2828278086
205.1095324070 113.1378568392 217.9037678185
225.0951203121 90.5180199901 209.0563411703
200.7341971791 72.8575827155 256.8422797485
225.0951203121 90.5180199901 209.0563411703
211.2811185267 96.5329062770 204.7571850009
217.4436599425 132.7966977880 232.8533213898
212.7424305581 77.1001379979 258.1982927118
226.6879321583 89.7400705972 213.7134650787
207.9593176901 104.4987837337 214.2004492574
216.7908793531 132.3637325015 225.1878847352
218.1464716350 128.2969577623 239.1779289580
221.1632104493 124.9709219918 247.8170822179
222.7086520770 100.4463674417 210.2873782671
226.3855717237 93.1462861892 210.8954673409
207.5986215572 134.4722403213 215.9802326795
205.8129272065 122.9949229497 237.4676839125
228.7816178706 92.6653558098 207.7213272198
212.9151096275 99.3675757395 207.8527912243
211.9244491327 137.1000906725 216.2911362673
210.2595333232 106.2702045713 215.8307974843
220.6938284711 129.7622465867 235.8170971492
201.6343858410 121.5896659884 237.5535788944
206.7123618871 110.3851952350 225.9883221520
212.0258891211 137.7061134703 218.9360474666
203.0745175814 111.1837390182 225.1706955967
202.3953568713 140.4824589372 212.9864388952
203.1243011924 141.4693647635 211.5008558110
219.7484968936 83.8448690993 243.3162463866
221.4019967276 83.2885693143 247.3216519737
227.2452189524 94.6760938674 204.5749642769
219.9276352924 77.7895921576 246.7303068957
207.4839850820 69.3767845636 250.4316983486
220.6696353619 80.3061569655 251.6694181811
213.5421149079 121.3509937438 243.3172079346
201.5525266894 102.6204418306 211.3255323432
212.6550582434 130.8999941897 230.5281221706
205.2110708307 138.9517586467 208.2062006715
208.7959948535 121.5955994022 240.4608986769
229.1267133792 82.2074178772 237.2275371687
227.2538364610 82.4988631809 238.4275809837
211.0559551880 135.3102118461 226.1741854672
228.0778882375 88.7192382933 223.4404793694
213.8031540523 77.1408311189 252.0395863181
203.4249284820 124.2280012878 241.5681461575
218.7785846114 79.6613815286 240.7375353988
228.6625870724 80.9374299789 227.7210832199
210.6221005020 116.8112707713 224.1097855151
222.8856634727 77.6425580361 243.7192482854
210.1946396902 135.6687819796 224.1721195880
217.7536628065 120.2092879814 250.3026616394
217.4677882576 67.8431668285 250.0769627217
221.0271709997 82.9722337697 245.7469045708
202.6091642264 120.1021725784 241.6519781691
207.8117727972 139.4016482670 210.7931881853
210.4550020971 111.4082433706 219.6841603478
217.3099508229 128.5096865699 242.3128928234
212.7137796868 134.5226240689 224.6741610922
208.2217429618 126.6377349106 247.5174609719
231.9749867743 97.8867848147 213.8400740337
205.2450711295 122.9987567913 236.6046005349
227.5588431348 129.2498678967 237.0860241680
204.0012575928 119.7569773412 235.0300760150
208.8566366143 120.3696033926 241.2052607546
230.2261635399 91.0536680370 225.0720410499
222.0918006559 98.0012192582 209.7196091792
215.0540176319 96.2554935088 210.8699590035
227.4239381213 88.1821292618 222.2994224163
219.3051853295 124.5563068300 236.4249293172
207.4750585684 118.2092036761 229.0792755496
209.3407690200 135.2663362529 222.2590385007
222.2159515341 98.9580672175 204.7377471483
228.5698557951 85.4774592678 231.2562999330
208.8944779823 104.0102917679 212.8427200996
209.5923496768 119.3819509123 234.1844607008
203.8004229750 120.4323686479 236.9288055571
203.9058066094 110.1007689177 223.2892079839
210.5411790993 112.5482888766 219.2784885314
202.4996707854 119.0194467300 232.6979380091
221.3037858725 99.7013064743 208.1555254603
207.5986215572 134.4722403213 215.9802326795
220.7414495114 81.3835280646 242.8517820914
206.7414634597 100.2662601757 203.6365361571
235.3461052466 89.7630608038 225.5558626060
202.8028821652 106.3989408062 215.2419487557
206.4380604362 116.2103614591 216.3767098942
204.6595705308 76.5616612099 262.7047411081
226.5713324509 76.9092408308 244.6564326031
213.5197934117 98.1453294636 206.9964298220
206.1532884612 143.3444980324 218.3266673376
216.2771021391 75.3456723579 253.8994056039
227.4987801032 78.7498144542 246.3675896528
226.3586319078 80.3350239512 241.7537894788
215.6951599600 80.4647949436 245.2646142781
206.5047570048 123.1174622950 233.0603076754
207.8117727972 139.4016482670 210.7931881853
208.0413532314 126.1836872613 240.9061842832
223.5612466100 129.6099495763 231.0334861263
223.8308729531 92.3149885646 207.2868008467
203.9391570732 111.3309372260 218.9058290887
224.9474804390 85.0445498410 245.2062012447
222.7432113738 92.9025218480 209.9315901045
231.0582061911 77.5751075704 237.0098192957
228.3090366009 98.9661156352 211.8428800379
209.6129259078 124.6475055611 238.7257742625
209.5484122220 127.6204439904 229.7370861237
232.7911636283 93.4369143570 220.1587841079
222.7520415546 82.0852143410 241.0947828190
228.0800910409 95.2160706392 209.0710335913
205.0661946028 120.0694889878 229.5028973462
210.1422209988 138.2562292898 219.6323423396
227.0955334840 91.0123351673 211.1929826755
205.5182517108 75.6708764545 263.3213798075
212.1917732452 127.4529195383 251.9727293065
217.0109311054 71.2345039903 246.6658400764
204.9072703096 108.8778136793 213.7954924651
228.7200500104 80.2663719526 246.6818529012
206.0885571970 100.7061482611 209.4281361188
209.2163348330 70.4339810317 262.1773582684
217.7536628065 120.2092879814 250.3026616394
226.7054166307 93.9519791418 215.3844194957
210.2713278889 125.4129865511 241.9954308830
211.7879902915 72.1725648127 250.5108091285
227.0393914211 128.5292433799 236.5778310179
217.4754609236 81.4714465526 244.7623920541
205.0681602292 121.4061283247 234.4561812437
203.4200388199 141.5757141660 210.8557024051
208.2844947394 132.1587943742 218.2105234098
218.2972629258 123.4300070249 240.8756070858
216.5742160983 73.0567161412 250.6940691980
226.7483277879 125.2868373265 238.2410009136
219.9311123228 129.9323897233 237.8448156757
225.8419268046 92.4888093343 211.5341964194
207.2562278567 121.2701901376 242.3635480525
201.0985769146 124.9238992906 240.3956269413
207.2965267429 139.8221636650 209.2446608886
205.5298056570 137.6644370078 219.8807339881
226.9674562976 95.8417751878 204.2475355535
201.4399047536 124.1222953391 237.4562529605
227.7040052138 81.5312406951 241.7663053893
207.4560596559 75.9937960849 251.2096906493
207.4787728810 96.8282863183 204.5927358473
228.1126050268 98.7942525098 201.5976934338
211.9583336541 101.5575238733 208.7076934313
211.4462757471 123.3013869346 251.6869568532
231.3939472422 77.2733707768 229.0824476080
198.8520959244 103.3284383617 212.1134772934
222.3497043366 84.2345556277 249.3014752972
209.6172304741 107.1171589768 212.1549608889
235.8881258820 88.9905815133 228.9680661867
207.1760948389 118.4766519330 233.3606918494
227.0421797653 128.4231288664 239.4106636271
234.2415156969 94.2526905842 215.2276440177
198.3873818473 71.1317554499 260.9285968277
220.7544505393 124.9925261100 248.5183164989
211.1995198225 139.2000265996 224.7024801409
214.2682164320 72.3836206937 257.5958319034
208.6209483298 131.8906098197 219.5081046686
201.2694572748 105.9920513382 213.8623615519
203.9405675160 106.5136757300 211.0071793127
207.3278415153 121.0368007728 222.7133386397
214.8523854080 119.4381999505 222.1325866956
213.7097282729 133.1338223580 222.6741763521
229.9463216505 94.9187100920 205.5181753994
208.3310887336 119.0228855943 232.7328069086
227.9134356261 90.0561317676 226.7292507581
225.5821223184 98.9165363805 200.7085935270
211.4134555094 75.3795915603 264.8802395166
224.2147295972 81.5656631296 250.1809061455
206.1789827601 70.7890227018 255.8739561065
226.8372393290 99.7081370392 215.6591801115
225.5647800590 82.9504765663 244.1243768919
206.9850278076 75.3112255709 261.3166295638
219.3936572708 98.4388611313 206.6637455319
228.3094434357 92.7794705263 225.3798177462
226.8494965301 92.3785796193 209.7241425596
206.5231217225 100.5446634428 209.6281147033
223.7565475045 85.3070515148 241.9029437165
231.7762995552 81.1221962030 246.7421620754
211.4710383618 94.5842501477 208.4327374964
233.1902072371 88.1768754911 229.0809868624
222.3265540288 100.8831785482 203.5354991702
210.7931035955 119.5297664180 250.8336650088
208.0263513723 99.9625845277 207.8819871012
218.5377590472 72.6773339048 251.6967559054
226.1478900423 99.2384700347 215.6378602127
235.5262427156 80.6460480163 240.0519876298
206.0946889645 118.3929932438 225.7594230331
215.4989654968 77.3783951510 254.6673678642
210.8508349983 109.6271286659 218.5247031489
201.7165699476 106.7206479212 214.7615144426
211.2672990133 118.3332627992 225.9263283358
213.2325065259 127.4797346520 225.0839974264
227.1476484800 93.7196053581 215.9834644307
210.7225751167 128.6223284052 229.6157796045
210.3406594110 122.1549029752 228.1539242118
227.3843318007 98.9805316416 202.4315825867
229.0838306287 95.3568712002 207.7365234921
208.1601750321 128.5062224418 245.9145680935
212.7809492446 75.3799738382 258.2157467293
207.1034606024 121.7913659226 224.8346794496
211.9057590590 138.2965162212 226.6226956997
210.3885451961 103.8573467537 211.0299023554
211.5472048474 77.0568345899 253.9357650502
207.2733023071 102.9884156343 211.3670275304
220.9792567873 122.7718054728 250.7562375637
208.8202359266 115.9005647031 226.9139498533
213.5975868144 135.1140731996 220.0033495880
222.8957060787 135.4701054885 235.2241009706
223.0989215688 93.7900416434 205.6367533711
229.9536940246 76.1820159433 243.8022261627
208.9000013473 118.7647329155 219.6389601877
204.7869390773 106.8045312420 214.6587041335
217.1380327260 132.4448664419 233.0023676570
207.7238434957 117.7801831732 238.0940199178
224.6050191956 132.9535428160 233.3354990772
235.1728336442 82.8177494461 234.2957843442
210.4350039875 111.1243729765 220.1482816034
206.2368340654 105.5530241749 203.5868421706
202.6053311996 115.5555086040 234.5624336169
213.5165310735 138.7387405670 217.9291341326
222.1607600361 129.4587382749 238.8307818517
229.8177315589 93.6405574249 205.9242464229
210.3889389161 99.0823714883 212.1285386961
229.0413362454 82.3712217342 233.7537803858
219.3351873959 131.6913094103 233.6886320765
208.7703899649 73.7316162443 248.7752514645
230.3646285055 77.3828248193 241.2363825892
206.5680888749 106.3464068920 204.1178837187
230.0258112142 92.1179499951 213.1914682736
211.0807496575 76.8018624834 255.8638032888
223.8517822319 91.0725372946 207.2991124021
208.9812378440 125.8929536668 231.8182949836
200.4505808769 106.8072702908 210.4469193630
222.0774452271 99.4238485682 206.0472154449
233.4503024198 81.9069884665 225.8561271424
232.2245493534 77.1011595114 229.6996709537
206.3105011147 70.7896821040 258.3931347120
220.3352977025 75.8197014450 251.3815794730
206.9939867109 71.3179423870 258.8126509054
212.3135889223 98.5674629164 213.2829580397
201.5986309794 122.1803571295 248.7629823043
203.2386242699 110.9861452419 222.4500367717
206.4972353957 118.0957130611 221.0940401995
223.4013693027 82.2569085329 251.5465646178
213.2372105176 129.0839379603 231.0911598464
230.2534749008 80.6732614205 248.0614401050
223.6564924947 86.0296917498 246.1272184264
211.0958637164 113.6250519402 220.1566716936
207.1034606024 121.7913659226 224.8346794496
211.0741541044 72.3177402546 256.1034606499
223.9333880663 124.9924369817 240.1212268233
208.5642042724 134.4081718091 222.1357522275
236.7530798964 81.3892911032 240.9679719246
221.2256129458 84.4424636479 241.0072928853
230.3404679766 77.3892671178 241.4105261309
214.0910938707 120.4769518353 242.9391258261
219.8839731305 81.7659491163 241.6398985166
219.9311123228 129.9323897233 237.8448156757
229.0605144356 92.5407827279 220.6622582232
210.8507579229 140.0644532696 214.1454502624
215.6290707763 121.7251435262 251.7995156980
208.0962981385 94.8219175925 206.1834469428
208.5085785244 128.7277414265 227.6831951294
205.0531324894 72.7769318558 265.3937793315
206.9869475504 76.0704697803 257.0711805190
207.1940927406 113.7382114123 216.6579520921
208.3731579724 103.5930185677 205.7612628047
227.9837991790 82.0906046518 232.8023371658
226.6901406659 96.6780171392 214.3097430211
206.9776454699 120.7058723241 226.7985111834
217.0629651632 119.7325300713 250.8091323316
205.8666310141 115.4088197169 217.0374112927
204.6493721691 142.1896681122 218.0023112296
231.8619795517 98.4580633075 211.7536455170
219.3949784529 82.4029909047 242.7466552818
212.9993012507 137.6498148910 224.8265791544
210.3885451961 103.8573467537 211.0299023554
213.7316610768 122.7449551407 244.1315360833
214.0383824818 102.4440483286 210.9146785478
216.0732966771 128.3010113459 228.5371883770
223.4013693027 82.2569085329 251.5465646178
213.3813719874 121.5402424174 224.7542192435
213.0335553243 120.1963346934 241.9876838079
230.3224708188 83.0544366577 241.4648033914
219.5680325241 124.4806531365 239.5068087771
227.5405663584 93.6925198802 210.2675817992
206.4552762714 124.8394760258 236.7002790862
201.6972860666 123.6833071157 246.5752640212
210.4550986399 129.3516366470 219.1019460705
215.9129344835 121.0934302384 244.3018354925
233.1278230680 87.7449832121 215.8272158635
230.9998814491 81.8777723683 239.4429156080
234.9813985873 78.5821013459 227.8174498794
225.5692354618 126.9980258630 240.2513417059
222.1607600361 129.4587382749 238.8307818517
214.6775438967 120.1055265664 240.2530421019
206.7794101518 117.5471151920 227.9754683673
214.2739230398 130.1699940328 223.4729491337
215.2429269479 125.9774836331 245.4701167070
213.5938717260 97.9400151493 212.7811799827
223.4681791844 77.9582624748 245.4360786530
204.0390813291 114.8399123225 217.2661060886
208.8988436398 144.8728378399 219.1817070247
216.3126852175 78.4584262177 246.8553253735
234.6650249469 93.0309669849 220.7801018556
205.8011891126 104.9086055213 202.6102801658
218.7545287877 124.7524324659 239.1058511218
217.3570111095 96.8816987667 211.1711051418
233.3110798084 83.3851296502 227.9557635851
216.0979199318 128.7665482161 226.4255960583
200.6050348075 105.5737512133 210.2567042153
202.4655922461 116.5748454745 235.0432283053
213.3718993943 101.0037397020 205.9307127450
214.0106363788 70.3015319907 247.2270776906
233.6368951816 93.5832868802 219.7507777879
202.3907976511 121.1483512096 246.9700349960
212.3135889223 98.5674629164 213.2829580397
204.3778700365 107.0090828369 216.3275956480
207.0256800053 126.0809917755 247.6972914785
208.5001211912 141.7681369046 215.0563076430
208.6945735503 101.0211605083 211.4170158901
201.9163611925 123.0981703746 240.9899376496
214.9504212332 129.5385547341 232.6324966853
220.2832401213 124.5862607584 243.9155695818
218.4242531825 87.7867947551 244.5402922348
206.4221606721 110.2440745791 211.9203844754
206.2174588157 122.1897899287 227.6881074902
224.9244862605 91.2509970050 210.1018883120
216.7070196201 133.6500457060 224.6957876492
211.2310001129 126.3811856383 252.4064758727
217.4754609236 81.4714465526 244.7623920541
204.3443315905 117.6227689766 232.8419566154
230.3645281441 82.3808247625 239.1456220512
208.1601750321 128.5062224418 245.9145680935
211.3183197232 77.9178430909 260.7667638816
212.5474831972 126.7678340949 231.5407784992
208.9966519414 97.7269192054 209.4121944807
213.6991381616 77.0353456879 247.4452699794
205.4607251152 126.9373555794 241.8601069971
210.0515041224 111.7698022057 223.0727226341
208.5339400243 112.9075525293 224.7694141619
230.6092257757 94.5889204752 218.9223251135
226.0985025047 94.3442212769 214.5915620646
206.9202276073 102.3320288927 213.2900479508
207.8520647604 125.5473526791 248.6314779902
218.7545287877 124.7524324659 239.1058511218
207.7426960712 71.4489488715 258.8790056955
229.3750435545 83.5080734761 236.3227367623
232.8110008593 76.7297343019 227.0135860277
208.9966519414 97.7269192054 209.4121944807
204.0390813291 114.8399123225 217.2661060886
215.5091719150 128.4304564300 247.5318566641
213.7527421223 128.9404166473 231.8306403959
204.9838859642 107.6444142860 211.0386074954
209.9580919585 70.2793559507 249.5592880872
213.4321313673 78.0154294134 249.5907812424
232.9480456897 81.6940147342 234.6019357567
230.6951445235 92.9071332035 225.9402452469
211.0243355296 77.3756582545 264.1478056737
209.4232271551 119.6675437196 237.6622978442
211.0004991571 129.0566394366 221.7511060361
205.9682269664 141.6674873159 219.0642974925
226.9935318779 98.7714742390 207.8862922473
217.0461904441 133.4243943589 233.5099187241
209.8715591296 132.3898358726 218.5128300343
203.6238086998 109.4305534897 215.7686652124
209.2074651975 139.2885572745 218.1468247789
207.8143478757 137.7101627193 219.7541093057
237.3343156136 82.6975108219 239.5708636547
206.7473521771 71.2787988681 248.9616695519
218.4385931040 128.5393077564 230.0856736937
223.0002447767 129.2470897192 235.0580201982
235.6606663762 92.7557553633 218.2718659068
210.1153229808 123.3125521635 243.7736626961
223.3846486777 83.7433279204 241.5524341624
209.5483565132 115.9246261465 226.4744255824
225.2460564671 82.6787538462 243.3991295962
206.6679739254 107.7966518797 210.3594070614
202.3930568107 123.7912232150 240.8386469868
212.8863990731 76.8046962291 264.0395575818
208.4196879021 136.1361877269 224.9731510491
232.2906487219 77.8520466697 236.9378717196
231.6159038750 84.3370540086 231.7840109626
214.1851452785 74.0632387648 256.5760629900
205.5378859711 123.3323391072 251.0562836272
205.5298056570 137.6644370078 219.8807339881
202.5168071358 73.9554927696 260.4728092059
232.0725680607 84.7571503851 244.3981703230
208.8727559828 128.6032967274 219.9621486446
220.4059008169 84.7736147644 240.8461496240
221.7265082857 124.9209730165 239.8697496552
209.7473877218 119.2192282837 230.8970581192
221.5967863500 99.5972705629 203.4074600164
226.1478900423 99.2384700347 215.6378602127
200.2497462591 107.4826615976 212.3456489051
200.1893541553 124.0442053267 240.9145645069
218.1490943226 122.9398857342 246.3004643782
211.0958637164 113.6250519402 220.1566716936
204.2885638238 120.6453855657 236.8899079507
229.8377838599 95.8566981810 217.6507879712
232.7806594917 79.5223894470 233.7011252358
223.0989215688 93.7900416434 205.6367533711
209.8848878935 71.7391885332 254.9088782064
203.9039509293 111.4965357486 225.9492318793
211.1832195821 118.1558172648 224.2967348894
211.7828518811 138.8743248817 218.8495237869
203.6238086998 109.4305534897 215.7686652124
214.7220551816 124.0026751623 240.4162197754
220.6198487362 94.5413234411 205.0065612213
209.9085083748 115.5921615809 221.9604878469
229.3188326484 83.6486172967 236.5799271446
209.5236138951 103.7382869557 211.2027217430
208.8965753600 116.5358983658 221.8355445262
217.4226725274 125.7885209849 225.5904283491
208.0391103817 115.8754038888 226.2081831635
207.3933590588 141.4108306161 215.0489761173
233.0931154458 83.7330123037 230.7045195591
204.1617422282 102.4192429445 210.4064434417
221.5845688433 125.9859056242 249.3805479435
209.0094481210 73.1492621633 248.8323581895
212.3653379271 119.7266052014 227.2467672021
217.4458644608 96.4875521900 209.7373503038
234.4749387967 95.0727347130 217.7589582719
212.5978776362 132.5496112913 221.7448905000
229.6623539835 95.3846154940 206.0889811124
213.3737654963 128.5965217985 251.2981083081
206.1607737584 124.7637380244 231.2011057730
229.9895811531 92.2724742384 212.9731916287
231.3090211354 78.3418169116 240.6755113392
233.1431016573 85.2501085016 225.6361818143
205.0365735570 120.5909839718 230.0947533124
215.4544135919 78.9293253481 245.1822100694
224.5329354925 81.1873103735 250.8958292782
214.9695347697 79.3585547697 246.4989000723
217.1036918944 121.2556776672 243.2214336121
220.9308951793 99.7145238567 211.0850040133
201.6054214755 102.3234202947 212.8336506485
210.8860993755 125.9346596400 244.8330234031
219.1264759425 84.0417309648 243.0326810033
208.7221597641 123.7688475140 241.0927564736
210.1636598812 107.8527218922 213.2417993792
217.9739148924 124.8619067890 236.1134131160
204.9526372161 76.1193160145 260.0440260959
223.2626688133 78.8534391823 248.6292147659
220.2832401213 124.5862607584 243.9155695818
203.8024204329 72.0191071294 253.3758763848
202.3953568713 140.4824589372 212.9864388952
216.8363785562 125.8121136012 228.9189130378
206.7293523966 122.8522605641 252.6863415305
214.9504212332 129.5385547341 232.6324966853
212.0086900174 120.9441042758 241.9376207308
230.6583051169 97.0176575796 210.5034041216
203.0028871381 126.4476489315 247.7766953335
214.3599069949 72.6692495642 245.8798886929
219.1198169898 98.0860055889 214.9094423890
209.2545630977 117.4274632811 221.6545137823
229.9950057564 78.3465245364 238.9125603638
209.8260493734 120.5412518754 227.4525118311
216.0099062621 128.0242745727 247.7675705005
236.8114187671 80.6706843221 236.0600812479
228.6487317883 92.3729782598 217.3337942116
218.8225078396 130.3033446219 236.3485672690
229.4618017651 93.2016944121 227.9732793396
222.3405411468 76.0362298536 246.4136130696
205.8707122350 112.6568468544 226.3817363319
225.3053008040 125.6636728325 235.6383248119
231.6503414013 83.3844248693 226.2704270497
204.7869390773 106.8045312420 214.6587041335
219.6502997843 82.9790710558 246.8233764216
205.9603135970 135.7273113395 218.6197203386
233.5374278777 78.2676642532 226.7667535863
216.4778660462 121.5808345528 228.3948632839
208.7670205585 97.1686474428 210.8496616783
232.4263068464 80.8087499956 243.2873460809
208.8656457240 138.5248400942 213.9111037585
217.0214585047 121.0178515071 247.2780014491
204.5449746562 119.6402504554 234.0566750108
213.2289750217 118.4694344900 225.2754422693
231.3629912084 81.0728639700 233.0506123917
220.6743691958 127.9404551014 231.1366733375
210.1351178276 134.2556120662 215.4512345565
205.4609649107 121.1471789049 243.1801707951
204.2800718290 116.3475475616 233.6520004277
217.6756780332 128.5863797138 230.6249639870
227.6094014501 81.5603596577 242.4659975294
227.9134356261 90.0561317676 226.7292507581
211.8004823485 123.3175788239 231.8879849511
213.6628628501 75.3263673231 255.9557677326
214.3015021245 119.1365804117 223.8461129384
220.1034610806 126.0626676045 245.8395698206
226.7068351716 129.9279634954 236.3951458021
226.6879321583 89.7400705972 213.7134650787
215.9147443163 126.0711836501 250.6996093455
208.3654559322 99.6851101644 206.2204920443
209.3148652775 103.2009345136 211.7443923315
217.6153526139 85.7966045968 244.7815706542
204.6493721691 142.1896681122 218.0023112296
210.4550986399 129.3516366470 219.1019460705
212.4383838533 132.9658970514 226.5544743572
232.5134818655 75.8010795294 228.8533557451
236.3498165686 78.4946277854 239.2391786785
228.7702359556 82.3514222108 238.4569520862
226.3464024097 81.9328885896 246.1317864761
199.0572998413 70.2590039826 259.4123323497
219.8167059153 82.9468541039 248.2697114496
202.4464575983 112.0181511618 224.2429840799
230.3741950705 95.4167882636 217.0740177529
228.5067464972 96.3935697476 209.7631516077
207.7421839634 112.8996677905 216.9093344850
231.7486950819 91.3636378996 224.3817183283
231.9168801840 85.1945034171 245.4343206606
217.4677882576 67.8431668285 250.0769627217
209.1313739851 114.1734642114 223.9808289392
211.6642606451 75.7699066536 265.6925572439
208.6634947332 121.4183549560 248.4164883608
210.4662859966 72.5225163941 249.6948318267
201.7773897055 105.2445807146 210.0857774237
224.1573120274 81.8728760274 249.6022440845
208.0263513723 99.9625845277 207.8819871012
219.2509069222 84.2273811031 241.4740345648
215.3576035584 98.1575759781 215.4286687230
232.4421777125 79.4954733664 243.4662028781
215.4556090016 73.0278241895 253.5544837720
203.0974179604 106.9871320616 209.7343041024
216.0732966771 128.3010113459 228.5371883770
215.6290707763 121.7251435262 251.7995156980
201.2390701359 124.7976866458 239.3549825027
214.8501079170 121.7717910542 239.8859655961
231.8232513099 90.5536816879 231.1833693014
227.8266321400 89.6239058204 225.8329459111
203.1237314218 121.4461474324 246.2528646638
212.3693033870 138.5028996722 216.1634388608
209.7907220322 95.7343984180 211.3290461683
219.9276352924 77.7895921576 246.7303068957
229.0574422137 77.8995750441 239.3392545779
206.9570227108 102.1578701078 213.0781313819
207.1950837175 71.9010748899 263.8285114975
223.9947839043 81.6037088222 250.5558592231
205.6334777817 104.4410266099 208.9380823301
205.3409301807 114.5965351617 224.5105747194
207.9735220587 72.3842557557 259.7534829792
227.9863558710 91.4410460536 207.7606556673
217.1565467650 124.8526262853 225.0632453671
209.7443771876 121.7314733491 247.7090516476
206.2567686674 119.7126921628 237.9241142331
208.7689986613 124.4778049354 232.6419319756
207.8143478757 137.7101627193 219.7541093057
206.0565639721 123.0092953032 233.3602799790
220.8597991197 96.1652710855 204.6277343014
215.1681240157 123.1327242606 229.3437373022
216.1292570473 126.2585846614 235.9693921063
209.8000153129 128.3499370691 250.2421535717
215.5956622174 127.5189446282 241.2910260484
214.6509922230 100.6239272329 211.6049683911
222.9691069226 79.0985005646 242.9489920647
209.5519305547 103.5950343580 212.1435098850
215.1353267278 126.5195736685 241.4536219726
211.8004823485 123.3175788239 231.8879849511
213.3677364832 123.5177037931 240.2894422187
204.2224871798 101.4026107423 206.0019893489
222.2652356877 92.7337826358 210.7274538265
218.1058043397 122.5344177409 228.0754086016
233.7389868468 91.8840233571 228.1536576505
222.0379004924 82.8583369161 248.1736052865
203.1899572039 119.7575377511 237.1301758792
224.0665262965 129.6794559403 240.2361924900
214.2682164320 72.3836206937 257.5958319034
212.3406248462 135.0892299572 219.1960664871
209.7534750803 98.7709871601 207.0170564823
209.9580919585 70.2793559507 249.5592880872
222.6938493712 130.6332049636 236.4938420793
214.1257461228 76.9892597645 259.6125730144
231.3313842431 95.7699115384 210.3357698677
209.4931034155 70.1236483333 259.0156710682
227.2538364610 82.4988631809 238.4275809837
224.3523356870 123.1073160186 238.8940639550
210.6926295394 98.2819530644 206.0030854680
211.7772983439 137.0682850169 217.8012614631
225.5651921416 82.0706138499 242.1675755117
219.1149592550 76.1383844628 249.1805484968
216.3126852175 78.4584262177 246.8553253735
205.9722684041 118.5763521051 232.5225031349
228.6764299242 92.9478424087 212.8408951071
236.5144542906 82.1500166282 235.1037388791
228.4024288238 89.4190899198 225.6224951946
210.1775052807 128.4927226259 221.6984796901
226.2863963493 98.7726886841 214.3283919160
228.3098178427 94.9665324489 208.2596612720
224.7818443452 98.8581875682 211.8477544151
205.6252844917 123.3839287502 233.7640557283
227.7786854912 95.9347312987 206.7852762858
221.4896293578 124.8165635981 236.0567217335
218.6595755384 135.7256950313 233.9010159589
207.9967129923 133.0729023905 225.0891593600
227.6836434753 89.9835241040 227.0824811047
232.7041022752 86.9626381420 228.9845372850
227.9693989177 80.9864519915 230.2629317530
205.7399860467 119.1556967364 248.3747354095
201.9878068184 71.3811069723 256.5010680580
226.5192829187 126.3963023667 235.8998812204
206.8963794699 103.3838660580 212.3337705059
222.3960839700 128.9477924411 233.4856299493
209.3215070463 115.8596584243 235.6719113031
214.3924658178 120.8124290725 239.4223825080
214.3969325069 124.2277860206 245.9997789882
216.2657135378 128.7949263162 235.7863069407
211.4489066650 127.0690797917 246.6734206875
207.6424968999 109.9253931672 214.1214127972
208.4395717990 140.7825814431 214.2395159079
233.9832764800 76.5331751111 228.2395503379
200.5854168830 74.7031010976 264.0711846684
212.7303466509 119.1816001820 218.1313635791
218.1884443610 95.7195876973 209.7034803677
210.6567550594 77.2783461312 263.0535928583
207.5318185790 140.1895050538 224.1835826630
209.7002455341 74.9249765114 263.3388976198
208.6964130329 129.9122920621 221.7966271699
212.1011148668 129.7722194000 230.3450629812
216.6099359169 129.6263651770 236.5364643389
203.0368992513 138.6352860436 209.0079359043
221.8637593097 126.0519771574 234.6411219898
207.5391644720 129.9112508590 222.3267815079
209.1960829973 74.9616415420 260.6414313203
233.2964493301 86.8915246289 223.4047673393
200.2320404326 69.7350793023 261.0726127795
209.2290035352 121.2963180720 221.0360996660
210.7980024939 134.0845837805 225.3740220144
234.1215388868 90.5356224035 224.0241283751
212.3846520595 125.3284121401 243.0771826352
204.8685111504 121.9262789556 230.2828278086
226.5624347288 99.3980689438 204.5455452189
224.0034484152 131.3239893515 234.0024793630
231.8002389270 84.8517896113 243.0040634075
218.9669446285 94.4338007107 209.2255820859
217.6173792383 123.7352059810 245.3274201173
237.4699419563 81.3470309477 236.6218156078
210.0745813084 117.1266644556 227.8090038455
217.5814418073 120.2469119716 251.9519412354
217.4242814329 74.6885973413 246.6718653768
209.2545630977 117.4274632811 221.6545137823
217.9198594509 95.5440708370 209.0460802643
210.5518162455 127.1917871604 230.6582810330
219.0641805177 86.1810415482 246.0850464594
218.4584756182 128.8193767920 239.6971284244
218.6140065853 87.1486655211 242.7463218029
208.0413532314 126.1836872613 240.9061842832
213.7790172806 123.7522432431 227.3804905848
209.1660873280 98.5489611385 210.7681808695
203.9492033484 121.4585253197 249.6658107088
214.0592842256 123.7523317972 250.9978288139
228.7083628420 85.0116779469 229.9468310354
217.3636441116 75.9145901391 245.9275086077
226.5624347288 99.3980689438 204.5455452189
204.2571714310 113.4803498723 236.2327488560
231.8801002002 97.8968293664 214.0199211745
223.2950730118 97.3559894859 201.5314410029
217.6756780332 128.5863797138 230.6249639870
233.9839662176 82.2723036735 234.2146344147
218.1294785527 126.5212850284 248.7313060786
224.1573120274 81.8728760274 249.6022440845
205.1960840539 104.4924130271 210.3591283145
216.4462325678 80.1785742460 252.6000978220
216.5428156686 125.4338304319 230.6162609224
206.4180116698 113.1562849661 225.9059526378
204.6826771424 136.2971249710 216.8140171008
219.1429519938 83.2368123804 248.1282884812
212.5509592860 141.2611032225 218.8820818200
225.9173966227 130.7114305207 237.2160201283
207.1243953278 70.7218757272 252.1986597283
217.5320757612 75.2565853639 251.5672158392
232.7630680435 91.2947510939 215.4352267516
212.9000796865 132.8947934473 221.7747147204
216.4851116071 101.7965068412 208.6608247669
219.1236697510 132.9158239034 229.7657100066
220.5296391527 130.9872476410 233.9013563630
212.2918979803 126.1355671198 232.6708141715
201.5986309794 122.1803571295 248.7629823043
212.9235273990 76.7644584890 254.5443848912
215.1661499601 127.1920313818 242.5862187731
211.3183197232 77.9178430909 260.7667638816
225.9536171545 95.0133877975 202.2454034290
222.6801091642 99.4089304031 208.7641447005
208.0299045083 116.1969523248 233.3423510560
229.5438279285 90.6135318748 216.1718901276
223.9240995924 94.5013279237 207.5249418789
225.3838618546 91.0710426342 214.4891800405
212.2077606610 119.0887786564 226.1346926105
205.9659501409 128.7491008826 224.8973561947
204.2347373389 123.0838237984 242.6993216375
206.1789827601 70.7890227018 255.8739561065
211.4767407113 120.6580743788 218.4725767222
207.3278415153 121.0368007728 222.7133386397
224.2675445060 82.3846870141 249.1595700100
231.7605477737 92.1369999874 221.4442926341
214.7960624682 125.3783585482 231.8712924486
213.3104173547 74.4045354170 248.0589658391
228.2000992328 79.0845953362 235.4485810878
201.7201897379 73.0862568232 260.6555473214
227.4987801032 78.7498144542 246.3675896528
207.8193683980 120.6038907943 248.0867961982
229.7758125101 97.6020397608 210.7591731834
209.8974413932 100.8474836655 206.8648119647
203.1237314218 121.4461474324 246.2528646638
228.8608577156 94.1742220725 217.5248024714
211.0004991571 129.0566394366 221.7511060361
211.2931047280 133.9532105746 217.5398070971
210.4708183887 133.9754737182 224.2167503004
217.6582756280 125.3945762991 226.8049504057
209.9141979038 122.5076620821 233.9491094647
211.6702739182 120.0797099828 229.0344971742
206.7852777661 72.1920030688 248.5409049606
223.8516847182 95.3706072101 212.9266039718
212.9644275049 126.2126343029 252.2632524106
215.6664374290 129.0704634733 235.5078223276
233.6480120003 89.0249620871 221.4543735996
208.9893142466 128.5262436940 247.2885140543
203.9682389189 114.7804298542 237.0790640646
212.9644275049 126.2126343029 252.2632524106
220.2333211954 130.7338547912 235.8535381597
216.8013879957 128.2421560625 226.8057195877
208.0584902284 107.1702250350 217.4392425683
231.3544431863 94.5772267217 212.3242551353
206.0376161162 70.4336137712 260.4304655068
224.8209221467 78.2345412501 244.5197696339
216.0099062621 128.0242745727 247.7675705005
217.8487882997 99.4758775333 215.6687525564
235.5449608330 80.5301032673 227.5761885337
208.5191257398 101.5322299001 204.5217390103
234.3229033302 82.9954803522 234.1533230237
216.6359859706 79.5404450119 250.8061273901
208.0449263936 107.9398681626 209.8692818231
225.9858401228 130.0727386541 238.1363585372
219.2835794910 84.7050771489 245.8494791458
224.3554588086 128.3793759583 239.3898772814
203.1913467817 121.8573492257 237.2169401302
206.6424501049 98.6758477732 206.5585943556
229.0535066781 83.7117938478 227.9871247099
212.3936353892 75.3024186955 248.4665328152
216.7991743013 125.3858314693 234.4531326861
207.1958827950 115.1446403164 213.6258471346
207.1958827950 115.1446403164 213.6258471346
216.8988216389 102.6690787122 211.9940460569
222.2036470355 126.6569962134 240.8211158210
216.8370102723 75.6096900857 253.3549470131
210.2608019684 120.9690872809 226.9776299862
205.5207373277 127.1600982454 226.3299312013
219.7467248972 129.4519220722 248.6024830946
206.2057273209 126.6703694850 229.5160559100
213.0439226773 131.8315145725 227.5141355401
208.1763229581 119.0575968035 231.6138800933
200.9736805836 120.9510985057 241.9209835087
214.7348526284 136.4750081934 221.1846128524
202.3286919329 124.4131401501 239.2094351976
203.6667027728 120.3827897202 242.6034201873
219.8281161065 97.3437465148 211.2491298518
206.3854947585 119.9871949512 223.1954237581
209.5407557430 104.5293444531 205.5687333765
215.8038820077 96.8168155034 212.8901461208
207.1490655255 101.5385247756 201.1160531531
209.9221196324 96.0768110917 211.0494230674
222.4172888157 129.0926844154 239.1444679693
217.9997454119 122.5013523119 242.7153756014
206.4987777246 119.6957123643 245.2256350581
202.4870001187 101.6272039276 211.3168778326
221.4422921794 99.2355251236 206.8460571637
208.3783836764 70.6207966997 257.4402201074
213.2329799150 137.6583989335 223.6069740060
211.9931143256 129.4035236409 220.6239797860
202.6406921421 139.3710693174 215.6193097900
209.7911305510 123.3403891831 247.4389512899
232.7767449683 88.9263332059 222.6273086004
218.7506859512 80.0356565106 241.6729503368
205.1222257557 70.0936422806 258.6263123595
221.7527922512 99.2969865545 208.9710413813
212.6402773986 71.4300391711 257.9152827295
214.2682164320 72.3836206937 257.5958319034
220.8066745811 125.2664128498 235.6086749377
223.0807789379 77.9609259922 247.3559671296
218.7297628088 72.9564264663 246.8091113541
231.0582061911 77.5751075704 237.0098192957
214.1881881177 122.9754162814 239.7238083613
213.5225500019 119.5592929051 240.8809270427
234.2601875885 88.0369983252 229.2875208689
211.7333177018 129.3113142784 223.1341456055
208.1601750321 128.5062224418 245.9145680935
217.8715812398 97.0107674889 211.5054455431
235.5775952226 94.4353717393 217.2521014503
222.6807779023 123.8503879133 236.6448316866
213.5207574489 123.1594580124 248.2060020752
209.3062654782 132.7084818459 228.6206787107
220.2222402418 78.7364323386 248.5253484974
203.2768503747 140.2592337177 208.6291083836
201.6059224853 124.6661595719 239.0907122273
208.5712601906 111.0685303817 215.3955487653
216.0999441257 70.0681334515 247.6613649056
215.3345786921 129.9252051124 233.1241882997
223.6564924947 86.0296917498 246.1272184264
217.5505363642 97.1504162186 207.4205401330
211.7333177018 129.3113142784 223.1341456055
213.2963712248 122.8670189434 250.5580666199
217.3467831499 99.7282087336 215.8408005108
205.4701590929 109.3663518236 221.3290092645
207.0313684336 129.3317831908 228.7626853313
217.1237853354 126.5531008629 224.6178726751
218.6034659245 131.8255473525 233.6669532780
205.4714032651 126.6250981389 249.8647276462
237.2205247056 83.5649059019 238.4895825012
220.4744166530 127.6355678943 243.2981955169
232.5873804208 78.8693877495 231.1182140717
234.0389277100 82.2211827749 238.3840501732
221.6452106042 124.7599096146 250.1249100213
205.2014257510 121.5614468010 244.3660452129
206.5910445329 114.7878132902 217.1636637002
204.8362475227 143.2117680870 210.0637431017
231.6454531141 89.4908960103 216.2306912844
215.8008237979 78.2755846693 244.6174124594
231.5807758784 95.9582886107 216.3264555422
214.6491631058 74.3920908353 254.2188564300
207.3933590588 141.4108306161 215.0489761173
205.4477610346 105.7157668720 203.5620621238
228.2327992980 92.3732701612 212.3742459400
229.7838250448 77.6923822526 244.9802997184
219.0949625426 123.8902225409 244.1487445749
204.2954185017 109.8902765039 219.6687288346
228.2000992328 79.0845953362 235.4485810878
235.6408564096 84.6318789288 237.4381494357
213.9000589802 122.3735144910 244.2374272834
228.7083628420 85.0116779469 229.9468310354
213.9793428055 73.9999595400 245.8635097860
234.4086313419 91.2134000518 227.1357970787
207.1341949336 115.6342367578 221.9173960688
220.1204996040 126.9497594418 233.6106618764
220.5296391527 130.9872476410 233.9013563630
207.8710058197 144.2061109945 216.4198316054
231.9749867743 97.8867848147 213.8400740337
208.2931043209 74.3285681305 254.5617428619
202.3801790614 75.9753586875 260.5574749802
204.6974566521 135.2035854757 218.9095960333
227.9837991790 82.0906046518 232.8023371658
217.5814418073 120.2469119716 251.9519412354
