85.9172210693 11.6553544998 208.8200073242
96.4272232056 11.6353549957 209.2500000000
56.7179145813 59.9476203918 220.3170013428
107.4616851807 30.0573673248 175.8399963379
97.0352859497 4.3669238091 213.6240081787
98.7857589722 19.0459022522 214.3529968262
104.0546646118 21.9123458862 212.8600006104
81.2292633057 39.0092010498 171.2842102051
104.5197906494 28.3357162476 172.1018066406
107.5921401978 30.6969356537 179.9731903076
62.3183898926 28.5679626465 213.8459930420
92.9122085571 7.0798683167 208.8000030518
97.7659530640 26.3488006592 187.9268035889
58.5139617920 37.8499984741 208.4638061523
105.2889328003 27.6158313751 210.5019989014
63.2088241577 33.1740264893 217.1600036621
86.0351409912 11.0900001526 204.9029998779
111.0282592773 24.7073059082 172.3110046387
80.4921340942 9.0169353485 213.2031860352
92.1699981689 33.5852355957 173.4173889160
96.6416854858 25.9073677063 172.2200012207
83.1797561646 34.9300003052 173.2100067139
105.0108642578 30.0529689789 182.8000030518
80.1827926636 41.6489944458 178.5261993408
58.6433029175 27.9726943970 216.5379943848
56.5286026001 53.3956108093 221.6175994873
96.2051391602 34.3100013733 179.9430084229
82.9251403809 48.3800010681 174.5330047607
108.0192108154 26.3675937653 200.8681945801
65.2488250732 31.8140258789 213.5099945068
89.6872177124 12.2953548431 208.7200012207
88.7521362305 25.8569355011 171.7031860352
88.5039596558 42.4399986267 172.5538024902
105.3188247681 19.7040271759 209.2299957275
62.4988212585 47.5740280151 225.8099975586
84.4406890869 11.5910253525 213.8901977539
105.1616592407 31.5593566895 200.7504119873
61.1672210693 61.8253555298 215.6200103760
104.5057601929 25.5759029388 199.0330047607
92.2540054321 3.9022068977 213.2600097656
98.7467117310 28.8097267151 189.6499938965
95.1482849121 35.7633781433 183.9259948730
72.6627883911 16.8589954376 216.6261901855
107.2616882324 25.8673686981 205.0299987793
99.9640045166 32.4022064209 185.3099975586
105.1582565308 27.8973064423 174.3710021973
123.9316864014 23.7473678589 174.0800018311
97.4738006592 27.7472057343 183.5912017822
54.5382575989 60.1073074341 219.9110107422
102.7334747314 27.8030471802 210.0260009766
93.4155883789 41.9159164429 179.0989990234
95.9857635498 25.4859027863 181.7530059814
91.1992111206 50.3075942993 179.0381927490
60.6317634583 50.9268035889 220.2510070801
71.0567092896 18.4597263336 207.9599914551
101.8927917480 22.5389938354 210.2761993408
63.3433036804 42.8126945496 220.7180023193
99.8897933960 25.8357162476 204.3618011475
67.7782821655 13.0933752060 215.8860015869
96.4408645630 19.1529693604 212.1699981689
61.4482574463 35.7173080444 217.6510009766
104.5057601929 25.5759029388 199.0330047607
94.9838027954 28.8972053528 177.1511993408
105.1616592407 31.5593566895 200.7504119873
62.1531944275 42.7745780945 216.2479858398
67.0046615601 13.4123468399 216.6000061035
78.2674255371 14.2598657608 210.4799957275
89.7818679810 37.7375259399 177.5719909668
78.1191253662 12.3958606720 213.6340026855
64.4032745361 50.6081047058 219.4340057373
84.8046646118 36.6923446655 180.7400054932
91.1840057373 3.9822068214 211.8399963379
58.2597885132 49.2657165527 221.9318084717
58.7408676147 26.1429691315 215.8699951172
90.7607192993 12.6066446304 211.6360015869
112.3964691162 23.8212337494 178.1300048828
94.7494049072 20.7725353241 210.1439971924
110.8372192383 20.2653560638 209.1900024414
91.1388244629 3.9440269470 214.8399963379
101.9426422119 25.0467987061 176.9530029297
59.0559539795 48.5588035583 222.1468048096
97.5320587158 16.6880512238 212.0820007324
101.2897567749 29.2399997711 175.4600067139
58.1382827759 25.4033756256 210.2059936523
94.0397949219 25.9557151794 182.4618072510
94.0402984619 24.0298385620 173.7649993896
77.2265930176 16.3516921997 212.2857971191
81.2416610718 13.3893566132 211.6504058838
100.7574234009 32.7998657227 187.1399993896
94.5672225952 20.2653560638 208.1900024414
102.9897537231 28.0100002289 174.0700073242
94.8963088989 4.2587003708 212.3750000000
88.2072219849 12.6053552628 205.9100036621
87.1497573853 38.4700012207 174.4700012207
97.3697586060 30.7900009155 195.6200103760
87.7597579956 31.4500007629 171.7200012207
95.6074218750 49.1298637390 182.2299957275
85.7527236938 39.2701034546 179.0489959717
92.0755844116 5.6859169006 217.0789947510
94.5672225952 20.2653560638 208.1900024414
83.1036224365 27.6969814301 172.3995971680
102.5074234009 29.4598655701 203.0899963379
63.5114021301 35.3300018311 207.6188049316
103.4308700562 20.7929706573 217.5699920654
91.0297927856 16.2657165527 207.3218078613
77.5674209595 40.5298652649 170.9199981689
103.3989486694 34.3781814575 195.4069976807
99.6638183594 38.1184768677 185.9013977051
58.9282569885 42.9873085022 223.8010101318
95.5740051270 31.9722080231 180.1200103760
59.8997535706 28.2500000000 212.0500030518
62.3917617798 37.7868041992 208.5709991455
101.8749923706 34.3669242859 193.7253875732
92.6632995605 30.6726951599 175.6679992676
68.9182815552 16.2233753204 212.5459899902
57.4291267395 36.8658599854 213.4040069580
102.5236206055 30.1869812012 175.6095886230
83.6689682007 50.2792625427 176.4589996338
57.9236259460 43.5769844055 221.0095977783
105.8416900635 20.6273689270 210.4199981689
75.9264678955 12.5412349701 213.1000061035
68.3672180176 21.9153556824 213.6900024414
60.9797554016 37.9099998474 210.6900024414
106.5074234009 30.2998657227 196.5899963379
102.9897537231 28.0100002289 174.0700073242
101.0874252319 30.2998657227 176.3000030518
57.7819290161 20.4289894104 214.9280090332
60.3240013123 59.9422073364 215.9000091553
104.6308670044 27.5029697418 197.0299987793
88.8764724731 42.1812362671 177.1800079346
94.5292129517 43.0575942993 177.9481964111
56.3736228943 29.9769821167 209.8495941162
85.8936233521 49.6069831848 179.2695922852
58.4667053223 43.0197257996 224.3199920654
58.8520622253 43.7503890991 216.8869934082
99.5386047363 32.6156120300 199.3475952148
99.0334701538 21.4730472565 216.9360046387
103.3421401978 28.0869350433 196.9531860352
95.3625869751 29.9500007629 176.9580078125
58.0388221741 24.7940273285 214.6399993896
62.2221374512 49.5569381714 218.0932006836
64.9952850342 33.9969253540 217.5039978027
61.2167053223 59.4597244263 220.5599975586
65.0616607666 37.4193572998 210.3404083252
76.7486038208 9.9656105042 215.0175933838
119.4642944336 29.3940753937 172.7223968506
62.8592147827 30.3075923920 212.4682006836
61.4082565308 49.0773086548 225.9609985352
88.0122070312 42.0098724365 175.3600006104
59.1463012695 57.8886985779 216.2850036621
103.9474258423 31.5198650360 199.2299957275
99.5442962646 7.8940753937 209.5223999023
60.4286041260 36.3256111145 216.9376068115
58.9363021851 25.5886993408 207.7749938965
71.2140808105 18.1728439331 217.2599945068
61.0133018494 54.0626945496 222.7279968262
117.1536483765 29.4378242493 171.3939971924
116.9772186279 28.7153568268 170.6200103760
103.1522064209 25.0298690796 201.5500030518
106.6049880981 31.1269264221 172.4853973389
80.1632766724 39.9881057739 170.3840026855
92.5939636230 10.9399995804 207.1138000488
110.5216903687 30.0273685455 170.8399963379
99.8272171021 32.4653549194 178.2100067139
97.6163024902 3.9086997509 209.7749938965
105.2092132568 25.3375930786 197.8481903076
65.7286071777 17.9756107330 219.6876068115
118.1957626343 22.4159030914 175.1029968262
120.3283920288 28.8679618835 173.8459930420
99.5967102051 37.0497245789 187.3800048828
87.9525833130 49.3600006104 174.3180084229
93.1149902344 19.0569267273 207.7053985596
103.0340042114 22.5322074890 205.0700073242
95.2507247925 31.0566444397 174.6959991455
119.7334747314 25.3430480957 178.0460052490
93.6499938965 18.2152366638 205.7873992920
87.8739624023 10.0200004578 204.2537994385
106.9967117310 24.1397266388 208.5000000000
106.3513946533 26.4500007629 171.4788055420
97.9821395874 15.2669353485 206.5831909180
67.5327911377 36.5589942932 211.2761993408
88.7521362305 25.8569355011 171.7031860352
57.1227226257 30.7601032257 211.7789916992
97.3359527588 27.2488002777 177.8368072510
97.0583877563 39.5379600525 184.5059967041
100.1538009644 28.8372039795 179.6511993408
94.8034744263 30.5330486298 180.7660064697
94.4897918701 32.9957160950 188.4018096924
84.2839660645 47.5200004578 173.1138000488
116.1997909546 23.1457157135 174.9618072510
69.0672225952 18.6153564453 211.9600067139
105.4455871582 20.0659179688 205.5290069580
86.0686111450 39.9517745972 177.0959930420
62.9442977905 44.4840736389 216.7424011230
69.9159545898 14.2088012695 211.6168060303
57.6349868774 40.0569267273 212.0453948975
91.5267639160 18.7420177460 206.5546112061
87.2327270508 29.0201034546 171.6189880371
75.8682632446 9.0173063278 214.6210021973
97.1236267090 31.4469814301 175.2195892334
122.7516860962 22.5373687744 173.7500000000
118.6607208252 29.7366447449 172.4860076904
88.8339614868 44.9500007629 173.0037994385
65.4413986206 16.2800006866 216.1087951660
92.0083923340 11.0279617310 207.1860046387
95.2699966431 24.0708446503 173.1000061035
62.2867050171 21.6197261810 211.2299957275
84.9097900391 9.7757148743 213.9018096924
91.4467620850 27.7920169830 168.2546081543
86.6163024902 35.8486976624 178.9850006104
95.8257598877 31.2359027863 180.8130035400
65.7482833862 33.4533767700 208.7760009766
97.2967681885 40.0720138550 184.2946014404
98.8540802002 29.0828437805 189.4199981689
95.9121398926 40.1269378662 186.3231964111
94.1651458740 6.0100002289 211.5630035400
87.0646591187 8.6423473358 211.8899993896
89.1016616821 51.8093566895 179.6704101562
61.3638076782 57.5472030640 222.0912017822
58.5046653748 25.0523452759 215.0299987793
110.2359542847 23.6188011169 176.1868133545
68.0279159546 19.1076221466 220.3470001221
118.0722045898 26.4898681641 171.0299987793
61.6251411438 34.3600006104 208.0630035400
66.1286087036 20.7056102753 216.2276000977
58.1699943542 39.2152366638 210.1273956299
53.3257637024 52.7159004211 218.3430023193
98.0492095947 14.3875942230 205.9581909180
61.4172210693 51.1453552246 218.0200042725
99.5272216797 35.3653526306 195.2600097656
98.0851440430 25.9899997711 178.0429992676
59.9097557068 57.7500000000 216.7200012207
65.8482589722 19.2673072815 219.9410095215
101.5267105103 23.1797256470 211.7400054932
59.5927238464 29.2101039886 209.3989868164
88.2597579956 28.8199996948 171.7300109863
98.1797561646 34.6899986267 194.9800109863
85.7867660522 48.7820167542 180.4146118164
103.8082580566 28.3273067474 210.5910034180
65.5516891479 23.6473674774 215.4499969482
88.0482864380 8.4633750916 210.2659912109
110.7372207642 29.1153564453 173.8700103760
76.4113998413 11.9799995422 209.0688018799
57.1808662415 42.0729675293 224.8799896240
102.3049926758 33.2169265747 199.0354003906
84.5974273682 29.8998661041 176.0800018311
82.8183898926 10.1479625702 206.9960021973
105.4359512329 25.2388019562 173.7468109131
98.8992080688 30.1075935364 173.1282043457
97.6797561646 28.8500003815 186.9000091553
104.3507232666 31.3866443634 201.8160095215
86.0013961792 8.7799997330 205.1087951660
84.2249908447 39.0069274902 177.3753967285
56.0847816467 48.4653205872 217.5310058594
107.8179168701 21.8776226044 214.7070007324
99.8272171021 32.4653549194 178.2100067139
60.5267066956 36.6197280884 216.6999969482
104.8589477539 28.0881843567 189.8369903564
92.6692123413 30.2475929260 176.0782012939
99.4849929810 34.4369239807 194.6553955078
58.1897544861 33.8699989319 211.3400115967
107.6431961060 22.9345779419 205.8079986572
104.5916900635 30.2273674011 190.3200073242
85.7579193115 12.5376214981 209.0069885254
62.1052932739 39.4369239807 219.0440063477
102.2699966431 17.6052360535 209.6174011230
57.2894020081 30.5925350189 213.0940093994
98.6867065430 21.8997268677 211.0000000000
123.1240768433 24.2228431702 175.4799957275
69.8974227905 18.2298660278 207.1199951172
67.1546630859 17.1923465729 213.0800018311
86.6413955688 9.9099998474 204.4888000488
89.9259567261 27.7388019562 174.0968017578
67.6316909790 14.5873680115 219.1199951172
92.7708663940 45.4229698181 186.1799926758
81.4259567261 44.2088012695 173.8868103027
98.1340789795 10.4228420258 213.1699981689
59.3486022949 34.1956100464 214.6475982666
96.0246582031 33.6323471069 184.4400024414
84.7546615601 26.9623451233 170.8999938965
92.6088256836 27.4140262604 176.6199951172
122.7516860962 22.5373687744 173.7500000000
101.9646606445 22.9923458099 205.9100036621
73.3274230957 16.5698661804 211.1600036621
81.4214019775 8.3199996948 207.1688079834
93.0392150879 32.3275947571 174.5681915283
63.2940788269 34.5128402710 213.6100006104
59.4682807922 24.6233749390 208.5859985352
88.5199966431 34.5252342224 172.3273925781
101.4120635986 23.8280506134 203.9120025635
109.9838027954 20.7972049713 213.7711944580
115.5092086792 25.1675930023 167.9781951904
96.2516860962 8.0873680115 210.3500061035
95.0088195801 36.5840263367 186.4199981689
95.2086105347 33.8056106567 182.6576080322
85.0408706665 37.7829666138 181.5800018311
106.9697570801 27.6399993896 203.5900115967
81.2834701538 47.5130500793 179.7059936523
60.1589698792 28.3192653656 207.3689880371
63.6832771301 36.8081054688 207.7140045166
60.9040794373 46.5628433228 221.9199981689
113.6722030640 21.9798679352 174.1499938965
110.4491271973 25.6658592224 178.4940032959
104.5636215210 25.1669826508 209.3096008301
57.1627235413 54.1601028442 215.2289886475
71.7447814941 14.8853244781 213.9409942627
88.2046585083 43.8123474121 180.7100067139
86.5488204956 7.6640267372 211.2899932861
83.8039627075 41.7000007629 170.2738037109
86.5388259888 36.3640251160 181.3000030518
107.1627273560 24.7801036835 211.7389984131
120.7102966309 21.9398384094 175.9149932861
65.5057601929 17.6859035492 218.7230072021
95.1547851562 41.3353233337 180.8710021973
55.7357635498 40.4359016418 223.3930053711
60.2016639709 28.6693572998 210.4004058838
95.9151458740 4.0000000000 209.8630065918
116.8116912842 23.2273674011 173.6999969482
96.4155883789 25.5059165955 183.2290039062
116.9536209106 30.0169811249 173.6295928955
99.9286041260 27.0856113434 190.5375976562
62.9442977905 44.4840736389 216.7424011230
98.1589660645 35.2892646790 180.3489990234
98.4472198486 4.3853554726 210.4000091553
58.9006919861 60.9010238647 223.8102111816
90.3038024902 45.3272056580 181.5912017822
75.8140792847 17.4528427124 210.8199920654
63.0602912903 17.8698387146 212.1649932861
95.7883911133 40.3579597473 180.2359924316
93.4840011597 6.8822069168 210.8700103760
96.9542999268 16.7540760040 205.2223968506
80.3239669800 36.9700012207 170.7837982178
69.7239608765 14.7899999619 206.3137969971
58.1834716797 22.2830486298 216.3560028076
89.1797943115 29.5557155609 176.4618072510
104.7427215576 34.7401008606 179.7389984131
91.3966827393 40.1800003052 179.7720031738
91.6799926758 11.8852367401 212.5273895264
60.5267066956 36.6197280884 216.6999969482
96.8046646118 30.0423469543 197.0200042725
91.1546630859 40.4623451233 183.3899993896
65.6827926636 35.3989944458 218.7162017822
64.6389694214 37.2292633057 207.7589874268
58.2051429749 27.3400001526 206.9629974365
84.3897552490 37.8199996948 171.6900024414
70.4317626953 18.2668056488 207.0410003662
56.5836257935 43.2669830322 221.2995910645
63.6233901978 35.5498695374 218.3326110840
95.1516571045 42.2893562317 184.5004119873
80.9797897339 41.3557167053 170.7718048096
59.7997550964 40.4300003052 216.5900115967
121.7474212646 25.0498657227 173.8000030518
97.9821395874 15.2669353485 206.5831909180
102.5284576416 21.7862796783 207.1497955322
115.6264724731 25.6512336731 177.0000000000
89.2940063477 6.9622068405 209.9499969482
98.0299911499 31.3652381897 171.9774017334
59.9752922058 17.7769241333 213.1040039062
102.8436508179 31.0878238678 200.7239990234
104.6333007812 30.0126953125 202.9080047607
60.2388229370 24.7240257263 215.5899963379
99.1836471558 21.6578254700 208.9339904785
57.1567687988 45.7820167542 217.7446136475
64.9767074585 50.2597274780 222.9599914551
61.3546638489 39.6923446655 219.5899963379
106.0999984741 28.0408458710 182.2900085449
60.4838066101 26.8072052002 216.0511932373
56.9427223206 64.1201019287 217.6989898682
63.1949882507 56.0169258118 221.8653869629
100.2892150879 38.2875938416 184.6781921387
93.7884597778 10.7162790298 207.0597991943
109.1874237061 29.4998664856 174.4300079346
67.3352890015 14.5369243622 219.2839965820
85.4325866699 7.1799998283 206.2879943848
97.0749893188 15.4669256210 214.2353973389
79.4994049072 41.0325355530 172.7640075684
55.1008682251 29.0529689789 214.1599884033
86.3267135620 38.7297248840 181.0200042725
105.1136245728 29.0869827271 197.0895996094
57.5014038086 57.0000000000 216.5187988281
62.5040779114 48.8828430176 226.3699951172
56.8287506104 36.7759971619 211.6786041260
54.3516654968 56.1793556213 215.5104064941
81.8742980957 12.3940753937 209.3824005127
97.0672225952 40.1153526306 181.9300079346
106.4367065430 31.5897254944 176.3999938965
71.8821411133 17.9969348907 215.7332000732
100.9184570312 17.8462791443 209.2197875977
86.6163024902 35.8486976624 178.9850006104
90.2016906738 48.2673645020 175.6600036621
59.6436233521 51.4869842529 221.2395935059
59.8249855042 39.6169242859 210.7653961182
101.3788223267 17.9640274048 211.6999969482
59.2651443481 18.8999996185 209.5429992676
84.0717620850 27.3768062592 171.3710021973
102.9486160278 29.0217704773 207.6459960938
61.1404762268 60.7369346619 224.2274017334
65.6755905151 33.6059188843 217.9490051270
88.7167129517 32.7397270203 173.3999938965
99.5783920288 31.5079612732 175.7059936523
96.6294021606 19.8225345612 208.8939971924
100.9616851807 26.0373687744 178.9900054932
59.4267692566 63.2420158386 221.3846130371
81.2834701538 47.5130500793 179.7059936523
87.5313949585 30.7800006866 171.7788085938
63.8797531128 23.1499996185 211.7700042725
109.6694030762 32.2025375366 172.7539978027
86.6942977905 36.9840736389 171.9123992920
96.4408645630 19.1529693604 212.1699981689
102.3049926758 33.2169265747 199.0354003906
85.7372207642 38.4953536987 171.9700012207
84.3146591187 30.9823455811 175.2799987793
71.0546646118 12.8223466873 212.6000061035
89.2919311523 6.4089889526 212.8280029297
117.6059570312 25.2888011932 173.4968109131
97.5316619873 31.4293575287 176.6704101562
84.0051422119 10.0100002289 205.2929992676
56.0914039612 60.2500000000 216.0588073730
91.0355834961 40.8959159851 178.8789978027
87.4582824707 7.9533748627 205.3959960938
114.5364685059 22.1512336731 175.9700012207
98.3340759277 26.1628437042 183.5899963379
93.3486099243 42.8456115723 188.8175964355
85.4582595825 47.9973068237 180.0709991455
102.5284576416 21.7862796783 207.1497955322
80.5872192383 13.1053552628 208.1399993896
60.0574188232 59.2298622131 219.7200012207
104.9698028564 27.8167533875 179.9100036621
98.3438034058 36.1172065735 187.9411926270
61.4779129028 36.1576194763 217.3669891357
97.5520629883 28.1880512238 197.2420043945
61.1672210693 61.8253555298 215.6200103760
62.6199951172 55.2252349854 217.6773986816
103.2508697510 30.2929706573 182.5800018311
95.0659561157 28.1288013458 176.2168121338
85.4040069580 41.7322044373 173.0000000000
66.7892150879 34.7475967407 216.7982025146
103.2902984619 17.3698387146 215.7350006104
61.5216636658 51.8593559265 222.6004028320
99.8679199219 28.3876209259 182.2269897461
60.8988227844 45.2540283203 221.3600006104
89.7246627808 7.1623463631 209.9400024414
57.2888221741 39.7240257263 223.9599914551
55.5497894287 37.2657165527 211.6618041992
105.3651428223 26.7199993134 194.8330078125
96.4442977905 40.3740730286 181.2723999023
88.5039596558 42.4399986267 172.5538024902
85.0657577515 36.5158996582 180.2030029297
92.2767105103 11.2697257996 211.3399963379
55.5808677673 29.3129692078 209.3999938965
78.0499954224 41.9252357483 171.7073974609
66.9613952637 15.0500001907 214.9788055420
101.4289703369 29.6392650604 186.0589904785
97.1059570312 32.6188049316 186.3268127441
115.2842941284 26.5840759277 167.7223968506
82.4008636475 46.8429679871 174.5000000000
67.6108703613 20.6429691315 218.9299926758
95.5840072632 9.7522068024 209.5299987793
96.2186050415 15.7256107330 212.5576019287
61.0386047363 49.5756111145 224.9275970459
100.3674240112 22.9498653412 210.9000091553
64.1021347046 40.9169387817 219.0431976318
71.6939620972 18.7800006866 205.7638092041
98.0421371460 45.7569389343 182.5631866455
108.9337997437 21.7672042847 213.9711914062
108.9516906738 27.3973674774 204.7100067139
108.8174209595 29.5798664093 176.5299987793
100.5416870117 6.8873677254 210.3500061035
88.7589416504 37.2481803894 179.7969970703
95.4132766724 19.7281036377 207.7639923096
88.7652893066 27.0669231415 176.0940093994
59.1746635437 43.3523445129 219.9600067139
81.1546630859 7.5923466682 211.5699920654
98.1459579468 27.4288005829 196.3368072510
106.0416870117 27.8073673248 202.2799987793
88.1152877808 46.1469230652 181.0839996338
81.8740081787 36.6222076416 173.8099975586
84.6813964844 8.9499998093 205.4288024902
94.0066833496 29.3799991608 172.5119934082
60.2840805054 47.9628410339 222.7599945068
80.2299957275 36.7808456421 175.6900024414
62.1542968750 50.8640747070 220.3323974609
55.7908668518 41.1429672241 224.2399902344
62.9538078308 33.8472061157 214.1712036133
118.7940826416 29.5828437805 175.2599945068
61.2489471436 26.0981845856 210.7669982910
64.3549880981 29.0469264984 216.0453948975
62.1188240051 38.7740249634 215.9199981689
96.9540786743 3.9428424835 213.8300018311
97.3717651367 29.4168052673 187.6910095215
97.0074234009 33.8598632812 196.9700012207
122.7402954102 21.7198390961 175.5950012207
97.1236267090 31.4469814301 175.2195892334
101.3999938965 32.9908447266 183.9700012207
97.8434753418 34.5330505371 198.3659973145
88.7979202271 49.3776206970 181.8769989014
104.8182830811 25.6333751678 175.7859954834
63.9792098999 30.8075923920 214.7581939697
62.8488235474 46.3140258789 221.1100006104
51.9267692566 56.1120147705 213.4546051025
73.0049896240 20.5469264984 208.0653991699
103.6889343262 30.1258316040 191.9819946289
108.9246597290 18.8423461914 210.3099975586
84.6279144287 48.7176208496 178.1869964600
96.1249923706 28.7469253540 182.8453979492
65.0846633911 14.0823469162 219.3999938965
61.7108688354 34.5929679871 217.4400024414
102.8226394653 24.6767997742 199.1929931641
98.3387451172 30.8259963989 193.5785980225
63.7040023804 48.3622055054 219.5500030518
76.4113998413 11.9799995422 209.0688018799
63.0907173157 42.2266426086 213.6760101318
100.2939605713 25.3999996185 200.3738098145
64.9952850342 33.9969253540 217.5039978027
102.9897537231 28.0100002289 174.0700073242
91.0355834961 40.8959159851 178.8789978027
92.8513946533 17.0799999237 205.2888031006
57.0147819519 36.6353225708 210.5110015869
60.4867057800 37.6697273254 215.2899932861
96.6131973267 39.1645774841 181.3279876709
115.3340072632 22.2622070312 173.1399993896
107.3989486694 30.9281845093 177.6369934082
89.6246643066 27.8523464203 174.0099945068
62.2082557678 36.7473068237 210.6009979248
88.7716903687 35.6473655701 175.8000030518
90.8747787476 23.1853237152 171.7810058594
81.2292633057 39.0092010498 171.2842102051
108.8582839966 24.4433746338 175.5459899902
62.2589340210 42.6858329773 223.7120056152
103.1831970215 32.0545768738 189.3079986572
103.8089447021 29.7081832886 188.6569976807
70.9289474487 15.5281829834 217.0670013428
61.0717620850 20.9668064117 210.5410003662
99.9640045166 32.4022064209 185.3099975586
76.1325836182 8.6000003815 207.3079986572
54.9297561646 61.7999992371 215.9500122070
60.7927246094 44.3601036072 222.9889984131
108.4727249146 31.2601032257 207.9089965820
76.1608657837 12.2029695511 213.1299896240
57.0120658875 45.6080513000 219.2020111084
97.1059570312 32.6188049316 186.3268127441
100.6340789795 33.8428421021 187.2699890137
98.1797561646 34.6899986267 194.9800109863
108.5555877686 28.1959171295 210.4490051270
57.9874191284 34.9298629761 212.1800079346
83.1674270630 13.0798664093 207.0200042725
84.5242996216 46.5140724182 172.0724029541
96.6220626831 32.1880493164 189.4120025635
85.9688262939 27.7640266418 177.1999969482
81.3346633911 43.8423461914 175.5800018311
88.7979202271 49.3776206970 181.8769989014
82.9288253784 45.7340278625 179.6799926758
82.9638061523 42.1772041321 176.0711975098
104.9597549438 27.1599998474 194.7900085449
62.9938163757 30.8284778595 213.8213958740
59.9738082886 28.8972053528 216.9711914062
58.8446655273 17.8023452759 210.5699920654
84.3651428223 25.8400001526 170.1529998779
99.2159576416 27.2688007355 197.4067993164
90.3038024902 45.3272056580 181.5912017822
104.6540069580 19.5722084045 207.8300018311
83.1536254883 46.4569854736 172.2295989990
61.7083892822 42.5479583740 213.9059906006
65.6167678833 22.9620170593 211.6346130371
92.8883895874 31.2479629517 172.7559967041
84.8046646118 36.6923446655 180.7400054932
113.7267608643 31.1720161438 175.4846038818
54.3159561157 52.0388031006 219.0167999268
97.4721374512 38.8869361877 182.6331939697
99.8292083740 38.9875946045 187.0881958008
87.7721405029 34.4769363403 175.4531860352
57.0897560120 30.1200008392 213.2100067139
93.8559570312 14.4488010406 207.0368041992
103.0146636963 29.2023468018 181.7400054932
60.9140777588 44.3328399658 221.0800018311
99.5459518433 25.3188018799 189.1768035889
92.5088195801 36.7440261841 186.8899993896
93.7872238159 43.4853553772 179.5100097656
96.6767120361 40.7297248840 183.3300018311
107.2951431274 28.0900001526 203.6930084229
83.6646575928 34.1723442078 176.6300048828
104.5249938965 34.4769248962 181.9353942871
67.5697555542 14.1599998474 215.2000122070
89.7949905396 52.4069252014 179.8053894043
83.1536254883 46.4569854736 172.2295989990
75.8140792847 17.4528427124 210.8199920654
109.6889724731 21.6492652893 206.9889984131
117.7089462280 25.0081844330 171.3869934082
99.5527267456 29.9201030731 181.0089874268
60.7572212219 19.2253551483 209.4499969482
102.5236206055 30.1869812012 175.6095886230
58.2640800476 30.3528442383 215.7299957275
56.5063018799 50.5387001038 213.6049957275
95.2567138672 19.9097270966 210.6399993896
60.5908660889 24.2729701996 215.0999908447
105.3651428223 26.7199993134 194.8330078125
121.9388198853 21.7040271759 174.5899963379
114.5636215210 28.0669822693 170.0395965576
65.0057601929 14.0859022141 217.6829986572
97.5363082886 24.8186988831 180.5350036621
86.3742980957 45.0240745544 172.4223937988
91.1840057373 3.9822068214 211.8399963379
117.2840042114 25.4722080231 172.4499969482
100.2034759521 21.4530487061 217.6159973145
89.5720596313 41.9980506897 180.2320098877
57.9091262817 60.3058624268 222.5940093994
100.2939605713 25.3999996185 200.3738098145
96.8851394653 5.6599998474 208.9629974365
114.4588241577 23.2140274048 177.7500000000
75.4297943115 39.9757156372 173.2418060303
88.1374206543 12.6798658371 209.2799987793
58.3247833252 39.7353210449 215.0809936523
80.1967086792 13.7197265625 209.5399932861
67.3352890015 14.5369243622 219.2839965820
97.0616912842 10.7173681259 210.0899963379
60.6121368408 52.3369369507 218.2731933594
87.6655883789 45.8559188843 181.9490051270
54.7234725952 58.9630508423 220.3459930420
97.8508682251 35.0329666138 197.2200012207
107.4834747314 30.5930480957 173.7059936523
95.4594039917 29.8625354767 170.9739990234
107.2951431274 28.0900001526 203.6930084229
98.1913986206 28.3999996185 174.0688018799
89.6408691406 5.3629698753 215.1199951172
100.2014007568 31.3799991608 186.4788055420
83.6236267090 39.0869827271 176.4395904541
86.6942977905 36.9840736389 171.9123992920
60.7389335632 22.0958328247 216.8320007324
61.3820648193 52.8103904724 219.4270019531
80.6708679199 38.9429664612 177.4799957275
62.6572189331 45.6253547668 218.8000030518
83.3697586060 12.0200004578 206.1800079346
108.8388214111 18.6540260315 209.1900024414
61.4363021851 17.3586997986 212.1649932861
56.8274192810 55.8098640442 218.0400085449
62.9442977905 44.4840736389 216.7424011230
95.2507247925 31.0566444397 174.6959991455
60.9797554016 37.9099998474 210.6900024414
78.4297943115 8.9857149124 206.8417968750
92.1699981689 33.5852355957 173.4173889160
61.8814010620 21.7800006866 211.4588012695
92.2840042114 38.3622055054 183.0299987793
82.1636276245 46.6869850159 174.4496002197
81.8740768433 12.4228420258 212.3399963379
101.8955841064 23.9259166718 203.0590057373
98.8902969360 5.9898390770 213.1750030518
59.2074203491 19.6098651886 210.0099945068
57.9282798767 57.4333763123 216.7659912109
63.6318702698 41.8775253296 221.3320007324
98.8992080688 30.1075935364 173.1282043457
102.5236206055 30.1869812012 175.6095886230
96.2046585083 18.0623455048 211.3300018311
77.5286178589 40.6417732239 171.3359985352
81.1059570312 7.4688014984 210.8768005371
82.2108688354 11.2629699707 212.2299957275
85.0963058472 24.0886993408 170.9649963379
92.9186172485 46.9517745972 183.5859985352
96.3697586060 46.8400001526 180.1900024414
105.0416641235 34.4193572998 178.5704040527
80.3174209595 42.4298629761 173.2200012207
90.2674255371 10.6598663330 215.3500061035
82.4008636475 46.8429679871 174.5000000000
118.0722045898 26.4898681641 171.0299987793
54.9842987061 55.1840744019 213.2424011230
106.9127883911 27.0189952850 202.7861938477
60.3040008545 39.2222061157 217.1500091553
81.1546630859 7.5923466682 211.5699920654
98.7286071777 32.9156112671 191.9076080322
96.7002944946 43.5398368835 183.0650024414
102.5640792847 21.8228435516 218.0000000000
60.1574211121 42.7598648071 212.5400085449
71.9851455688 14.8299999237 206.4130096436
84.3474273682 46.5698623657 172.1300048828
59.7897567749 36.0299987793 209.9700012207
87.4352874756 24.5069236755 173.0639953613
101.0988235474 31.1740264893 180.8099975586
105.0772171021 19.5553550720 214.7300109863
121.9497528076 23.9899997711 172.9600067139
106.8183898926 24.1279621124 204.7160034180
96.2867126465 28.7697257996 170.6100006104
63.3521347046 44.0969390869 218.9531860352
60.7172203064 48.7553558350 216.3700103760
105.8186035156 27.0056114197 175.1076049805
78.8316574097 11.4993572235 214.1103973389
120.9943008423 27.8040752411 173.1524047852
65.5107192993 23.1666450500 214.6760101318
60.8342971802 27.6740760803 208.1324005127
93.4934692383 46.8030509949 185.6759948730
92.6140823364 28.7228431702 177.1799926758
73.0683898926 17.1379623413 211.1959991455
114.2917633057 28.9968051910 170.6809997559
64.5389328003 49.5258331299 224.4920043945
90.2016906738 50.0473670959 175.7799987793
105.5533828735 27.9698696136 181.6226043701
60.5267066956 36.6197280884 216.6999969482
109.0389709473 30.3692646027 205.8789978027
93.7316894531 4.8673677444 213.8200073242
88.2202987671 5.9398388863 208.5950012207
77.5674209595 40.5298652649 170.9199981689
97.5674209595 38.0798645020 183.0400085449
101.4442977905 33.4540748596 188.7324066162
93.9957580566 28.2059040070 180.1930084229
83.0959548950 25.5688018799 174.3568115234
85.2897949219 46.3057174683 181.1818084717
67.5174255371 18.9998664856 212.5200042725
52.4886016846 54.8556098938 217.8276062012
102.3872222900 30.6253566742 194.3500061035
55.4340019226 60.5922050476 216.5100097656
60.0574188232 59.2298622131 219.7200012207
92.2540054321 3.9022068977 213.2600097656
105.5533828735 27.9698696136 181.6226043701
81.0147857666 35.3153228760 171.5509948730
97.2255859375 26.5759162903 173.5489959717
83.1674270630 13.0798664093 207.0200042725
56.5286026001 53.3956108093 221.6175994873
105.5767135620 23.9497261047 213.1399993896
101.1274261475 30.0298652649 201.2700042725
95.2567138672 19.9097270966 210.6399993896
61.4840011597 36.7022056580 211.2500000000
60.8797569275 36.1699981689 207.9900054932
82.9288253784 45.7340278625 179.6799926758
77.2240066528 6.4822068214 208.1699981689
92.8882598877 42.2173080444 187.6410064697
56.4397544861 39.7500000000 218.1800079346
99.8292083740 38.9875946045 187.0881958008
59.3982810974 24.4733753204 212.8759918213
88.7902984619 47.4798393250 181.0650024414
87.2927856445 11.1189947128 215.4362030029
98.8792572021 33.5191993713 192.7442016602
60.4784622192 43.3862800598 213.9597930908
58.0274200439 30.8198661804 212.7400054932
58.3691253662 31.2558593750 216.0440063477
97.4086074829 20.7156105042 212.9676055908
63.5874214172 41.2698631287 214.9799957275
80.6146621704 6.6823463440 209.4400024414
86.8182830811 6.8233747482 206.0159912109
92.7657623291 15.0159025192 206.8030090332
76.7486038208 9.9656105042 215.0175933838
90.0982818604 6.7233753204 209.1159973145
114.4640808105 24.5228443146 178.3099975586
72.0216903687 17.6973686218 215.8600006104
106.1239624023 25.3199996948 177.2238006592
93.0763092041 23.8386993408 171.7350006104
97.4864730835 27.1312351227 175.8099975586
93.5320587158 12.9680500031 211.8520050049
60.2388229370 24.7240257263 215.5899963379
75.5257644653 7.4359030724 213.4029998779
117.9514007568 24.4300003052 173.0888061523
103.5489730835 19.9092655182 213.2989959717
55.3186149597 30.2017707825 211.6660003662
118.6607208252 29.7366447449 172.4860076904
60.8797569275 36.1699981689 207.9900054932
58.6489486694 51.9381828308 214.4169921875
106.1816635132 30.4093570709 207.6704101562
101.5267105103 23.1797256470 211.7400054932
97.6102981567 2.4398388863 212.7050018311
97.0408706665 31.1329708099 197.8600006104
105.2092132568 25.3375930786 197.8481903076
113.9408645630 27.6829700470 173.0800018311
109.6692123413 29.3375930786 209.2982025146
66.8679199219 16.1576213837 221.1269989014
111.4716873169 19.3473682404 210.0299987793
61.0642967224 36.8040733337 210.5424041748
71.8821411133 17.9969348907 215.7332000732
98.0816879272 17.9773674011 208.6499938965
96.0246582031 33.6323471069 184.4400024414
58.0872192383 54.4853553772 215.9700012207
105.1072235107 21.1253566742 215.6100006104
89.7374267578 43.2798652649 181.5899963379
78.5852890015 6.7269239426 212.0140075684
106.9027862549 29.6789951324 173.6361999512
60.9688224792 39.3540267944 218.5500030518
68.5497970581 14.1857147217 213.7418060303
110.0389328003 30.4058322906 174.1819915771
118.7940826416 29.5828437805 175.2599945068
99.8589324951 33.2858314514 199.5220031738
55.4417610168 30.4268054962 210.5610046387
107.4214019775 28.6700000763 170.1988067627
95.6888198853 25.8040256500 175.0299987793
61.1002922058 40.9298400879 223.3950042725
116.1908645630 28.9329700470 177.0500030518
97.3997955322 31.6457138062 194.2718048096
62.8592147827 30.3075923920 212.4682006836
57.2059555054 55.9988021851 220.9968109131
100.6340789795 33.8428421021 187.2699890137
94.7117614746 46.6368026733 181.4410095215
90.2774200439 26.1698665619 169.9000091553
90.2357635498 24.3359031677 170.9830017090
97.7065963745 34.9716911316 188.6257934570
64.0282821655 35.1133766174 214.6459960938
53.3257637024 52.7159004211 218.3430023193
105.8425827026 28.7199993134 195.7080078125
86.7740783691 34.2528419495 177.0999908447
101.8720626831 24.1503887177 202.0870056152
64.9086074829 16.8356113434 219.7375946045
106.9988250732 20.4240264893 209.8999938965
57.6340789795 53.4428405762 215.8099975586
94.3633880615 27.4498691559 183.6126098633
57.3246650696 47.6123466492 219.9799957275
64.7388229370 22.8140258789 216.2899932861
98.6813964844 27.5599994659 185.6587982178
91.6187515259 38.0759963989 181.0286102295
93.8888244629 16.9340267181 210.5299987793
97.2436218262 37.7469825745 183.1795959473
92.5032958984 43.6726951599 184.8780059814
97.2436218262 37.7469825745 183.1795959473
85.6417617798 49.0368041992 178.0410003662
59.1463012695 57.8886985779 216.2850036621
94.0549926758 41.2569274902 179.9753875732
105.0772171021 19.5553550720 214.7300109863
84.4719314575 5.9089889526 208.6679992676
54.7608680725 57.9529685974 220.0899963379
87.1113967896 49.2500000000 175.6488037109
93.7436523438 30.7578239441 173.6039886475
94.7714004517 15.6599998474 204.7687988281
92.9759521484 36.7588043213 183.8168029785
95.9752883911 42.3169250488 183.4840087891
53.9997558594 53.0200004578 212.0100097656
86.9949874878 12.5669260025 214.2854003906
110.1689453125 27.7381839752 205.3170013428
100.2787475586 24.8359966278 203.3386077881
104.3399963379 26.5952377319 196.6973876953
83.0359573364 36.1588020325 177.3468017578
75.4540786743 18.9128437042 209.9799957275
89.1767120361 51.5797271729 176.3399963379
107.0602951050 25.1598377228 197.6750030518
108.0425872803 30.0100002289 169.8979949951
93.1816635132 46.5093536377 183.5304107666
64.1582565308 33.8673057556 213.9210052490
70.6314010620 15.3999996185 205.9588012695
87.0516586304 39.7793540955 179.4204101562
83.6836242676 28.4969825745 173.4496002197
100.9597549438 31.7399997711 186.3000030518
95.9857635498 25.4859027863 181.7530059814
96.6131973267 39.1645774841 181.3279876709
63.3733024597 40.8526954651 214.7680053711
102.0631942749 29.9345779419 193.5879974365
88.2597579956 28.8199996948 171.7300109863
96.4682846069 26.5033740997 179.4759979248
62.6834716797 39.7330513000 216.9660034180
83.8140792847 45.0828399658 179.0199890137
106.9352874756 25.5769233704 201.1340026855
92.1672210693 45.9153556824 180.3000030518
94.7489471436 38.4981803894 187.6269989014
60.4967079163 51.6297264099 217.7299957275
57.1267051697 63.8697280884 216.6199951172
57.7397880554 36.8257141113 210.3818054199
71.0189437866 17.9481830597 217.0869903564
66.6147842407 34.5853233337 208.5910034180
98.5342941284 16.7540760040 207.1224060059
74.1897964478 6.3657145500 212.0718078613
92.6532745361 6.6181039810 211.9140014648
58.9659538269 32.4288024902 213.2868041992
100.8192596436 27.5292015076 202.5042114258
105.7394027710 32.0625381470 181.8140106201
67.5202941895 13.6098394394 218.4949951172
98.2740783691 3.9428424835 212.6399993896
64.3282852173 33.3733787537 208.5260009766
84.4719314575 5.9089889526 208.6679992676
63.9721374512 42.9969367981 218.1031951904
60.8342971802 27.6740760803 208.1324005127
62.6267051697 43.9997253418 222.1600036621
97.9167098999 11.4797258377 212.3300018311
111.2086105347 25.6917724609 171.4359893799
59.3486022949 34.1956100464 214.6475982666
60.2788238525 46.6540260315 222.1999969482
106.4540786743 26.3428440094 206.4299926758
101.9116897583 32.0073661804 179.9700012207
105.0340805054 21.1028442383 211.8199920654
76.3418731689 15.1375255585 207.6319885254
62.3183898926 57.1079597473 219.3959960938
81.7539596558 42.3800010681 168.8538055420
99.3707199097 22.7366447449 213.0360107422
56.2359542847 26.9588012695 209.4168090820
106.0742950439 27.3840770721 203.1923980713
56.8667068481 30.2597255707 208.8399963379
105.4374237061 25.4898662567 209.2700042725
97.4774246216 29.9098663330 187.7400054932
105.4286041260 29.1056098938 173.9176025391
57.4133033752 53.6226959229 221.7680053711
102.5664672852 25.7812347412 200.4300079346
91.5927200317 10.9201040268 215.5289916992
81.2292633057 39.0092010498 171.2842102051
102.9416885376 31.4973678589 187.4199981689
82.7297515869 46.5000000000 172.2600097656
57.5608673096 48.7029685974 220.8199920654
61.1079139709 42.8276214600 224.2070007324
100.0516891479 29.9373683929 174.8000030518
115.9988250732 22.3940258026 174.5399932861
88.2072219849 12.6053552628 205.9100036621
64.2388229370 47.1640281677 225.5200042725
97.3717651367 29.4168052673 187.6910095215
76.6382827759 6.1333751678 210.8260040283
102.7955856323 24.7459163666 175.8090057373
96.0246582031 33.6323471069 184.4400024414
66.6147842407 34.5853233337 208.5910034180
89.8733901978 33.1298675537 176.1026000977
80.3688201904 36.6340255737 174.9299926758
87.3421401978 8.3069353104 209.6931915283
90.1316909790 46.3073654175 177.2599945068
90.5892105103 9.6875944138 205.7881927490
88.7521362305 25.8569355011 171.7031860352
79.1989669800 41.9592628479 173.5889892578
98.0421371460 45.7569389343 182.5631866455
91.2799911499 43.2952346802 176.5773925781
62.7527236938 21.3001041412 211.7589874268
91.9582824707 41.2733764648 179.7559967041
103.4564743042 19.0412349701 210.4900054932
60.9792098999 42.7575950623 213.9581909180
96.2840042114 2.5022068024 211.8700103760
82.7757644653 26.3259029388 175.4730072021
86.4638061523 35.2472038269 177.7211914062
57.9351425171 21.2900009155 212.0630035400
117.0742950439 27.4440765381 169.1324005127
84.9383926392 44.9479598999 170.4759979248
108.8174209595 29.5798664093 176.5299987793
101.4120635986 23.8280506134 203.9120025635
100.2939605713 25.3999996185 200.3738098145
92.7397918701 11.4957151413 213.8417968750
103.2902984619 17.3698387146 215.7350006104
67.5697555542 14.1599998474 215.2000122070
115.5663070679 23.6086997986 170.5749969482
59.8452911377 52.2169227600 221.7839965820
102.9886093140 32.8056106567 181.9076080322
86.0252914429 6.9569234848 211.0540008545
90.4427871704 45.2689933777 176.4561920166
61.5483894348 46.3179588318 217.0159912109
89.3088226318 27.1940269470 175.9799957275
96.7002944946 43.5398368835 183.0650024414
95.0782852173 37.3233757019 181.7259979248
55.9816894531 52.7773666382 213.1300048828
84.4947814941 40.0453224182 171.0410003662
57.3857650757 26.2559032440 208.9929962158
89.7374267578 43.2798652649 181.5899963379
89.7949905396 52.4069252014 179.8053894043
65.1816864014 49.3273658752 220.1100006104
75.1542968750 17.9940757751 206.3224029541
75.0622024536 12.3698682785 211.2799987793
85.9688262939 27.7640266418 177.1999969482
102.3894042969 23.0625362396 216.6640014648
65.0274200439 35.2198638916 212.6300048828
88.6421356201 35.7469367981 175.3131866455
84.0772171021 47.1753540039 172.5400085449
102.1655883789 31.1259155273 194.1089935303
85.7149887085 14.1769256592 212.7453918457
75.4297943115 39.9757156372 173.2418060303
94.7846603394 29.9023456573 178.5399932861
83.6689682007 50.2792625427 176.4589996338
85.3252868652 24.2369232178 174.2140045166
96.0247802734 13.0653238297 205.1909942627
55.0151443481 59.6100006104 216.6630096436
80.9938049316 11.2072048187 214.3511962891
60.2016639709 28.6693572998 210.4004058838
112.2072219849 28.2253551483 174.0800018311
67.3352890015 14.5369243622 219.2839965820
92.1239624023 37.8300018311 179.4738006592
84.6813964844 8.9499998093 205.4288024902
98.4249877930 41.0869255066 187.8553924561
99.7589416504 5.3081831932 210.5869903564
59.1746635437 43.3523445129 219.9600067139
54.8646659851 27.9623451233 213.3199920654
59.2408676147 35.6729698181 217.2599945068
77.5674209595 40.5298652649 170.9199981689
100.2997970581 24.4157161713 189.4718017578
63.3031959534 47.9145774841 218.5779876709
81.4259567261 44.2088012695 173.8868103027
55.5940017700 56.4022064209 218.4100036621
82.3107223511 10.9466447830 208.8160095215
90.2416915894 28.5773677826 172.8500061035
99.6066818237 28.0599994659 173.8619995117
109.1327209473 24.2901039124 210.3889923096
96.6567077637 31.4997253418 176.4199981689
106.6767654419 31.1220169067 208.9146118164
96.2516860962 8.0873680115 210.3500061035
94.1651458740 6.0100002289 211.5630035400
111.5525817871 23.8899993896 170.0079956055
94.0549926758 41.2569274902 179.9753875732
85.7579193115 12.5376214981 209.0069885254
66.5046615601 16.9623451233 215.3500061035
97.1682815552 13.7033748627 207.5760040283
95.2639617920 34.0200004578 186.4838104248
103.0092086792 25.0675926208 201.9082031250
93.4886169434 29.4717712402 169.5459899902
59.2346649170 39.6823463440 217.9900054932
60.2440795898 26.0328426361 216.1499938965
112.8649902344 27.8969249725 180.0253906250
105.8121337891 27.5569362640 202.3231964111
108.9246597290 18.8423461914 210.3099975586
92.8147811890 36.1753234863 180.2409973145
113.4247817993 26.7553234100 173.2709960938
86.4552917480 33.1269226074 176.8139953613
103.0146636963 29.2023468018 181.7400054932
57.5172195435 63.2553558350 215.2200012207
95.5389709473 17.0792655945 205.1790008545
92.9538192749 30.8584766388 174.7313995361
81.0499954224 10.9352369308 205.3073883057
68.1552886963 15.6769237518 219.2340087891
110.5789718628 21.3392658234 208.9989929199
69.2500000000 17.4208450317 219.1500091553
60.7572212219 19.2253551483 209.4499969482
63.3998069763 47.0767517090 221.1600036621
88.8097991943 47.3067512512 175.2700042725
62.2952919006 17.0669231415 213.0440063477
78.4232711792 9.7481040955 207.7839965820
76.8713989258 40.4500007629 171.7288055420
80.1320648193 7.6103878021 206.9270019531
95.1516571045 42.2893562317 184.5004119873
98.5827255249 9.4201040268 212.7689971924
71.9426422119 14.7468004227 214.7129974365
101.0859527588 26.5388011932 200.3468017578
102.5759582520 31.1188030243 178.1168060303
55.7682571411 41.3073081970 222.6210021973
97.4949874878 32.2069244385 173.8954010010
55.5940017700 56.4022064209 218.4100036621
94.6572189331 16.2053546906 205.0000000000
85.4943008423 48.3940734863 174.1324005127
105.8582839966 25.3633747101 198.8659973145
101.2321395874 33.4369392395 185.8731994629
85.8451461792 27.1499996185 169.1829986572
61.6072196960 58.8453521729 219.1600036621
86.4772186279 36.2753524780 171.4900054932
84.3099975586 44.0208435059 178.5599975586
88.4983901978 44.9479598999 172.6259918213
106.5113983154 29.0599994659 204.0187988281
108.4727249146 31.2601032257 207.9089965820
105.7416915894 20.2073688507 216.4499969482
115.7082824707 24.3933753967 169.5859985352
101.0807342529 26.2800006866 196.2725982666
60.6774215698 37.2298622131 208.8300018311
100.2133865356 27.3298702240 205.5126037598
105.0731964111 26.2845783234 202.2779998779
99.1172180176 37.6953544617 182.4800109863
95.3497543335 30.6499996185 177.1399993896
121.9194030762 26.9525356293 177.0940093994
63.2165946960 28.8816909790 215.2557983398
61.0642967224 36.8040733337 210.5424041748
109.6516876221 19.4873676300 208.3500061035
103.4659576416 29.8788013458 180.4268035889
56.6320648193 55.6580505371 220.0620117188
65.4582824707 31.4433765411 210.0659942627
88.8339614868 44.9500007629 173.0037994385
54.4863014221 51.3886985779 213.2550048828
81.3346633911 43.8423461914 175.5800018311
100.9231948853 15.0545778275 210.5779876709
94.5367660522 28.4320163727 181.6946105957
68.0740051270 12.9522066116 215.7600097656
55.5497894287 37.2657165527 211.6618041992
99.8292083740 38.9875946045 187.0881958008
84.6172180176 41.8253555298 173.9700012207
108.9902954102 26.5298385620 206.5350036621
104.7488250732 28.8740272522 182.3000030518
85.5067138672 46.7997245789 172.9700012207
99.5197906494 24.3757152557 202.2918090820
92.6692123413 30.2475929260 176.0782012939
100.8727874756 26.0489940643 178.2061920166
75.8846588135 10.3923473358 210.6499938965
56.5063018799 50.5387001038 213.6049957275
61.2182807922 16.8533744812 210.7760009766
87.8739624023 10.0200004578 204.2537994385
97.3508682251 29.1929702759 189.1399993896
94.8392105103 37.4975967407 181.0081939697
79.5747833252 6.4553232193 207.4109954834
104.0940017700 25.6422080994 176.3200073242
104.1516571045 30.0393581390 203.2304077148
104.9040756226 19.1128425598 216.9700012207
70.6440048218 14.0422067642 210.5599975586
80.7846603394 48.5523452759 178.8000030518
103.7892150879 25.1075935364 189.0881958008
103.8952865601 26.0069236755 201.2539978027
97.6855850220 30.1559162140 188.6089935303
85.9052886963 25.0369243622 175.2640075684
82.9032974243 40.7726974487 177.5279998779
63.6121368408 18.4169349670 211.6831970215
76.3386077881 41.0056114197 175.3576049805
68.8552856445 13.3069238663 218.1540069580
99.0772171021 21.2853565216 209.6000061035
56.9955863953 48.6459159851 219.4490051270
99.8414001465 33.9300003052 194.4087982178
81.4886093140 9.2356109619 212.2375946045
122.2616882324 26.5473690033 174.6600036621
89.9046630859 8.8523473740 215.9100036621
62.7852935791 39.5669250488 220.4040069580
96.8457641602 26.7959022522 188.5030059814
99.0022048950 13.7998685837 209.8499908447
104.0267105103 34.9997253418 179.5999908447
61.1404762268 60.7369346619 224.2274017334
89.6997909546 6.1357145309 216.3117980957
111.7167663574 29.0420169830 176.8346099854
105.3286132812 31.1417732239 198.3459930420
59.4267692566 63.2420158386 221.3846130371
81.3940811157 11.0528421402 214.3699951172
65.7482833862 33.4533767700 208.7760009766
56.6891250610 28.1158599854 216.1739959717
94.1940765381 25.6128425598 176.1599884033
104.3197555542 24.2500000000 202.7000122070
67.1546630859 17.1923465729 213.0800018311
83.0359573364 36.1588020325 177.3468017578
87.2452850342 25.3069229126 175.1439971924
57.3692588806 39.4692001343 210.8442077637
60.2642974854 20.6140766144 210.3824005127
57.5574188232 55.5398635864 221.0000000000
102.5382614136 20.1973075867 217.5210113525
66.4816589355 37.4993553162 210.5904083252
95.2332992554 9.9726953506 214.6179962158
78.1257629395 38.3358993530 175.7129974365
86.0602951050 35.8398399353 179.4550018311
104.9689712524 20.6792659760 214.6790008545
93.1074218750 16.5898647308 205.5599975586
108.2452850342 24.7069244385 174.6540069580
62.2867050171 21.6197261810 211.2299957275
86.3742980957 45.0240745544 172.4223937988
