161.7451477051 153.6100006104 190.3930053711
183.7839965820 108.9722061157 177.4199981689
202.2640686035 44.9628410339 201.4099884033
174.2816619873 148.3093566895 194.2304077148
178.1017608643 95.3968048096 188.6510009766
191.2438049316 125.3572082520 188.6112060547
183.9714050293 94.7200012207 181.1988067627
172.8972320557 81.3053512573 187.4600067139
183.3847808838 112.3153228760 182.1909942627
207.5998077393 47.6467514038 212.5200042725
205.6251373291 49.2999992371 212.2030029297
160.7579193115 143.3676147461 196.2669982910
187.2467651367 57.7220153809 187.3446044922
180.5027313232 85.8301010132 190.6189880371
173.6167144775 82.3497238159 185.7200012207
180.9339599609 68.1900024414 181.8937988281
207.5619201660 52.6589889526 231.1880035400
177.4289703369 144.7792663574 195.6389923096
178.6616668701 75.5093536377 179.5304107666
161.2752838135 141.8669281006 192.6940002441
176.0602874756 81.1098403931 190.1949920654
176.0247802734 77.6053237915 181.8809967041
185.4921417236 90.2269363403 189.9931945801
160.7407073975 145.2466583252 186.7560119629
203.2567596436 51.6220130920 213.0046081543
204.1016540527 52.5493545532 226.8804016113
182.7697601318 134.0099945068 187.4199981689
186.4533081055 56.4026947021 187.9580078125
179.8639526367 88.0999984741 183.7837982178
185.3920593262 105.9180526733 182.6119995117
208.3708648682 56.4229698181 231.3099975586
172.7799987793 85.2752380371 190.4173889160
177.7946624756 95.0423507690 190.3000030518
185.0839996338 117.3722076416 183.5899963379
188.3767089844 125.4397277832 191.4700012207
186.9840698242 125.8928451538 191.6799926758
200.8867034912 50.5397262573 229.2099914551
193.0136260986 54.4569854736 199.7695922852
184.8859558105 124.3087997437 189.6268005371
188.7097625732 52.7500000000 183.6500091553
182.0188293457 116.5840301514 185.9299926758
201.2208709717 40.9729690552 218.6699981689
184.0139923096 138.8222045898 194.2299957275
181.1846618652 52.3123474121 184.6499938965
181.8467102051 142.9297332764 191.5099945068
208.0716857910 50.2473678589 227.0700073242
183.7062988281 139.0587005615 192.0449981689
168.2902832031 137.0798339844 192.7050018311
161.2682647705 154.1072998047 193.6410064697
165.7367706299 142.2720184326 194.8246002197
203.2042999268 43.2440757751 205.2023925781
192.8174285889 60.1098632812 187.3600006104
183.7392578125 130.5291900635 188.2542114258
183.3297576904 135.6199951172 186.7000122070
185.9497833252 132.8057098389 192.9517974854
157.2959594727 141.8188018799 184.4168090820
201.5886230469 51.1817741394 227.9559936523
159.1508636475 141.4429779053 187.1799926758
181.4082641602 92.5273056030 191.6410064697
166.2537994385 147.3271942139 193.0912017822
176.9533996582 71.5098724365 186.1926116943
183.3086090088 112.5456085205 182.2575988770
176.5637969971 73.2072067261 184.8211975098
162.2817687988 143.4768066406 180.3310089111
161.9531860352 144.7445831299 182.9879913330
182.5746612549 59.4223442078 185.6699981689
153.7340698242 143.7828521729 188.9299926758
170.1508636475 82.2729721069 189.7399902344
208.8397521973 49.2099990845 227.0299987793
190.9217681885 126.3368072510 184.3710021973
175.5016632080 147.9393615723 196.1604003906
191.4346618652 47.7523460388 192.4799957275
177.9282836914 71.4633712769 177.7160034180
194.6732788086 59.2481040955 185.6239929199
182.8316955566 117.4173736572 185.0899963379
193.4821319580 130.2269287109 187.5231933594
189.8216552734 111.5393524170 178.4204101562
178.3489532471 143.4481811523 196.8569946289
182.9446563721 139.2823486328 195.0699920654
151.4957580566 141.5459136963 187.4629974365
184.0049896240 115.7369232178 183.7253875732
156.3639526367 146.5000000000 177.1538085938
202.2588195801 39.4740257263 211.8499908447
177.1691284180 86.1358642578 187.0940093994
167.3382568359 80.8773040771 186.0110015869
172.6634674072 75.8330459595 181.2259979248
168.2427368164 83.6100997925 182.6089935303
202.6439971924 47.7322044373 228.9400024414
207.5239562988 47.0299987793 220.9738006592
202.1974182129 48.0598640442 218.4000091553
190.4542999268 110.5440750122 176.1524047852
164.9272308350 143.1453552246 179.4900054932
193.0146636963 47.6623458862 196.5399932861
190.6538238525 102.1284790039 180.2213897705
179.6816864014 65.3773727417 182.5800018311
166.3046569824 81.1323471069 181.1699981689
158.2036285400 146.4169769287 189.0495910645
169.8846588135 65.7623519897 182.4900054932
201.5886230469 51.1817741394 227.9559936523
193.0159606934 47.3688049316 197.4168090820
189.0017547607 58.1668052673 185.8810119629
187.1340026855 102.1222076416 177.4000091553
181.6787414551 91.9159927368 185.7686004639
184.2692108154 117.5275955200 181.2182006836
153.2527313232 146.9801025391 186.0489959717
159.8767089844 146.8797302246 189.5299987793
203.0216827393 44.3273658752 205.8699951172
186.1407165527 101.4866409302 183.4759979248
187.7882843018 52.3133773804 184.4059906006
166.5617675781 83.2768020630 181.3910064697
184.6840667725 140.2628479004 196.1899871826
182.5567626953 59.4220161438 180.9546051025
189.3151397705 113.9599990845 179.8030090332
192.1416931152 113.2473678589 184.2599945068
183.7387542725 53.3559989929 186.2386016846
175.9233093262 75.3726959229 186.2879943848
206.5367126465 51.4497261047 217.0299987793
159.3488159180 141.6140289307 190.1499938965
173.0236206055 75.2869796753 182.3395996094
188.7440032959 103.1222076416 173.2799987793
170.3088226318 141.2440338135 196.5999908447
206.1292114258 46.1675949097 211.7381896973
171.4367065430 83.2197265625 189.1799926758
172.0388183594 64.3240280151 181.7200012207
201.2208709717 40.9729690552 218.6699981689
166.2774200439 82.6098709106 182.3300018311
203.0547790527 46.9153213501 205.7610015869
183.4088287354 138.5240325928 191.8999938965
185.5937957764 60.0872039795 187.2411956787
186.3621368408 141.5169372559 192.0731964111
164.8939971924 145.1921997070 191.2299957275
192.6027374268 126.6701049805 185.5889892578
163.2567138672 155.3997344971 193.4799957275
202.0216674805 51.1093559265 213.1704101562
203.8739929199 40.8422050476 206.5800018311
186.8134002686 116.5098724365 188.1126098633
166.0586090088 141.1956176758 196.0175933838
210.5667114258 57.2697257996 229.2299957275
191.5391235352 51.4658622742 194.4140014648
198.2021331787 49.2069358826 196.4331970215
190.4140014648 126.6722030640 188.7299957275
199.7965850830 48.1716918945 204.2057952881
173.3213958740 72.9499969482 178.7288055420
205.1389312744 50.3258323669 230.5820007324
183.6436309814 96.4369812012 182.5596008301
175.2639923096 78.6422042847 186.7700042725
187.7492065430 61.4975967407 183.1681976318
208.1267089844 49.8197250366 224.9900054932
187.6138000488 104.6872024536 182.0312042236
186.7618560791 142.9575195312 190.4519958496
181.3525848389 134.0000000000 186.9779968262
185.8988189697 90.7740249634 187.5800018311
177.4518585205 65.0275268555 181.8519897461
183.6139526367 107.3099975586 180.3638000488
178.7357635498 90.7359008789 189.6529998779
213.5721435547 52.3869361877 228.9531860352
210.6288299561 48.8140258789 215.4199981689
157.4036560059 146.0678253174 190.1640014648
161.9239501953 141.3200073242 177.2037963867
189.1702880859 122.1698455811 188.7350006104
170.6751403809 81.1100006104 187.2730102539
180.5392150879 140.3175811768 193.0881958008
154.4274291992 148.9198608398 179.9100036621
192.5797576904 49.4500007629 196.9300079346
177.1286010742 85.4956130981 189.7476043701
185.9972229004 92.7553558350 179.4800109863
187.6746673584 103.5823516846 174.1199951172
180.9763031006 81.7487030029 190.9049987793
198.2908630371 40.8329696655 200.4299926758
164.4872283936 151.0653533936 187.2300109863
180.0188293457 57.0940246582 186.0000000000
159.6267089844 146.4397277832 192.9799957275
183.4388275146 134.3140258789 192.8499908447
176.0602874756 81.1098403931 190.1949920654
203.5021362305 39.4369392395 201.3432006836
165.7757568359 137.5559082031 191.8930053711
189.2140045166 51.5422058105 184.2100067139
199.5516662598 48.4193572998 201.2504119873
179.8738098145 84.1872024536 195.3712005615
184.1867065430 65.4397277832 184.1999969482
169.8716583252 144.4693603516 195.5904083252
194.8467712402 50.0420150757 213.8046112061
190.5416564941 93.2693557739 183.6504058838
184.5674285889 96.9098663330 181.0299987793
193.2814025879 49.4099998474 196.2888031006
203.4616546631 43.1493568420 209.4304046631
190.0846557617 127.8423461914 190.9600067139
205.5897827148 44.8357162476 228.8318023682
152.0959625244 142.5688018799 184.2768096924
185.4927368164 145.8401031494 192.3089904785
199.7893981934 52.2825355530 212.5740051270
185.9972229004 92.7553558350 179.4800109863
194.6140747070 57.5528411865 188.9899902344
177.4106903076 141.7610321045 193.4002075195
160.5367584229 146.4820098877 187.1146087646
164.1389770508 152.6692657471 188.3190002441
159.6752929688 138.7069244385 195.8040008545
179.0236206055 96.2069778442 189.0596008301
174.0346679688 83.0423507690 185.7899932861
185.9916839600 140.8373718262 189.1399993896
196.8143005371 51.8440742493 194.1024017334
192.8086090088 53.2956123352 202.0375976562
198.2216949463 48.7973670959 196.1800079346
158.2036285400 146.4169769287 189.0495910645
193.0431823730 51.3945770264 188.9279937744
184.2249908447 140.6669158936 186.2053985596
171.3786010742 66.7956085205 183.6676025391
161.1497802734 140.2957153320 179.1217956543
163.6898040771 148.7367401123 188.0099945068
157.0667114258 149.4097290039 182.3800048828
178.0774230957 146.6598663330 186.4600067139
182.3386077881 57.4156112671 185.9176025391
201.3716888428 43.9573669434 204.8399963379
178.9940643311 83.2928390503 196.2999877930
188.6372222900 106.3553543091 174.5299987793
192.5947875977 52.0253219604 187.9210052490
201.6036529541 47.0478248596 220.4339904785
189.0097503662 112.8399963379 182.0700073242
166.4839935303 147.9522094727 188.8899993896
188.7897491455 102.8300018311 173.4800109863
190.6008605957 51.5229682922 200.5199890137
182.5482788086 116.6833724976 181.1559906006
189.4955749512 94.9559173584 185.1690063477
170.2152862549 140.6369323730 196.0440063477
205.9133911133 46.3298683167 229.9826049805
187.9039916992 127.7122039795 186.9199981689
182.8836212158 122.1969833374 182.1996002197
162.1851501465 151.6900024414 187.9130096436
160.2592163086 138.9875946045 194.7682037354
162.8672332764 143.6153564453 193.2300109863
184.7508697510 117.8729705811 183.2699890137
185.3452911377 132.7269287109 192.2140045166
188.7031860352 106.5745773315 182.2479858398
205.6116638184 47.8093566895 221.9004058838
189.3543090820 92.0740814209 179.4123992920
179.9988250732 56.0540275574 184.5299987793
186.3986206055 126.6617736816 185.9459991455
174.8855743408 140.2859039307 200.7389984131
190.6999969482 107.4452362061 177.9573974609
204.7693939209 52.1225357056 229.1540069580
188.3172302246 115.9553527832 178.8000030518
198.5359649658 42.2588043213 208.3968048096
184.1246643066 105.0923461914 180.6799926758
166.7816925049 151.1573638916 194.1900024414
203.5447845459 49.5153198242 224.2510070801
184.4159698486 104.5788040161 180.3868103027
163.6439971924 149.1822052002 187.5100097656
185.5421447754 139.2869262695 189.9931945801
213.0188293457 49.5940246582 231.8899993896
181.1199951172 63.4652366638 180.0773925781
209.1327819824 47.3489913940 224.4261932373
188.9239501953 123.6699981689 182.4638061523
197.5140686035 48.6928405762 191.6599884033
177.6463012695 82.7787017822 189.9750061035
178.9951477051 131.6699981689 187.4029998779
179.0851440430 95.6500015259 188.3930053711
179.1340026855 73.5522079468 177.1200103760
176.9436492920 147.8478240967 190.8239898682
202.7218627930 42.4975242615 202.5919952393
160.4484710693 147.3162841797 182.3497924805
155.1207275391 145.6100006104 177.1325988770
162.2626342773 142.0268096924 188.3430023193
179.0036315918 63.2469825745 181.3896026611
173.3262939453 79.4187011719 188.8650054932
158.5343017578 147.1540679932 180.4723968506
202.7986145020 51.7317733765 227.7259979248
182.0240783691 117.8928451538 186.4899902344
200.2497558594 46.7099990845 209.3000030518
190.6067047119 110.5597229004 178.5200042725
183.1189575195 83.1481857300 191.7169952393
182.5567626953 59.4220161438 180.9546051025
192.9867095947 53.4497261047 191.8199920654
188.4847869873 94.4953231812 180.7010040283
174.9682769775 142.7333831787 193.3560028076
185.3116912842 135.3773651123 187.8200073242
182.3874206543 148.7598571777 190.5800018311
174.6038055420 78.0872039795 186.5312042236
201.3474273682 41.6898651123 217.2700042725
177.6708679199 74.9329681396 181.3300018311
175.8574218750 146.6098632812 189.6500091553
174.9583892822 147.6079559326 193.5859985352
156.8862915039 139.7187042236 191.9850006104
204.7217559814 53.0768051147 213.8410034180
180.9567108154 97.3697280884 191.2899932861
168.8108673096 142.6629791260 196.8799896240
184.2719268799 90.5689849854 181.0180053711
198.1386108398 45.6356124878 208.3876037598
178.2846679688 57.4223442078 185.4400024414
198.4919281006 39.8989868164 208.5180053711
190.3682708740 102.1033706665 175.8860015869
185.6416931152 119.1073684692 181.0399932861
185.6992187500 53.2275962830 180.5881958008
182.4236450195 59.1878280640 184.7539978027
173.1692047119 143.3075866699 190.3681945801
180.3991241455 66.2958602905 185.6540069580
176.6463012695 140.0787048340 195.3150024414
188.4542999268 107.7140808105 179.4624023438
166.2537994385 147.3271942139 193.0912017822
183.9516601562 58.9393539429 182.6204071045
184.1857604980 108.6958999634 179.0030059814
190.4627838135 106.8389892578 181.0261993408
178.2238006592 68.5972061157 186.4812011719
179.6708679199 96.4229736328 191.8499908447
177.5974273682 86.7098693848 188.5400085449
174.4507141113 148.4066467285 195.4060058594
169.5179138184 80.7176208496 186.4169921875
184.1857604980 108.6958999634 179.0030059814
151.9286193848 147.6017761230 183.7659912109
163.3227844238 143.0690002441 188.6261901855
181.6787414551 91.9159927368 185.7686004639
204.9140777588 42.4428405762 223.2999877930
197.8186187744 51.8917732239 211.1459960938
178.4886169434 147.7517700195 186.4659881592
196.3840026855 49.9822044373 194.5100097656
183.9916534424 65.3693542480 184.9804077148
188.3872222900 54.9953536987 183.5200042725
196.5974273682 48.7798652649 200.8000030518
153.9372253418 147.5353546143 183.3800048828
155.5867156982 149.1497344971 180.7500000000
192.8114013672 47.2900009155 186.6087951660
192.0372314453 125.2853546143 183.4100036621
192.8086090088 53.2956123352 202.0375976562
183.1513977051 90.5699996948 186.0588073730
157.7459564209 139.5487976074 184.3368072510
181.6627349854 102.8701019287 179.6790008545
154.2540740967 142.0928497314 188.9499969482
183.6857604980 109.0458984375 176.8330078125
178.5208740234 58.5129661560 186.2799987793
163.3279113770 141.6576232910 184.8170013428
207.9634704590 54.5130500793 232.6159973145
157.4572296143 148.7953491211 180.9800109863
191.7327270508 119.1701049805 181.4089965820
206.9164733887 45.7412338257 216.3000030518
202.8786010742 45.4056091309 223.8675994873
198.2746582031 40.2623443604 208.6900024414
179.5834655762 118.3830490112 185.8560028076
185.4272308350 90.4953536987 186.5500030518
155.8789520264 141.1681823730 185.2969970703
192.1547851562 49.8653221130 196.3209991455
179.4982757568 81.9133758545 187.4259948730
205.5236206055 50.1569824219 224.4395904541
188.7031860352 106.5745773315 182.2479858398
206.9167175293 49.8897247314 217.8000030518
184.7488250732 137.9440307617 190.8699951172
175.5637969971 142.8171997070 200.9411926270
176.5067138672 86.1897277832 192.5699920654
180.6986083984 101.0956115723 181.2176055908
202.3220672607 47.9480476379 217.7520141602
213.0240783691 50.9028396606 232.4499969482
188.4957580566 112.8759002686 181.8330078125
186.8051452637 109.2500000000 172.9230041504
193.3236541748 52.2378273010 194.5139923096
194.3497924805 47.5657157898 214.5718078613
182.0988159180 142.8340301514 191.4700012207
185.1084594727 139.8662872314 185.6297912598
197.0002899170 46.1198387146 189.6649932861
174.2816619873 148.3093566895 194.2304077148
202.0708618164 47.3429679871 219.8000030518
182.3343048096 65.6240768433 182.7424011230
201.3488159180 37.7940254211 200.5800018311
184.9313964844 95.4700012207 180.2788085938
201.2857666016 39.4359016418 218.4530029297
162.4155731201 143.5559082031 188.6490020752
177.1872253418 74.2253570557 181.6000061035
162.3627319336 143.9100952148 195.2089996338
189.2951354980 56.6300010681 184.6630096436
182.2187500000 113.0459976196 181.9685974121
174.7482757568 143.4133758545 192.0059967041
174.0346679688 83.0423507690 185.7899932861
172.8972320557 81.3053512573 187.4600067139
195.4740753174 54.0928421021 203.4499969482
183.8087463379 106.4459915161 183.2485961914
205.1389312744 50.3258323669 230.5820007324
186.3304748535 54.8169364929 187.9073944092
173.1313934326 82.3700027466 187.8587951660
156.3442993164 148.1240692139 179.4423980713
178.2039947510 64.4122085571 182.0200042725
201.0659637451 43.3388023376 222.0167999268
204.4440002441 45.2122039795 215.7900085449
159.4072265625 144.3853607178 187.0400085449
183.8339996338 134.4122009277 187.2600097656
207.2820587158 48.0880508423 232.6119995117
187.1143035889 96.5640792847 180.7324066162
176.3300018311 82.2108459473 190.5299987793
157.9506988525 146.8210296631 185.2702026367
166.3046569824 81.1323471069 181.1699981689
210.5399932861 49.0208435059 216.0800018311
172.1927337646 68.0401000977 182.2489929199
155.2139587402 144.1900024414 176.8838043213
190.0572357178 53.4253540039 183.9300079346
190.1838226318 96.4284820557 182.7014007568
185.3840789795 118.6228408813 187.2699890137
159.0216827393 145.4973754883 180.9199981689
195.8079223633 48.2876205444 192.4769897461
208.1138000488 52.2272033691 216.8112030029
175.4946594238 144.8023529053 190.2100067139
178.9846649170 63.7123451233 184.9299926758
162.5174255371 144.9798583984 181.8800048828
194.1643066406 52.8840751648 196.6723937988
161.3938293457 145.9484710693 183.6013946533
191.4079132080 113.3776245117 185.3369903564
196.8388214111 52.1040267944 201.9400024414
162.5746612549 149.6423492432 188.3500061035
186.7618560791 142.9575195312 190.4519958496
199.7274169922 50.3098640442 228.3699951172
178.7033996582 89.4898681641 189.1526031494
207.7874298096 51.0098648071 229.2299957275
187.3707122803 108.5666427612 182.9759979248
184.6497497559 92.0800018311 179.2000122070
207.1936492920 49.3378257751 228.8539886475
178.9343109131 146.7040710449 188.6623992920
170.6751403809 81.1100006104 187.2730102539
191.1867675781 52.9720153809 196.7046051025
180.6979217529 132.0076141357 191.0569915771
212.8067169189 51.9597244263 231.6100006104
209.9640045166 48.6822052002 214.0200042725
200.0820617676 46.5880508423 208.5420074463
204.9299926758 39.5908432007 221.3200073242
177.1799926758 80.1852416992 181.4973907471
206.9438018799 48.7972030640 229.3112030029
181.1749877930 89.8669204712 186.0853881836
178.5079193115 84.5576248169 195.1569976807
177.6997528076 65.6200027466 181.4600067139
179.4982757568 81.9133758545 187.4259948730
191.2749938965 55.4869270325 191.1253967285
182.7797851562 128.4757080078 190.3218078613
192.3882751465 113.5333709717 180.9960021973
184.7508697510 117.8729705811 183.2699890137
171.9272308350 80.9153518677 179.0900115967
168.9733123779 143.6226959229 196.5480041504
196.7936248779 51.0569839478 212.8495941162
192.3738098145 116.4272079468 183.4212036133
211.0037994385 49.1472053528 233.8011932373
183.7736511230 94.8278198242 182.0839996338
196.1232757568 53.9681053162 197.5440063477
182.2257537842 98.2159042358 181.4830017090
210.5189361572 54.3258323669 233.0919952393
186.4082794189 102.1533737183 177.3560028076
172.9436492920 148.1078186035 194.3139953613
211.3340759277 50.8128433228 233.8899993896
188.5283966064 123.8379592896 183.6860046387
173.3262939453 79.4187011719 188.8650054932
204.2933959961 50.6498680115 220.3426055908
210.1118621826 49.2875251770 213.4720001221
191.1734008789 52.3498687744 203.0626068115
196.5521392822 52.3469390869 200.2231903076
180.6902923584 130.1098327637 190.2449951172
186.8992156982 139.4475860596 187.4481964111
205.7340698242 52.3828430176 216.0199890137
173.0897521973 72.2900009155 178.9000091553
185.6766815186 124.1699981689 187.3919982910
177.3013916016 144.1699981689 188.2788085938
172.7282714844 64.2833709717 180.9459991455
183.2297515869 64.1500015259 182.5200042725
197.5986022949 45.1456108093 207.0876007080
193.5388183594 122.0440292358 189.2899932861
174.8927764893 142.0789947510 201.5061950684
168.0240020752 136.7822113037 190.5700073242
175.9889678955 76.9292602539 177.2389984131
156.5637969971 146.0372009277 185.7611999512
209.9182739258 46.8133773804 230.6259918213
173.8094024658 147.4925384521 198.0540008545
199.5959625244 39.5088043213 209.2868041992
182.8327331543 102.8900985718 181.4389953613
181.9897613525 98.8899993896 176.9600067139
190.4555816650 105.0459136963 180.2590026855
152.5897521973 146.8600006104 183.1000061035
184.5839996338 88.6122055054 186.8300018311
181.5288238525 56.6340255737 185.2200012207
196.6516876221 51.8673667908 202.0800018311
157.1533966064 146.3498687744 186.2326049805
175.8982849121 73.2233734131 177.3059997559
208.2546539307 47.2623443604 231.4900054932
182.7567138672 65.4197235107 186.4299926758
188.0888214111 108.1040267944 182.1699981689
203.7849884033 51.2169265747 220.5453948975
183.8755798340 99.3159179688 183.8289947510
184.0839996338 132.2322082520 190.1300048828
182.5788269043 84.6640243530 189.4700012207
176.3239898682 79.7222061157 188.4000091553
212.2583923340 50.7079620361 228.4660034180
182.6288299561 82.3340301514 190.7299957275
184.7488250732 132.3640289307 191.5299987793
184.6759643555 102.8988037109 178.7168121338
174.6216583252 68.4393539429 184.7304077148
210.9394073486 55.1125335693 232.0740051270
182.3833923340 58.4398689270 182.8726043701
183.5849914551 102.5569229126 183.4453887939
186.6440734863 95.5528411865 186.2399902344
196.2638244629 50.0884780884 193.3914031982
189.7919158936 46.1389884949 189.5480041504
184.6592102051 148.8875885010 186.7781982422
186.1407165527 101.4866409302 183.4759979248
169.6313934326 80.2900009155 178.9488067627
200.9598083496 37.9967498779 209.1699981689
183.4291229248 94.5258636475 186.9340057373
197.2046661377 43.0423469543 205.7500000000
182.0240783691 117.8928451538 186.4899902344
193.2089538574 128.9481811523 187.8569946289
201.0462951660 37.9887008667 199.1849975586
158.2036285400 146.4169769287 189.0495910645
181.9402923584 81.9398422241 192.9349975586
189.9386138916 116.6056137085 182.9676055908
173.3274230957 82.2098693848 187.0200042725
186.4589691162 111.1092605591 175.2089996338
157.1946563721 139.4823455811 181.7899932861
195.9952850342 45.4769248962 189.2040100098
186.8546600342 123.4023513794 191.1900024414
211.5272216797 48.5353546143 228.9300079346
193.5127868652 53.9989929199 190.6062011719
191.5727844238 54.0389938354 192.2761993408
182.0647888184 92.1153182983 184.2109985352
205.1088256836 45.3440246582 217.1900024414
190.9972229004 109.9453506470 177.1200103760
204.9088287354 41.1340255737 222.7399902344
185.0108642578 104.0529708862 181.5000000000
203.0289459229 43.0681800842 201.4969940186
186.7037963867 57.6272048950 187.4512023926
178.9072265625 146.7753601074 188.3899993896
179.5451354980 147.0399932861 184.8830108643
176.1366729736 84.2399978638 183.0419921875
172.7459564209 141.2288055420 199.1268005371
156.6988220215 144.5240325928 185.3899993896
190.4940032959 102.7922058105 173.4600067139
208.5172271729 49.2053527832 223.5900115967
205.6251373291 49.2999992371 212.2030029297
179.9874267578 102.7698669434 179.2799987793
202.3943023682 46.3140754700 205.1824035645
186.4267120361 96.6097259521 185.3999938965
174.6047821045 73.5253219604 186.1909942627
179.1817626953 63.0068054199 182.8610076904
181.0208740234 120.3129730225 186.3300018311
154.1838073730 144.2071990967 187.2411956787
184.1606903076 108.0710220337 184.5001983643
196.5521392822 52.3469390869 200.2231903076
188.9982604980 57.0473060608 190.2810058594
184.1008605957 126.5329742432 189.3499908447
157.9936218262 145.1669769287 188.1795959473
206.4982757568 46.5133781433 214.1660003662
179.2514038086 144.1499938965 186.9687957764
182.1184692383 89.5262756348 185.4197998047
185.1736297607 103.2369766235 180.8795928955
161.6136169434 149.3069763184 189.6996002197
209.5433044434 49.3626976013 234.0679931641
183.3452911377 87.8969192505 190.5339965820
209.7851409912 53.9099998474 226.9930114746
181.9967651367 102.2420196533 182.2946014404
193.1552886963 47.1169242859 192.5140075684
156.8659667969 139.2388000488 194.8968048096
162.2297515869 148.6499938965 188.8800048828
189.1255798340 54.7959175110 188.8789978027
178.7927246094 76.3600997925 178.6389923096
162.4372253418 145.0453491211 189.0400085449
190.3646545410 50.4323463440 199.6799926758
179.6874237061 87.6898651123 188.5000000000
183.3925781250 143.3699951172 188.5480041504
182.3739929199 61.6222076416 181.7200012207
188.8883819580 132.8579559326 185.8260040283
189.3543090820 92.0740814209 179.4123992920
183.6446685791 117.6423492432 186.1499938965
191.2788238525 90.2040252686 184.4499969482
174.3974304199 84.8498687744 185.2299957275
155.1207275391 145.6100006104 177.1325988770
206.1433868408 53.3798675537 216.6926116943
183.1516876221 132.3373718262 187.5500030518
174.0674285889 83.0098648071 185.0800018311
188.7589721680 110.2292633057 173.3289947510
185.4949951172 141.5469207764 188.2153930664
174.9583892822 147.6079559326 193.5859985352
203.8884582520 48.2862777710 205.8598022461
175.3516540527 77.0793533325 183.9804077148
186.0797576904 94.7900009155 180.6800079346
187.8792572021 124.7891998291 184.8041992188
190.0616912842 130.1573638916 185.8500061035
177.8689727783 142.8092651367 194.9089965820
183.1374206543 113.1798706055 179.6100006104
204.5597534180 52.1500015259 213.5000000000
209.0621337891 48.0469360352 224.8931884766
165.6421356201 141.5569305420 182.0631866455
190.8240661621 109.5028381348 179.3600006104
176.8627319336 145.6701049805 197.6689910889
186.4564666748 59.2012329102 186.4400024414
178.2504730225 146.5469360352 194.7274017334
184.6108703613 104.1929702759 179.2200012207
208.9467163086 51.2397270203 230.0699920654
189.7886199951 59.3817749023 185.7460021973
171.1997833252 73.8757171631 185.7118072510
199.1597595215 41.9000015259 197.4199981689
186.7616882324 134.2473754883 188.9700012207
177.6952819824 80.6369171143 187.4140014648
173.9408721924 82.2929687500 186.4799957275
204.1259613037 47.2088012695 227.4968109131
163.8488159180 142.0540313721 184.4899902344
175.5155792236 73.7059173584 188.1089935303
213.0240783691 50.9028396606 232.4499969482
184.7697601318 95.8499984741 180.1900024414
196.2908630371 47.5029678345 216.7799987793
193.0952911377 121.8169174194 189.1340026855
183.9340667725 90.4828414917 192.5000000000
187.2872314453 127.4653549194 186.6600036621
167.3459625244 79.2488021851 183.5268096924
196.2657623291 48.9059028625 212.4929962158
178.0774230957 146.6598663330 186.4600067139
175.9940032959 143.0022125244 193.9300079346
194.5349884033 133.4469146729 190.3153991699
209.0852813721 49.0969238281 215.4640045166
187.8792572021 124.7891998291 184.8041992188
154.2652893066 140.9069213867 187.0940093994
183.8925781250 110.0599975586 175.7180023193
183.9859619141 109.0388031006 182.5668029785
191.2017669678 53.2868041992 198.8810119629
170.3046569824 64.6523513794 181.1600036621
170.7789459229 140.7258300781 195.7819976807
161.1572265625 143.8753509521 181.4400024414
185.6036224365 107.2069778442 177.2695922852
193.0879211426 114.6176223755 184.5370025635
202.6940765381 49.4628410339 214.5800018311
205.5040740967 50.1428413391 230.4799957275
170.1208648682 66.8529739380 183.3300018311
189.5808715820 128.2229614258 190.4099884033
171.4067077637 67.7997283936 182.7700042725
190.0855865479 100.7859191895 182.6589965820
185.1736297607 103.2369766235 180.8795928955
182.6367645264 140.3520050049 185.0546112061
177.0599975586 82.7252426147 181.7274017334
182.1216888428 60.1173667908 180.3200073242
186.6239929199 91.4922027588 184.4400024414
184.5855865479 52.0859184265 181.7389984131
172.9646606445 80.4023513794 187.5800018311
188.0052947998 128.7969207764 189.8740081787
184.1520538330 108.2180557251 183.4720001221
202.3667144775 50.7997245789 209.1999969482
210.5189361572 54.3258323669 233.0919952393
162.3627319336 143.9100952148 195.2089996338
174.9926452637 73.8167953491 186.8630065918
172.1927337646 68.0401000977 182.2489929199
200.3098144531 39.1167488098 207.0899963379
159.4782714844 138.8033752441 182.9759979248
185.4921417236 90.2269363403 189.9931945801
156.3442993164 148.1240692139 179.4423980713
181.4036254883 120.3569793701 181.6095886230
173.9122009277 78.8698730469 182.5399932861
181.5143127441 62.6240730286 180.4824066162
206.5339965820 45.4322052002 225.6100006104
208.5225830078 53.9300003052 228.8079986572
185.1613922119 115.4800033569 180.3688049316
181.2767639160 119.3120193481 180.8346099854
177.9182586670 94.3573074341 190.6809997559
183.2927246094 96.1400985718 191.2189941406
183.8647766113 126.7453155518 186.9109954834
182.9740753174 64.3628387451 187.2699890137
162.5284576416 144.6362915039 185.8397979736
159.8097534180 143.1999969482 181.1600036621
178.8074188232 61.4898643494 184.7200012207
180.9234008789 94.2398681641 186.5126037598
181.9108734131 139.9429779053 192.1799926758
175.9121398926 77.3169326782 184.2631988525
181.3925781250 119.8799972534 182.2480010986
176.8627319336 145.6701049805 197.6689910889
176.4082794189 64.1033706665 182.8759918213
186.4467620850 135.2820129395 192.1846008301
160.5367584229 146.4820098877 187.1146087646
185.0199890137 129.3252258301 186.5273895264
205.9133911133 46.3298683167 229.9826049805
180.1846618652 116.1023483276 183.8300018311
178.5008697510 57.4729690552 184.8099975586
176.7684631348 81.4662780762 182.0797882080
153.7640686035 147.0928497314 185.6199951172
182.3388214111 131.5040283203 188.3899993896
181.4872283936 61.0353546143 179.4800109863
153.5839996338 140.6522064209 186.9900054932
200.6663055420 47.4486999512 226.8050079346
158.6259613037 140.1388092041 185.4568023682
174.9714050293 73.9800033569 177.0588073730
188.5688171387 127.8440246582 188.3199920654
185.3620605469 52.7680511475 186.4620056152
175.8736267090 86.2969818115 191.4795989990
154.5416870117 143.3073730469 187.5299987793
186.1197509766 109.1100006104 173.2300109863
174.9143066406 147.3140716553 191.9624023438
176.0302886963 64.3398437500 184.4049987793
166.9839935303 80.3422088623 182.0500030518
195.4740753174 54.0928421021 203.4499969482
166.0586090088 141.1956176758 196.0175933838
189.2364654541 131.5612487793 191.5700073242
179.4255828857 139.1759033203 194.2389984131
166.2018585205 150.3775177002 188.9619903564
170.8051452637 66.1699981689 179.8130035400
203.0547790527 46.9153213501 205.7610015869
167.1121368408 151.1469268799 193.1731872559
158.7039947510 142.6222076416 181.4799957275
152.2725830078 145.8000030518 182.3379974365
178.0492095947 78.9275970459 182.6481933594
172.5386047363 66.9056091309 185.6376037598
183.8182830811 134.6333770752 187.3159942627
188.0138092041 130.9171905518 190.7812042236
177.3120574951 142.8980407715 189.2020111084
160.5552825928 139.0169219971 185.2440032959
166.3017578125 140.1768035889 191.0810089111
178.7882843018 81.8533706665 192.1959991455
180.3459625244 138.1188049316 189.4168090820
192.7621307373 103.6669311523 176.7931976318
181.9520568848 56.8380508423 185.4820098877
180.8834686279 53.5230484009 185.0959930420
185.6992187500 53.2275962830 180.5881958008
186.1097564697 125.0400009155 185.2300109863
208.4336242676 56.0869827271 228.9496002197
179.0682525635 147.5372924805 188.1310119629
171.6274261475 147.0198669434 196.5599975586
207.2640686035 50.7228431702 228.4700012207
190.3340759277 88.4628448486 182.3499908447
182.1184692383 89.5262756348 185.4197998047
175.2616882324 65.0073699951 180.2400054932
188.8916625977 127.7293548584 190.1504058838
198.4727325439 51.8601036072 212.8989868164
187.5867156982 112.0397262573 181.1900024414
163.3279113770 141.6576232910 184.8170013428
204.1289672852 42.7292633057 206.1490020752
192.3933868408 116.4198684692 183.7226104736
184.3027801514 114.2889938354 184.8761901855
174.0682830811 141.7333831787 197.1559906006
153.0046539307 146.3623504639 181.6600036621
208.0716857910 50.2473678589 227.0700073242
183.4389343262 53.3358306885 185.5719909668
184.6297912598 131.3757019043 191.3117980957
186.3338012695 135.4272003174 192.0912017822
189.3947753906 120.2253189087 184.9810028076
173.3262939453 79.4187011719 188.8650054932
198.8597564697 50.4399986267 209.6200103760
183.9716949463 98.6473693848 178.0800018311
183.8418579102 132.7275238037 188.3320007324
171.6486053467 80.8356094360 186.1275939941
185.3457641602 89.9259033203 180.3529968262
159.0646667480 141.8823547363 191.2400054932
201.9655761719 37.2759170532 203.1190032959
205.5897827148 44.8357162476 228.8318023682
194.0347747803 47.3253211975 192.7209930420
182.3833923340 58.4398689270 182.8726043701
191.0662994385 127.5487060547 187.0449981689
172.6634674072 75.8330459595 181.2259979248
198.2921447754 47.6769371033 189.6831970215
176.0516815186 144.3873748779 192.2299957275
201.2259674072 40.3288040161 219.2368011475
186.5959625244 123.0288009644 190.2968139648
184.6108703613 104.1929702759 179.2200012207
188.9239501953 123.6699981689 182.4638061523
191.8742980957 56.5840759277 184.0323944092
182.5792083740 87.7675933838 185.3181915283
176.3282623291 84.7173080444 194.7510070801
174.7974243164 70.6198654175 183.8500061035
187.0055847168 130.9259033203 192.0789947510
187.1340026855 102.1222076416 177.4000091553
202.3220672607 47.9480476379 217.7520141602
186.2852935791 141.1069335938 195.1340026855
205.7216949463 41.9673652649 221.8999938965
170.6751403809 81.1100006104 187.2730102539
204.2099914551 49.4952354431 205.3773956299
162.9347839355 143.3653259277 191.3910064697
177.8689727783 142.8092651367 194.9089965820
180.0579223633 83.5476226807 196.2870025635
184.8026428223 112.5568008423 182.8029937744
187.8633117676 118.6426925659 188.1080017090
158.4857635498 139.5259094238 182.9329986572
196.0788269043 49.5540275574 200.1999969482
190.1737976074 109.8272018433 179.7812042236
210.5162963867 52.1586990356 227.8050079346
201.1357574463 42.2059020996 221.2030029297
182.9446563721 139.2823486328 195.0699920654
179.0116882324 81.8473663330 185.5299987793
199.3408660889 43.5729675293 210.1999969482
177.0916595459 144.6293487549 198.0704040527
182.0308685303 137.2329711914 189.6399993896
176.1839904785 70.7122039795 180.3099975586
173.0236206055 75.2869796753 182.3395996094
192.4232788086 58.7281074524 184.7940063477
161.1497802734 140.2957153320 179.1217956543
185.6189575195 55.4081802368 180.9469909668
162.9367065430 155.3097381592 191.7200012207
186.2733917236 134.2998657227 194.1026000977
179.1740722656 74.8228378296 181.6100006104
184.1359558105 125.3588027954 188.7968139648
174.9682769775 142.3233795166 196.2959899902
181.2752838135 131.1169281006 190.4840087891
172.5374298096 76.6598663330 179.5899963379
185.5421447754 139.2869262695 189.9931945801
156.1425781250 142.5899963379 190.1880035400
191.8742980957 56.5840759277 184.0323944092
193.3236541748 52.2378273010 194.5139923096
200.5072326660 42.5753555298 197.6999969482
191.1167144775 114.7797241211 184.8199920654
189.0443115234 110.7440795898 174.4024047852
181.4989624023 148.0192565918 185.2890014648
199.1221923828 42.4998703003 206.8099975586
171.1997833252 73.8757171631 185.7118072510
211.1782836914 50.8233757019 228.0459899902
162.3482818604 139.3733825684 179.0059967041
203.0547790527 46.9153213501 205.7610015869
197.5939941406 43.2722053528 200.1200103760
183.8418579102 132.7275238037 188.3320007324
183.3989715576 101.9992599487 179.4089965820
178.5147857666 138.9953155518 192.3209991455
185.9397583008 126.7900009155 186.3800048828
176.4082794189 64.1033706665 182.8759918213
209.3474273682 52.7398643494 214.0500030518
185.3467102051 93.7997283936 188.8899993896
165.5616912842 142.2273712158 180.3300018311
210.6067047119 53.8797264099 232.8000030518
172.1139984131 75.0522079468 182.9700012207
191.1167144775 114.7797241211 184.8199920654
174.5552825928 81.8069229126 191.5839996338
203.9986114502 50.8556098938 215.5776062012
186.4766845703 101.6399993896 178.7519989014
183.4140014648 60.3022041321 182.2900085449
192.2155761719 101.7859191895 177.7989959717
179.9667053223 61.7197265625 185.5599975586
185.6008605957 102.7629699707 183.1499938965
180.6902923584 130.1098327637 190.2449951172
186.6355743408 60.3559188843 184.3190002441
188.4808654785 51.6729698181 190.9099884033
203.3088226318 47.8640251160 230.3399963379
172.8333892822 142.2298583984 201.1226043701
162.1739959717 140.0422058105 193.4300079346
184.7374267578 104.9098663330 177.8200073242
158.2347869873 137.6653289795 194.0010070801
185.3774261475 100.2798690796 179.6900024414
201.7500000000 47.0052375793 202.3773956299
206.2443084717 46.8140754700 219.6324005127
171.4367065430 83.2197265625 189.1799926758
209.2607116699 50.7366447449 232.9759979248
168.2902832031 137.0798339844 192.7050018311
188.8655853271 114.5659179688 187.7290039062
185.4949951172 141.5469207764 188.2153930664
176.7167663574 148.7620086670 193.1546020508
194.1549835205 117.7169189453 182.9553985596
188.4808654785 51.6729698181 190.9099884033
207.7616577148 53.9393539429 215.4504089355
186.0797576904 94.7900009155 180.6800079346
207.0467071533 51.7797279358 227.6300048828
206.9689636230 52.5192642212 213.0289916992
173.0508728027 79.4129714966 187.0599975586
188.0349884033 135.5969238281 193.3353881836
185.1116638184 94.0493545532 188.3104095459
151.3882598877 145.6072998047 186.8610076904
184.3240661621 120.3428421021 187.4700012207
182.1216888428 60.1173667908 180.3200073242
203.6749877930 50.3369255066 207.2953948975
177.3433074951 67.4026947021 186.5980072021
179.1127777100 72.4389953613 184.2261962891
151.3659667969 142.6188049316 185.4268035889
181.6787414551 91.9159927368 185.7686004639
162.0672302246 143.9053497314 183.5299987793
175.8538055420 146.2272033691 197.5211944580
184.7543029785 147.8840637207 187.7424011230
183.1585998535 60.2656097412 186.7875976562
184.6497497559 92.0800018311 179.2000122070
177.6463012695 82.7787017822 189.9750061035
176.8188171387 139.9240264893 196.8199920654
188.6359558105 102.8488006592 177.2468109131
173.2514038086 143.6900024414 196.2487945557
183.7566833496 137.3899993896 185.7919921875
164.3252868652 140.2069244385 183.4239959717
178.2274169922 87.8598709106 186.8899993896
189.9982604980 128.7272949219 191.3010101318
178.0466766357 143.8699951172 187.3820037842
189.5872344971 105.0053558350 173.0000000000
185.8489532471 140.4581756592 192.8569946289
207.0143127441 48.7540740967 222.7023925781
172.4108734131 75.9429702759 180.9899902344
188.7820587158 52.7980499268 188.3220062256
166.9839935303 80.3422088623 182.0500030518
180.5547790527 86.4453201294 184.5509948730
207.8797607422 48.9300003052 212.2000122070
155.6782531738 141.9673004150 194.4210052490
180.0486145020 94.4256134033 191.6175994873
185.8133087158 113.4026947021 183.0780029297
194.5889587402 123.9481887817 186.7769927979
183.6597595215 119.3499984741 179.9199981689
173.0398101807 143.2467498779 196.1499938965
188.3538055420 115.2272033691 183.9311981201
209.3239898682 46.8022041321 230.6500091553
196.0840759277 50.8628425598 200.7599945068
177.3733978271 141.1198577881 194.6226043701
185.5216827393 97.5573730469 179.6499938965
201.1851501465 42.2999992371 217.1430053711
185.7182769775 90.6733703613 181.9859924316
170.4539489746 143.6399993896 188.8338012695
175.7308654785 145.8929748535 191.0500030518
193.7543029785 116.5840759277 180.5424041748
181.2767639160 119.3120193481 180.8346099854
195.6516571045 49.3093566895 188.7504119873
183.7508697510 58.7129669189 187.8899993896
162.9859619141 150.3287963867 193.6268005371
181.7946624756 136.1423492432 188.8000030518
170.7700042725 138.5008544922 194.8300018311
178.9446563721 117.3223495483 184.2400054932
156.2516937256 140.4273681641 183.7799987793
175.6262969971 140.1486968994 197.2949981689
197.0433044434 50.7726974487 199.3580017090
180.4397583008 64.2300033569 182.0299987793
169.7808685303 82.6729736328 192.0999908447
185.6008605957 102.7629699707 183.1499938965
182.0246582031 146.9523468018 191.1399993896
178.1757659912 130.5859069824 189.4329986572
188.0349884033 135.5969238281 193.3353881836
172.4059600830 71.7388000488 180.9968109131
203.2974243164 50.2898635864 215.2200012207
177.9021301270 80.9969329834 185.7631988525
191.3047790527 101.6053237915 175.8809967041
167.4589538574 150.6481781006 192.1369934082
187.6233062744 54.0426979065 187.9179992676
176.2467041016 147.6397399902 196.0000000000
193.3988189697 123.0440292358 185.6499938965
178.2238006592 68.5972061157 186.4812011719
185.5937957764 60.0872039795 187.2411956787
155.9047851562 142.5353240967 177.6510009766
204.9739990234 46.6822052002 226.4700012207
183.1808624268 140.3729705811 195.9099884033
190.0572357178 53.4253540039 183.9300079346
165.8038024902 151.9171905518 195.4411926270
179.2739562988 62.5400009155 179.6938018799
207.2640686035 50.7228431702 228.4700012207
194.7482757568 46.6233787537 196.0559997559
157.4036560059 146.0678253174 190.1640014648
181.8689575195 131.3181762695 189.0269927979
162.4682617188 152.8072967529 194.8209991455
187.0616912842 111.6573715210 179.8600006104
189.4752960205 130.9669342041 190.4140014648
192.9021301270 55.0969390869 185.3931884766
180.9763031006 81.7487030029 190.9049987793
204.0667114258 48.6997261047 221.6799926758
161.5897521973 147.0800018311 188.4900054932
182.9752960205 117.1169204712 184.7140045166
175.0846557617 140.2523498535 196.2599945068
190.7940673828 51.4628410339 193.3399963379
178.2846679688 57.4223442078 185.4400024414
160.4484710693 147.3162841797 182.3497924805
186.7721405029 91.5669326782 187.4031982422
167.6540679932 81.7828445435 184.0099945068
207.1913909912 50.8400001526 212.2888031006
158.4025878906 140.3800048828 179.4580078125
164.7788238525 145.0640258789 190.1100006104
206.8640747070 48.6728401184 229.5899963379
188.4808654785 51.6729698181 190.9099884033
176.6967163086 85.8297271729 187.0500030518
154.7633972168 144.6598663330 179.9526062012
187.4659576416 52.4388046265 185.7468109131
185.5446624756 124.2923507690 186.6300048828
202.8016815186 38.7573661804 210.1999969482
157.0599975586 145.1152343750 177.2673950195
183.3186035156 143.5656127930 194.3076019287
160.2592163086 138.9875946045 194.7682037354
190.9297485352 51.1800003052 198.2799987793
203.6321411133 41.8169364929 200.8931884766
187.3013916016 129.8800048828 186.0187988281
191.6098022461 45.3567504883 188.1199951172
207.5891265869 49.5058631897 233.7039947510
191.1743011475 92.2740783691 181.3824005127
183.3186035156 143.5656127930 194.3076019287
182.4221954346 137.4998779297 186.8999938965
194.4455718994 114.4759140015 183.3390045166
203.4616546631 43.1493568420 209.4304046631
162.7582702637 145.6333770752 189.2460021973
190.1934661865 47.9930496216 190.9759979248
204.4667663574 51.6320152283 218.4246063232
177.8016815186 80.6873703003 188.9600067139
182.5746612549 59.4223442078 185.6699981689
188.9267120361 118.8797225952 183.0399932861
209.5364685059 47.6612358093 233.3399963379
183.7597503662 143.7899932861 188.4400024414
208.9139556885 46.1300010681 226.8838043213
179.2116546631 87.0293579102 188.8404083252
166.1508636475 81.8929748535 183.7299957275
194.0116882324 51.9173660278 191.2599945068
189.9516906738 117.3473663330 182.4799957275
187.9547882080 114.3853225708 185.8110046387
204.7636260986 50.7969856262 215.8495941162
186.4446563721 121.6423492432 189.3399963379
179.3483886719 86.5679626465 184.5460052490
175.8736267090 86.2969818115 191.4795989990
183.1286010742 111.3056106567 183.1576080322
180.1286163330 134.9417724609 187.8560028076
193.0952911377 121.8169174194 189.1340026855
177.7474212646 93.0798645020 188.2599945068
173.9140777588 75.8328399658 181.2699890137
163.1397552490 150.3899993896 186.9500122070
190.8627319336 58.4201011658 189.4689941406
205.9167175293 49.5097274780 223.8099975586
189.8416900635 108.4573669434 174.2899932861
155.8789520264 141.1681823730 185.2969970703
209.6567077637 57.3697280884 230.7500000000
158.9149932861 147.6469268799 185.4653930664
185.0640716553 93.3228378296 192.1999969482
195.8597564697 46.2900009155 185.9600067139
206.1416931152 40.4373664856 220.0700073242
197.2967071533 49.7497253418 190.8199920654
161.1283874512 145.9379577637 181.8959960938
181.9197845459 112.9457168579 183.3417968750
174.7482757568 143.4133758545 192.0059967041
199.5897827148 37.7257156372 202.3518066406
170.6607208252 146.6366577148 193.0160064697
172.8972320557 81.3053512573 187.4600067139
177.7146606445 144.8523559570 187.0200042725
168.9940643311 145.4728546143 195.4199981689
191.2088165283 103.0540237427 179.7399902344
209.2638244629 45.7384757996 222.4913940430
184.7689514160 145.4081726074 188.9169921875
203.0716857910 44.4873657227 200.0099945068
208.3040771484 48.6228408813 216.7699890137
205.7692108154 40.4075965881 209.1981964111
181.4246673584 98.1423492432 178.3600006104
177.1621398926 145.4569396973 195.2531890869
180.8889312744 58.3558311462 186.4720001221
168.6747894287 144.6253204346 189.3009948730
198.7451477051 46.5299987793 213.5330047607
182.7632751465 134.2881011963 186.9040069580
193.3236541748 52.2378273010 194.5139923096
183.0146636963 132.6923522949 190.9700012207
208.0343017578 49.5340728760 223.5323944092
206.6416625977 51.1693572998 217.2104034424
177.0587463379 140.1360015869 192.1486053467
193.5816650391 54.1893539429 201.3303985596
182.5292053223 66.0775985718 181.9682006836
183.0274200439 65.2098693848 183.3600006104
178.7882843018 81.8533706665 192.1959991455
164.7221984863 146.5598754883 188.1999969482
178.0767059326 70.0997238159 185.6699981689
188.1016845703 92.4573669434 185.0000000000
197.2683868408 51.3479614258 196.4459991455
170.3889312744 79.8358383179 187.2720031738
190.3351440430 129.3000030518 186.2330017090
201.1357574463 42.2059020996 221.2030029297
190.0988159180 122.8640289307 190.8699951172
188.9416961670 100.4473724365 183.0800018311
190.0855865479 100.7859191895 182.6589965820
197.0002899170 46.1198387146 189.6649932861
168.2172241211 82.5553512573 180.0500030518
166.6431884766 147.8145904541 188.9279937744
197.2631835938 46.9945793152 197.4479980469
199.3439941406 39.8022041321 207.8500061035
185.4916839600 139.7873687744 194.7899932861
185.4020538330 105.7603836060 181.9969940186
197.8616943359 50.9473648071 195.0700073242
164.5367126465 143.7597351074 180.8899993896
180.5208740234 118.0029754639 186.2099914551
171.8143005371 81.3840789795 179.4024047852
168.7767028809 146.5297393799 194.5800018311
183.2559661865 97.6488037109 182.2368011475
179.5216674805 85.8993530273 194.0104064941
178.7889556885 141.4781799316 196.1269989014
197.2072296143 46.9653549194 186.2400054932
181.7338104248 141.5471954346 192.4212036133
191.1792144775 101.9275970459 178.9481964111
199.6597595215 49.5299987793 225.7799987793
177.7689514160 141.5481719971 198.1069946289
182.6582794189 60.3333778381 182.1660003662
161.1572265625 143.8753509521 181.4400024414
210.7599945068 47.0552368164 227.2673950195
161.2752838135 141.8669281006 192.6940002441
192.7486114502 49.9656105042 199.9176025391
184.1216583252 148.8793487549 190.0104064941
189.0546569824 50.4823455811 192.2200012207
179.4902801514 72.0798416138 181.0149993896
196.2367095947 54.4497261047 199.4700012207
182.3343048096 65.6240768433 182.7424011230
189.3955841064 94.6759185791 182.6190032959
194.4121398926 123.1669311523 187.7731933594
164.0786132812 148.9456176758 192.9275970459
202.0467071533 46.0197257996 200.5699920654
202.6086120605 47.5856094360 216.0276031494
176.8416595459 85.8693542480 186.5304107666
203.0289459229 43.0681800842 201.4969940186
190.3451385498 117.3000030518 178.9730072021
184.2066802979 115.3600006104 179.9519958496
188.0540771484 94.0828399658 185.2599945068
178.9446563721 117.3223495483 184.2400054932
161.8719177246 149.5189819336 189.4380035400
161.2564697266 141.4712371826 189.3099975586
183.8243103027 149.2540740967 185.9924011230
187.3292083740 106.6475982666 184.2081909180
