198.9339132663 115.0341564471 217.7498980728
229.8557162920 97.6602930867 214.9091799607
213.8926228344 100.8324324409 225.6529273227
224.4426608684 158.3693043971 211.5561992282
213.2262538397 105.6017195940 223.6966098613
224.1198652859 100.4339804966 230.7271363850
206.6598394300 129.6791263763 221.9539430211
223.7244476039 60.2694108357 275.0448311378
200.6742780285 141.2568709512 221.8211477211
223.8437742581 62.1388916790 245.8071640554
221.7095985416 63.2826868611 229.9436487304
210.4056944556 109.5798959747 222.7832202865
218.1109772569 107.8832417861 225.1282231922
208.3924485023 104.6171497610 220.7841978499
224.8651964723 55.2064762129 252.7723307978
206.0083213633 110.4945914006 222.7767800828
195.1302942693 134.9943233749 224.4738662391
220.4818139033 56.1499234386 249.4990158781
211.6789148076 155.9772254571 219.2977314095
223.1052994580 87.6441089002 219.5023731825
222.6970355704 99.9360401787 224.3623234160
201.5617799774 116.3300128930 220.2269507789
199.3395377010 107.6956831613 218.6943088962
210.6323627465 105.8386007831 220.3438269893
209.5801654582 94.8983199750 222.1255267897
217.9554338265 157.2379626678 219.1464748495
200.0232336562 122.9562166475 222.3428508465
205.1505916306 143.1826182882 224.7818473284
199.8947415201 156.2420464015 222.1499682591
228.5831419838 65.6984471090 226.6798681728
222.0766019135 56.1818314619 235.8607069184
209.4007520489 160.9404493349 220.0565073342
223.8208934359 65.2834093658 265.7518566771
203.7116512800 124.5075403383 219.8456662947
220.2874338623 52.6954940107 249.7530900104
205.7640015324 126.1692045911 221.6726825442
212.4768610342 161.2194847305 209.2994051949
195.1408985665 136.4752666188 229.2933089499
224.8984588127 95.7610484266 230.9504415939
231.4168746071 91.5819354778 221.6165731046
216.1724838390 108.4824286571 227.2408154323
203.7462400629 157.7629017000 222.8951817829
197.4441797769 136.2035918299 223.3453870140
221.9437336730 59.4731005630 246.1258745178
198.3057608125 155.1085430280 224.2891351469
230.9348084874 100.6533468290 227.1280707752
229.9454738582 100.3644255319 224.6422556948
213.9285574251 99.8246217474 227.1582717745
222.5332059988 88.1600645535 217.4622750042
221.0225218605 65.5782586964 278.0694029444
222.0176380218 61.0539033555 235.3719317101
222.8400293430 58.2024862956 245.1901363773
224.9706738683 59.2751847764 237.8015247430
217.2953137103 64.3421274396 279.7057310762
228.3080207806 53.2722564093 257.4285207197
223.5705827229 61.9340368501 261.5111650344
194.7839582937 127.9139133302 223.9854625764
223.9796557035 155.8697007643 220.1110818753
225.0806618813 98.9361559940 223.9385078700
220.2242944006 69.1092488431 280.6187011181
230.5304643193 96.8932930344 222.2348609913
226.7289458996 61.9844155831 257.9958309031
218.7236954816 67.9987629308 229.8487632260
226.4204170084 91.0990463092 221.5971236744
220.4372382267 62.5345498627 257.3896081738
210.4307030594 110.1014106818 222.1761668183
220.6718505092 68.9101771815 277.0278701406
208.5334130404 116.8083424626 221.0070304108
217.7914183484 159.7340292969 213.2855898374
206.9445988619 98.4843076016 225.6720839824
228.5660498503 69.7171479051 227.2680818369
195.3962598124 122.7857414407 219.6603030208
206.6906232727 157.3439116723 219.0489126239
214.5134860203 153.0963875346 206.5890249154
193.1310805430 130.2897304634 223.2711711227
224.7844497475 69.6006260197 222.5718120646
197.6226908102 144.1921803919 219.9958107163
217.3400803852 59.2142862026 263.5593856213
226.0686004934 58.6965315226 246.8930068618
197.3098799451 134.0160239470 226.6496665774
196.3484870705 144.8279609678 224.8175207543
222.5247011247 55.2058986081 234.3845811369
218.7575001262 159.3497360531 204.7435100160
223.2344413776 87.5936464316 218.3125758163
219.7397913683 96.1310161383 222.1208243565
230.0014808778 98.8314046755 227.8474131728
220.1540946532 104.6912176073 224.1037991251
199.7662393424 131.2598296191 221.8097831147
223.5058505319 61.6902016345 248.7475706251
221.1722621924 157.9484858097 211.1177194106
203.3469944042 125.1042391561 221.0820567831
224.1908863659 55.9809048768 269.2575665391
223.4312616710 99.2880064392 223.8006186856
233.4878280884 97.2532029007 216.4822883365
192.7119116569 140.0875455208 225.8315092625
208.4812695173 116.6466110464 223.5400343381
217.8995286304 154.3767014173 206.5672451947
218.6114258563 63.1156678566 281.3443273597
222.0784824514 52.9798659721 251.2687920044
202.7207128333 139.5830149824 223.4892697564
198.7665521537 147.5815743487 230.4393336483
207.4451221671 158.6391549799 228.9463782435
222.0906241114 100.3029179481 225.3518962216
202.4334086941 155.1293723955 220.5071819329
209.0945368210 126.3833397569 219.8260568212
215.2835198561 158.6024819193 204.8046566616
215.3013300030 161.2791626873 220.8323184363
215.8125919236 159.4606635205 212.9021432626
208.8141636079 109.9459420650 218.8409900964
228.7121384849 96.3585983744 219.1611574671
203.9181327211 118.5812243798 214.1736508781
226.8585119803 67.4576502654 273.4843194199
222.0226737650 64.0768800000 235.4804070406
222.7307886374 61.8297644378 269.5451569654
213.0673931427 110.9093342915 216.9385281982
212.6320311123 100.6113793792 221.8200023444
220.3531514667 155.0548435545 221.0093838486
226.8731104354 64.4351512425 236.5849890573
220.0629888975 62.1104778060 255.2127274072
201.9556841866 111.3358987271 214.0969356658
222.9459482038 57.1771740906 260.9517156707
224.3967874158 55.3520913713 267.5301479793
216.0625064300 59.5564440571 263.0012340676
195.1795206483 156.2557608504 223.7215588572
217.6763891283 63.5661749527 276.7959951719
224.2499661094 99.8843344303 225.8207217122
202.2451751384 135.2206940440 225.6088266590
221.2879716103 100.6446750990 224.0370234519
206.8125763931 97.0208937702 224.1912756773
228.9437923172 56.8590837160 265.6563624718
221.4473538856 55.0196333290 253.5003525537
221.4857006567 64.9477225766 246.9389093887
197.9520712273 133.6612945012 222.8912821462
200.4245768951 116.6664377057 215.0186053282
207.0974973224 152.2492269768 230.8967591595
199.6913865222 120.1606346578 219.1720961179
198.8508173899 155.8685302406 220.7902256920
193.8483380221 150.6817097189 229.4091704188
228.8509202586 71.1764171197 220.1405151808
222.2592300844 68.3085911943 228.6035061971
228.3586612911 94.4178667461 214.3898712179
199.3596318346 120.9444920386 223.8651693262
224.6177033904 63.4525754601 239.7501236031
224.0000314670 58.5136528204 265.7101925490
220.0765425792 58.7917452319 262.7619359754
231.2221961816 92.5425108350 218.6535645811
196.5432158217 142.9702469533 224.6847613455
204.9233574862 111.2486817896 215.7592773451
220.5797515461 60.7828375363 273.1875180925
212.1305884222 167.1980196096 216.4163301832
227.6944586312 67.3342680047 272.7047849343
222.3576989645 49.9418979089 250.8248269059
221.1274048011 63.7317940627 282.4410923252
227.5518097827 85.3252103182 217.1242461887
204.0908632118 111.4672914003 215.2540418043
229.7196512268 58.8680703279 266.0739587665
203.2432019748 110.2239513123 220.7166374647
221.5000853911 161.1135633395 215.9927492089
226.0728480859 56.0442822204 270.6023980430
225.4298566186 92.3995524832 221.9839205041
216.0736663599 102.8548420615 230.5606401672
221.0970378682 56.5475702360 236.5972990739
223.4006849534 157.6460090897 218.7839591063
226.5424101782 83.0716662385 223.2652622026
226.0686004934 58.6965315226 246.8930068618
218.7485202049 68.7973056102 234.4714101453
204.0717206226 141.4269872021 225.8339213416
213.3883575014 104.4537608375 227.3244373149
224.6247902687 79.2266234796 225.0860366144
203.8072136920 124.3707859244 218.3552950681
207.3745594110 157.4679877089 219.7375548467
220.9036530135 62.8735817837 258.4037552242
198.1597552734 143.1257155702 228.0199380674
202.0815946582 147.9989878963 223.6755809471
220.5070328581 61.9892666181 274.3899276084
226.7918591496 53.6885477419 267.1433463075
217.5442633448 62.8862307265 260.8123520508
205.5320584154 114.5811392712 223.3024705175
221.4833384242 159.3900092438 214.8816048014
213.6866875800 101.0227478218 227.1828695416
230.2171830369 95.4659569604 227.0285639040
197.8146467081 123.2860396921 222.2229357144
231.4306478161 96.7288726588 221.0564986804
221.8585291917 66.4547605254 279.2479327111
218.9792058059 155.1415725255 211.4621879581
217.9164214525 63.5350290005 260.9011614744
200.1353442189 142.1730322609 222.0080634365
224.9396517156 68.3233031760 222.1271531860
219.3341765346 154.0388690149 210.6818776791
226.0667549705 83.9659667293 216.5951739242
201.8730962275 145.0929241930 223.8028264180
201.6776058159 108.0366510249 219.4732577101
232.2920105381 93.4317387409 221.2318131092
217.2117261056 161.6806130858 214.1304192492
212.9317582506 109.8780778859 218.4868120400
223.3440241496 98.7696231673 220.8091021421
231.0228778221 94.5101418130 215.8678214926
212.8454262951 109.8481474934 220.7005265646
225.4969341636 87.1339275169 219.7023270687
220.2080370836 60.5910683956 237.0093287152
222.6134421653 65.8016464195 272.8491226861
218.9522652407 159.0727246024 210.0039127147
218.1732176862 158.4693645553 212.4992396095
234.7073722447 81.4886401072 220.1871523939
225.7546025515 57.3667121431 271.0225413614
221.9006974698 60.3217916960 273.0173429429
205.0102681772 151.6298703617 228.1204749771
230.0133002649 86.6227923781 220.2246065517
222.7306363793 55.0155832272 232.8546389179
216.5564112315 99.7073397993 228.4184085907
205.0651477250 156.1046797134 221.8941142264
223.9156011413 64.1232761991 248.1371753900
198.8098688987 147.5960586798 228.9731527766
228.4406152059 59.7321690899 269.0749354225
210.5906067764 105.8131743034 220.1266816601
225.8805089953 61.5106304218 237.8871151470
230.1835901159 65.4254188428 272.9072888266
226.6920192437 64.1201232462 261.7625967127
223.1657886311 54.7223534483 245.5459704618
206.6138961180 99.4754789832 223.1737905194
225.7516904678 74.5549727192 222.1267906141
223.5818951185 71.7123209332 224.7096902429
200.5663548867 125.0232632218 224.9068420551
229.9120414329 96.1499964997 222.4976796027
194.4335462979 151.1333478501 224.2161907425
232.5034771813 83.2985043073 219.1275986959
224.0958434396 63.3753987268 231.7873966155
199.5481670937 143.1098107295 228.6754919466
220.1001637688 66.8301029825 276.9764148492
223.0526988821 59.6665747116 233.1138027542
228.6459060186 70.9493558992 226.9949297218
205.3333902543 119.5517256495 221.8992089202
210.5492862132 104.5984142289 219.5001815790
215.2061327916 99.4824603617 227.7164236287
203.2401394823 114.3990671346 216.3666963704
213.5088171056 167.4106940816 220.6898873601
232.7072509939 93.9017544238 219.1826368456
205.3445028583 112.2377274959 221.5314088593
208.7537249082 157.4017209964 224.6406774650
220.0258495915 61.2937642669 256.5959084131
211.3040486850 102.3369640660 226.4111960058
227.4610668555 88.6719880644 214.4285019884
201.7072803410 125.9620942940 220.4880873894
203.0063154797 109.6406146518 221.0589975990
191.7779058785 137.1031713097 230.7359666345
211.4186082564 164.0321731338 222.3272382326
225.1999189721 55.1659523680 251.5202236827
209.4599457942 160.4970123628 219.5240625846
218.6623802627 99.0119766615 227.7185322852
218.3701459844 158.5916600967 211.2901358547
226.8585119803 67.4576502654 273.4843194199
216.5564112315 99.7073397993 228.4184085907
199.9615412409 134.1087987544 223.2425923758
225.9330279400 67.4415443737 274.1174709299
216.2110206186 107.5981304600 228.3212598616
223.2292434889 68.0666046878 247.3172662667
217.5023812628 69.4103433002 231.9198323630
231.5718955331 91.6876128966 219.5311736690
211.3065715112 150.5751036819 221.1332216330
199.5524198034 129.2699140561 226.9501491736
205.6251103009 151.4597064079 229.4221661933
206.1970247993 120.7055925950 218.3281314979
202.8331720537 112.4872218864 221.1484931643
217.0953191491 63.9721392131 261.3978141274
221.0584493617 60.3093275978 269.4251082768
195.4517012457 148.2807478527 223.6303420714
218.7236954816 67.9987629308 229.8487632260
194.1797870706 137.3863063754 223.3549343790
218.7757255817 63.0040064643 260.2068996682
197.6942863891 147.7672455609 221.1267713546
224.6603629092 61.0348742379 247.9264285545
199.1456808544 151.3919368419 225.2891276467
229.7434231612 66.9883597047 274.5902749214
196.5272213476 118.6875796596 224.3539815865
206.9060620823 99.3686057987 224.5916395531
212.9090627372 103.2886341957 226.8515276587
203.0195784360 116.8801799323 221.3779714313
227.4104802062 89.1858264215 223.1342364576
204.6596453111 112.2897104365 215.1684625734
197.6942863891 147.7672455609 221.1267713546
200.5021150443 153.5029810816 226.3673566557
217.1871142639 158.0926786557 205.6363050799
223.3214476112 52.3826579115 254.9092447861
224.6277075909 54.9024632660 247.1125602819
220.1254593604 60.5604125618 276.4356999931
228.5199424222 57.9367241504 267.7427286451
225.4893725835 90.8512192306 219.3965595687
223.4342459945 57.1555151851 257.8967509826
193.0268093509 154.7481189731 223.5481669983
211.4946803652 157.3508439976 211.2951052354
229.2273929586 69.0733710037 227.0081178757
227.2401893769 53.5388767218 256.3119689525
219.0337310551 163.2768675254 205.0379337565
218.4705619592 157.6053130779 207.0004175918
204.5755442635 144.9690079717 226.0459461176
229.8207780332 62.4012756230 260.7009581110
224.7695484986 59.9486209751 251.1756713998
200.2323051606 135.9686228849 227.6696083778
220.2606063999 65.5896375476 277.6038676433
230.4934691653 70.8617226227 221.7311814490
200.9698131837 129.0033004086 225.6214534231
201.1532102147 148.7431079599 221.8961003766
194.8495268443 152.7810635717 230.1741340120
227.6632473860 63.9492675492 257.3703386065
211.5980599786 161.0919169604 214.7854947001
206.1936761090 109.7870767663 218.3722544988
221.9349788423 157.9643660304 212.1631176483
202.3951684405 108.4233324770 214.1350061294
225.4199493870 71.8461053886 224.5725818705
205.6330415188 111.2296975335 215.6588416370
221.5428705308 94.4507658492 224.3657159899
217.8406878995 156.5547770836 203.1745955979
197.1991886858 130.0035222638 229.1317932175
199.6367447322 113.4583121096 214.8205481581
213.8379121102 101.3819292266 222.5092349666
214.4610543688 100.6632339499 225.1372600889
222.2106544284 58.6194268097 276.5845683594
198.9100798945 133.3657615143 229.2580247208
224.2010915817 65.0051551789 236.3616041341
200.4234379634 111.7378119401 215.2718161312
224.8458259953 69.3810458241 232.2496379564
223.5818951185 71.7123209332 224.7096902429
207.0328079918 110.3378408496 219.0142923505
223.6439293281 63.9794473814 270.6182518522
227.6238135629 64.7181750408 225.7015733007
202.6739237911 153.0757212695 225.7629307506
222.3424249716 61.2282208718 254.0118356649
202.4959495088 143.8136986214 221.9043048599
201.5362436939 150.6709855026 226.2631180232
195.8210838074 139.9993914067 224.5714665493
227.4678728925 87.4479450047 215.3724867311
213.2743017548 157.8565670518 224.2925673006
227.4607295373 54.2189960641 264.3666298047
200.3747108128 112.9832933543 218.6206423628
225.3130329244 55.6779260579 250.3405544001
227.4212312557 84.1034907891 218.5336749313
216.1724838390 108.4824286571 227.2408154323
228.4451210525 65.7584902777 271.2237388825
223.2209862385 62.4649357262 269.4943277310
202.0310802107 123.8291252463 218.1454003149
220.2076426125 95.6855459679 230.6451216973
227.5518097827 85.3252103182 217.1242461887
224.5506321743 60.9103277690 240.4159008222
223.7691974322 94.1694003235 223.4127294590
221.2054976457 65.2214807067 273.9622411396
205.8553666069 142.5102843424 224.1445717411
221.6539390126 163.5884134393 208.6675752575
219.1405764519 64.8425995059 263.7534159227
220.5564797663 61.3652647689 241.9618561962
218.6446138026 162.0466791622 217.2881731291
224.8415245905 58.1448446387 242.6051546590
223.9684411322 54.3805962973 246.8608432316
221.0589939486 61.0196633011 274.8882170338
193.3525872424 135.2455904773 230.7869918514
225.1934132073 52.2359818762 246.3355424165
218.4693698958 160.5018596432 219.6671773585
222.5533609924 63.3567747889 229.8836481714
203.0907976749 114.3321334185 215.0122603777
201.4698924642 131.9710979460 224.2975171526
209.7824343339 95.0420057831 221.1315355010
230.2472928752 78.0840587673 221.0780140570
225.4812293057 65.0355647043 232.8958941595
217.5416171009 156.9214675481 222.2457660708
230.2259669762 83.5864095608 223.8688241409
223.2125542088 157.6222046446 212.7212695025
216.9959672869 154.1222922623 205.9167038743
233.7312681603 83.2838689611 217.4209784820
209.9739510045 160.4376655187 216.9809350965
208.3670309356 109.6807343080 218.8915458029
222.2106544284 58.6194268097 276.5845683594
226.3336910846 71.5667605465 230.0371684600
229.6102157869 83.8123330918 220.2219335099
196.4591798619 156.3787186863 220.5902712047
197.5037885054 152.5681197092 227.3026272632
201.5617799774 116.3300128930 220.2269507789
198.4151320460 118.3096333188 223.8577504269
213.7132088585 158.8507772157 222.1124025776
211.7228965466 157.1709742664 225.3389462579
206.9911721315 125.7766023209 218.4990660606
217.9554338265 157.2379626678 219.1464748495
221.4095153276 53.5864141301 256.8777171308
196.6590642376 141.2034253818 225.1755460315
200.0028618041 135.3235588290 223.8690924568
231.8053907002 78.5349531059 220.7502969135
195.1302942693 134.9943233749 224.4738662391
199.5235140064 127.2232536410 224.1450229481
228.3999818543 95.6326268206 215.0163712989
195.3962598124 122.7857414407 219.6603030208
230.4852817536 95.4769385845 225.6077593339
218.7757255817 63.0040064643 260.2068996682
218.1732176862 158.4693645553 212.4992396095
208.2614832750 110.0373056825 222.6039604814
230.9603116636 74.1762972541 224.5962699241
220.8968789783 97.3252569354 219.2359774812
200.2500254123 113.8076968642 219.3884943565
205.1356817876 120.5785866569 220.6284664027
213.3399380649 157.7342026427 210.1243906316
222.3865406222 156.5132786664 217.0919857493
225.7681581537 84.2419273032 218.8135945871
213.5625851401 163.3223736391 218.8641983745
217.9164214525 63.5350290005 260.9011614744
202.3640055739 107.4465321375 216.4611389755
211.4166108508 163.3761473957 213.7912083911
197.4398773746 147.4553485859 219.7633381264
202.2181369762 134.5884310464 227.3497109126
222.3675911184 63.0522172789 256.5433532633
204.8314775224 125.6949448356 220.8578016339
207.3069363405 112.1775720312 217.8831283568
225.7873214834 74.9428223909 221.2304166638
219.1463535200 108.0158163744 225.0380413859
224.5180192124 85.8478749164 220.9219580139
207.0415768988 125.8270432054 222.2308343985
231.9394758944 97.8285330708 218.0675019293
220.4873371691 61.3849593814 258.7941861724
205.2436789120 123.8440104296 218.0960148933
221.0879665905 66.0428040396 227.9036757257
224.3003845381 64.6303046294 261.5626428266
225.6119772430 89.7746423898 215.1622415596
205.8601011314 104.1976024564 221.2573306143
203.9982881997 139.2408535967 224.0474216105
210.5237484598 111.9899227615 217.3644077543
224.1617150548 159.6490157138 208.7907553548
219.3096746229 102.7679212958 228.6268653041
210.6722178228 156.7531794963 225.5278953598
229.1386797981 96.6437961970 218.9927465582
230.7694300507 98.0037450444 219.6894387382
219.8494463203 107.5501703512 226.8117731364
220.0229600678 61.6341941732 266.9712624151
211.7826123394 150.4740870585 220.9456071097
197.5132850289 136.4603344745 223.1479305808
224.0892140000 64.1331042157 227.5210403380
222.3754962316 84.9478446522 219.4508950898
216.3429506452 157.6747656670 206.9338266749
223.4622785866 60.1570558285 273.3139164277
194.7621676458 145.7332372754 223.5817038759
209.9739510045 160.4376655187 216.9809350965
221.1722621924 157.9484858097 211.1177194106
224.7679049616 62.7973136931 266.6821417898
230.3346010117 99.0162784944 224.2751454983
228.9697175088 78.4262201531 220.5198622027
208.2248639894 108.4039887936 218.9021221123
196.4200083719 135.2661766965 222.9805150694
202.2352210845 135.6339756100 226.2270227022
214.2697026483 105.1574409174 225.4059594555
224.8651964723 55.2064762129 252.7723307978
223.4287623868 55.1321673843 245.9514974096
227.9699078218 74.5383739059 220.1166072752
207.4348392767 120.0732445376 220.4441068665
216.0282866371 107.6590578420 228.3468386550
208.3070038785 153.5634273747 219.7734789540
196.3968207336 156.0872481744 223.5863926891
195.9811989561 157.1205598078 221.6536858812
223.6838755298 70.0716846506 225.0078759577
207.1265685936 128.8389223686 218.9172871667
220.3123197530 65.9668836742 277.8848800693
230.9165435569 75.5250386430 225.0696152736
223.6979789274 96.0234382883 228.4971873644
224.5275209185 61.2375752627 264.4234846548
196.3484870705 144.8279609678 224.8175207543
221.1363041376 95.7263033243 220.3267639919
214.8115627203 104.8884488048 225.2461639005
201.8138817809 148.2464051951 225.6645196778
230.0868138208 94.9828807794 223.2938702300
219.0888710252 63.9245637823 265.0532618209
227.0327670727 60.5393918495 234.5191853358
208.0989012792 158.2529327612 225.4015124287
207.4087562851 152.5430035480 227.7328165927
229.5170934106 97.6566680636 227.7513797452
227.1485407418 65.5481927040 258.5017953140
219.2654728233 59.4398682436 271.8472447838
204.5736898235 118.4682231893 222.9628251857
229.8733536290 75.6118139144 224.3008732594
226.9479854281 57.8940819522 270.2176383482
235.4453555287 81.9780080903 218.7091790334
200.9920489382 115.2917847250 213.1437826003
211.4152307736 104.3998791821 226.2101362379
224.5867741305 61.4192646572 261.8765219843
192.3557038949 136.5357882094 224.9729038462
224.8468749893 68.1680584421 224.3221344310
227.4640912873 91.9296954138 219.1827098329
219.4622358268 107.9988625726 227.8131717766
222.9414756268 66.1223951582 271.4625761866
222.8002612651 61.2860299776 278.6720675592
215.6874157220 161.8923213340 211.1199464420
225.2032583759 70.0546136096 229.9612717990
213.8439288938 161.3509731219 212.1198959644
220.0652293052 62.6314357574 237.5898140756
219.1023542067 161.9098509068 216.2331226347
215.9665300279 152.3485796145 208.8240607590
220.6214954904 62.6619743233 259.2649815237
220.3288670411 103.5241018869 224.8999897524
208.8141636079 109.9459420650 218.8409900964
210.9996611406 153.4154323182 210.8287119877
225.8163117517 59.7418971599 252.0204619364
227.5818666222 69.7887679267 229.3939961543
221.8466442647 61.9982689584 270.1262208024
217.5613997004 105.9995019587 229.9065486559
222.9188048460 65.5827619974 279.3964773199
222.5533609924 63.3567747889 229.8836481714
228.5334336790 93.2507510257 215.1860618451
199.7662393424 131.2598296191 221.8097831147
212.9863851566 107.7523786444 217.2038893498
200.9920489382 115.2917847250 213.1437826003
231.2374117690 66.7552452909 224.9821183186
197.6570834259 140.7507318751 224.0553418300
212.3546058633 157.1395799134 211.8875081670
219.1854554225 71.1518929555 277.2955238321
195.1795206483 156.2557608504 223.7215588572
223.5715153281 99.7717924769 226.7543182646
208.7233258580 107.0639837231 218.2356341625
226.4362428556 61.1867265770 269.7173562166
225.8477438751 65.3541150344 234.2992156110
208.7537249082 157.4017209964 224.6406774650
224.7143522586 98.9414087254 232.4884381813
201.9906215979 113.5580625431 214.6369951401
223.4342459945 57.1555151851 257.8967509826
212.8052930895 99.9614503548 222.5555574555
221.4833384242 159.3900092438 214.8816048014
216.9431049705 109.6592768891 227.7432759576
215.2261021797 159.9201042904 203.1947816750
195.8624071931 141.2141444187 225.1979672314
221.9568655474 94.4298344934 227.8768954464
229.1653361423 87.4870212883 216.6207299149
205.6824338985 125.1419633672 220.2670470525
218.4466731611 161.0188718480 210.9264046387
207.2934713108 159.4777931926 227.2049954940
209.3091644403 158.9081152797 228.3935417551
214.2103490708 159.5565184218 216.1677642881
223.6872595364 94.2120824227 224.0820457292
221.4102639101 61.8608185626 254.5251908447
227.3877378013 59.4366883389 233.7388750569
214.5870564126 159.0085387800 211.3961969548
224.7796806604 86.7549763502 221.7956139329
223.5640423100 82.2428822571 224.3700024405
220.8525279121 95.1476630041 227.2239700208
212.4980302145 167.4956841488 216.2463029089
205.7164864030 116.5050110710 215.5360947400
220.4818139033 56.1499234386 249.4990158781
204.6240420736 159.3427227482 224.7030282933
219.1463535200 108.0158163744 225.0380413859
196.5156135180 131.5311654956 227.3224763275
211.9752788050 104.0109094962 220.2440459068
228.5647664202 96.3996557431 223.1852161653
206.2831209145 120.6864109625 219.5725569102
218.1891418658 59.1571821780 261.5325519093
219.2142092418 61.2566749895 260.4036549754
218.9425137402 159.5109333926 222.1705976656
224.6591445626 69.9469698560 230.0479907967
221.1774199947 98.7859252721 228.4794557694
227.0169937879 96.7862377139 221.7392070466
224.6674824261 80.5648380965 221.8992271369
222.0534317219 67.5604910004 278.5051716867
203.5964813443 155.3494091378 227.4138885844
223.2344413776 87.5936464316 218.3125758163
217.9554338265 157.2379626678 219.1464748495
226.6937389826 95.7546831928 226.8739226726
225.4893725835 90.8512192306 219.3965595687
214.9809553239 101.1315456131 229.3279163092
215.3659548749 159.3446831374 213.1611276762
220.6781058028 64.3261924375 260.1232951439
223.8192790489 67.7022126751 273.2704229977
200.3896780902 142.0171957429 222.5127034835
226.0304585916 69.1031822037 230.4403745105
218.8167343825 99.7183637783 221.7090780523
207.0161114909 114.2057851969 221.1836722732
219.9881079235 70.8101358046 278.6103966019
228.0997025381 100.7064612043 225.5841735387
220.0492242519 108.1174659183 226.4918800093
203.3469944042 125.1042391561 221.0820567831
199.8722340111 133.1007616465 228.9562526994
200.9909097988 134.0086739128 228.6199263818
228.0940215397 67.3402136811 274.4523854364
224.5892891534 67.5733334248 243.9281348024
202.7931815209 132.8020484256 226.0856115222
224.0892140000 64.1331042157 227.5210403380
207.0415768988 125.8270432054 222.2308343985
228.1299316249 56.2591111767 265.5118123287
199.5913150621 147.4416515328 228.9173457220
231.1606073769 66.3402690566 225.8056776910
199.1456808544 151.3919368419 225.2891276467
221.2440358365 64.3371789783 275.0426858695
199.1084628931 147.3201051685 226.7547315126
213.5725034561 150.5608172534 222.0330399418
213.7217954560 168.7615308060 219.0613101615
214.5384948638 156.6114499136 222.6877216554
221.4473538856 55.0196333290 253.5003525537
218.8909782499 70.3754406000 231.8587961821
201.0804744984 138.6519499503 223.9090408929
199.0832830719 143.1834610479 221.9150109949
199.7287020356 140.9949691383 228.8909333457
218.9451933514 156.8052704133 210.0260370655
226.8585119803 67.4576502654 273.4843194199
218.2976518344 156.4182334981 213.2891627359
218.2162999579 104.9007882698 229.2259672294
211.6866748765 160.7770701213 220.8597385707
228.2423404722 85.7774474963 224.2220018487
206.2850708869 120.9373811459 219.5892892710
227.5387324348 87.1979470745 222.6726060092
212.7113620487 155.9214039455 207.8675272053
213.3399380649 157.7342026427 210.1243906316
227.6209385151 72.6816092325 226.6903870078
222.7194329364 160.6717032200 212.8043801830
231.3117123580 98.6336008119 224.2533602756
220.9414670334 63.1227171339 275.3607978155
195.1445422915 131.6891229167 223.1826860236
204.2778676319 158.9971032958 226.9637541820
226.2354797240 60.4079269112 237.1068048680
224.8223492467 83.7186503334 216.6807510662
217.0521629003 68.6341629085 230.9715297370
205.7640015324 126.1692045911 221.6726825442
192.4181291368 135.1032206317 226.7232262126
199.7720809685 117.1477518910 218.4162535931
203.6523517099 154.0671656267 228.9805462077
200.6154864671 148.3790666662 229.2822176665
225.0648146234 159.0234091684 210.8173422339
204.9402556392 123.9634087342 220.9525457030
215.8195554017 159.9778661736 202.5628974967
225.6964151367 53.1684574577 259.6498565620
222.9167646767 99.4288625075 223.9857729060
233.1610647564 97.4935636612 219.8893926244
228.8958306485 90.1560914286 217.7288494351
230.3201438815 99.0498768827 216.8288415279
227.5079973564 64.1239014160 275.0482587950
221.0584493617 60.3093275978 269.4251082768
224.5688428930 62.4523318060 265.0499850364
198.8942761352 115.5679379054 216.6084064816
210.2558747389 154.5978612308 208.0530883241
226.1184277539 60.6341619686 241.4568856172
203.0716100664 108.5312646725 221.1309959857
227.0161157817 78.5003341793 222.3135873590
232.4996194975 97.0880785694 214.9938066832
217.8583571837 161.7019341310 214.3005215247
235.4453555287 81.9780080903 218.7091790334
226.8585119803 67.4576502654 273.4843194199
226.4929126564 60.5382072135 242.2968425548
222.5084746365 69.5022373980 229.2754873177
205.3041147031 109.0864074430 217.2506469672
216.4166278717 103.0681705038 223.9029317993
203.2823475360 125.0325683062 218.5712551365
221.0817269213 163.2067368960 209.6986174852
216.3649727516 161.6907205052 215.3074016323
221.4102040627 56.2151160952 253.9715218170
208.2614832750 110.0373056825 222.6039604814
225.2897711516 64.1761121082 227.9310187633
231.5479348606 99.0352415365 215.1222213140
199.0671314507 148.9544038990 230.8674306582
226.2007160069 71.7394925805 222.2937250378
199.7422310625 119.8287050947 219.3323686519
198.8822906974 119.1588914245 224.5452199640
229.0165395103 66.8071752934 228.1124596271
227.7465080286 89.7025484889 223.6394886536
219.0888710252 63.9245637823 265.0532618209
218.9651279309 157.1099602622 216.1114562270
229.1208710154 89.7589607563 218.9370098082
202.2663089871 108.6682968308 213.9094634326
211.4464849246 154.5515187255 226.0505451406
219.7890177188 58.1020508865 260.3972604514
229.6623121477 98.9854512571 224.1154710912
233.8521944466 79.8015248060 218.8730206162
228.1299316249 56.2591111767 265.5118123287
232.3302048588 98.6976635622 215.9477258458
220.3905722921 58.5783018232 253.6779357760
199.5231936846 146.8913419415 226.5558722719
225.2035210364 72.6453469347 229.1764785526
195.8765623114 148.7503406984 227.5334762045
213.1032009089 158.8624192495 218.8106124862
193.9167513124 131.7037582629 224.8893062375
211.4493310814 169.2884114782 219.5179764805
222.0023202630 64.2807142357 259.8780440050
222.1676435260 52.8584303183 255.2108096070
203.5254174415 124.6606048982 225.9769352828
215.0175354074 155.7516151763 223.9979337004
217.1140597622 70.4723716316 277.3893691887
225.3590059295 64.2007221430 238.6521175484
220.9613410724 60.3802585999 243.0838439353
196.7936577301 133.0382422659 227.0338465299
222.3119471729 60.4728820697 250.9701976465
228.6243983609 86.7745939719 215.8653552095
224.8587152948 66.0553199521 277.2615566275
212.0422176404 105.9788143303 221.2589775941
227.2624765569 93.0372930001 223.5957854807
221.5494934208 72.4418151901 226.0410402392
220.7204869339 63.5057024669 273.1593757756
205.3445028583 112.2377274959 221.5314088593
194.4990605166 149.6300366775 226.0529466331
201.5026517394 142.3732470758 221.5970791106
213.6866875800 101.0227478218 227.1828695416
228.8809938111 78.7447169087 220.8689306055
207.3771784769 115.6123300415 218.3473300830
220.6192860061 103.6993649674 226.5640504937
216.1981648213 64.9336390103 278.5870576657
215.9818618730 59.8498600327 265.2197706867
219.0290651099 161.8590047089 215.0806146144
212.8709342911 153.4110890942 204.9983580461
199.5524198034 129.2699140561 226.9501491736
230.5304643193 96.8932930344 222.2348609913
201.7402731186 149.7099573152 226.4985230541
217.4634688413 163.3923479254 204.2485201508
225.9576062479 62.5067446622 241.5242288950
223.9973326725 99.3823974100 226.4924328516
210.4005229050 101.1976742370 219.5202505689
203.2904803922 109.6057119642 214.2743353772
222.3587323765 94.9134600889 229.2360247042
225.1985358959 53.4031192164 247.4964695421
210.0693358381 163.6258066392 214.4787449536
230.8260883350 71.4115725447 226.2705402200
217.7978604486 162.0567865816 218.4651555123
201.3436317056 143.1753886419 227.7827574117
226.6937389826 95.7546831928 226.8739226726
221.4190481609 50.6243976172 250.3132756851
215.3561494404 151.6441143935 220.3436903412
224.2639863879 62.9659884953 228.3172309653
221.5352464265 60.1867522974 248.1117925770
223.7844796034 98.4215597051 232.8094280267
223.5322555968 77.4399934535 225.4219429635
210.3295513390 157.4744442723 224.7007057482
228.8878805460 65.7192473841 257.9964899951
207.4917009512 101.0552929687 224.9816376310
210.5906067764 105.8131743034 220.1266816601
225.1612786709 62.1160301430 241.1803483499
222.5441322367 55.6990941121 257.5360308883
197.3289894856 134.6751063567 228.9005946088
225.9609921080 60.4769005688 276.2251882808
223.1892538768 159.1377172283 207.9840502381
195.1121509773 153.0783081550 227.1026727759
223.3459931400 65.9622036041 258.4350567325
210.4005229050 101.1976742370 219.5202505689
218.7563744420 67.7602047179 234.2179461427
204.0472796053 152.1113816287 225.5607322825
215.1971683339 160.6256720831 213.3250140942
210.1132992594 165.4409869507 215.2422232398
221.4759316458 155.4503719365 221.7210257086
218.1619387248 108.5525053412 225.6830623410
226.4152320136 97.3075434692 221.8987037010
195.5598223135 147.6505498463 224.7240589815
220.4940545246 62.7978323466 240.2115338297
225.8895876666 67.0196871249 246.0582445385
221.0185795435 59.9439709300 242.8873476401
217.8583571837 161.7019341310 214.3005215247
222.3944902228 62.5503672178 234.0857699709
196.2798255349 147.4691781637 221.3757995092
234.1104787088 82.6924164932 220.2564158765
214.5134860203 153.0963875346 206.5890249154
211.8682413127 161.8824531548 215.1043305741
215.7179195573 163.4964277423 207.4499124430
199.5361876244 155.0380075421 218.9505578117
228.6459060186 70.9493558992 226.9949297218
222.6816356216 56.1943561732 252.4538567122
225.1703710036 98.0621849398 233.4312306795
201.5446444062 111.9466512307 214.7805157950
222.2480439984 63.0755856688 232.9387642958
226.0838385305 62.1144698871 266.8119436224
201.1150172939 119.3453168728 221.4225226850
209.9739510045 160.4376655187 216.9809350965
202.3951684405 108.4233324770 214.1350061294
228.0209679227 65.7812300819 243.9983905858
205.0862137340 124.7900216391 217.9667491959
208.2484263962 103.2569260329 225.8899891012
211.5838522936 153.9077686331 225.5473990404
225.4746791760 61.9876039556 277.2942226409
198.0607830294 134.4415777711 224.3724775165
203.0699968709 129.9962731721 218.6234794270
212.0668423154 165.0789796471 214.2453055893
220.5441302583 155.3149359071 220.9425521142
216.0745705858 158.4540808630 220.0749264044
203.3566805513 125.6102438489 220.6259765738
200.0637306074 140.9674875217 227.9948550274
203.7561288102 113.6793637752 221.9726488711
222.7307886374 61.8297644378 269.5451569654
207.6853743118 99.4776744295 220.7069698191
230.7807003935 70.1598545865 224.9766933135
199.4740494075 133.7558463378 223.0120839764
209.0443378243 153.0297105989 231.6102071864
200.3747108128 112.9832933543 218.6206423628
224.0835038001 67.5500070158 275.6588012866
199.5744952398 121.7940418460 217.8857875131
226.8821912371 56.2454002587 254.8890278385
207.8456092467 113.4593153619 218.9983924279
210.1410328899 164.3743345197 221.7690863784
224.6296957866 64.5436530395 270.8629530134
207.6906163638 112.8316639042 218.8696630902
211.5913832387 162.2090316754 214.5873990183
196.7878021014 146.5307877865 225.4804368672
218.6114258563 63.1156678566 281.3443273597
225.6988970974 75.7664642144 220.6465722516
220.5797515461 60.7828375363 273.1875180925
197.3038023561 129.4773720977 220.9053414173
220.3017937345 59.1656745523 238.4350774046
224.6172848982 96.7471316312 227.1026505600
204.5632206715 141.0571693499 221.3364966898
218.1109772569 107.8832417861 225.1282231922
222.8098111042 85.1461782060 216.3908217123
201.4208858742 157.3779526657 222.5161720622
221.3519931172 53.9585832579 250.9568632010
213.5149229857 160.4687782292 208.7915036024
217.2335487303 159.5481054670 202.1703595868
215.7045891544 156.1952538729 215.4345935698
228.0368452459 76.5062822713 221.1315386619
229.3140038060 94.7980092209 224.7948546270
214.6832886574 160.5547349120 206.3743760300
225.5229646912 67.5328400796 273.6579179431
206.7233313644 127.1494731280 222.6509777168
224.0063484935 59.9982356015 255.9898168809
199.4757611330 116.0093505726 218.8658451766
220.2076426125 95.6855459679 230.6451216973
226.2007160069 71.7394925805 222.2937250378
222.5645216317 65.0520741254 236.5963541444
207.9452976106 102.2566131730 221.4061992810
205.8178654709 153.7852647309 224.5728332008
197.7745448388 142.5488220942 223.6829919868
196.2310644419 156.4287874771 224.1565439997
227.9745283959 92.6870895663 223.1819774288
227.3272791238 56.6008683277 264.1969395590
224.8653738065 87.7391990356 219.6805321948
202.4747320798 156.3441254075 221.1336826150
204.0932877713 158.3470853056 224.3993969415
222.3865406222 156.5132786664 217.0919857493
219.1087808977 65.3715316663 261.3093290284
216.7143317057 109.4576227825 228.3567625361
212.3216208555 156.4013219886 225.6657851453
213.1920697633 100.0356456594 220.5098193138
225.9789383474 59.4968213998 254.4728510317
232.0561964057 72.1586687659 225.1054702461
227.8307459577 54.0993626517 255.1721073496
202.0112099080 107.7283376284 216.9947390667
201.4389956423 126.0193665798 218.7698277278
225.6224897570 64.9246591874 223.5601465603
227.5612815562 72.3288391605 225.8022120704
206.2746050033 154.2929145691 221.1048295515
226.9827951474 79.7384038911 225.3588980063
205.9237042953 151.1837528966 227.2037449293
202.7046952885 114.2542085734 219.2006588108
211.6866748765 160.7770701213 220.8597385707
225.6622531696 71.1804435366 224.3796588757
205.9481647301 116.4385920902 217.1748707284
201.7417843171 113.1147676205 221.4411343346
228.2926827408 82.7320681285 225.1727688280
218.3637319160 109.1057723373 228.4946517205
222.7688628269 100.1135496279 225.4394454948
204.7976934440 159.6148475802 225.8501412988
231.4306478161 96.7288726588 221.0564986804
205.9481647301 116.4385920902 217.1748707284
221.3186672440 163.7477617351 207.0522969046
214.4747674940 156.8772081598 215.9938358078
216.4166278717 103.0681705038 223.9029317993
225.7546025515 57.3667121431 271.0225413614
224.7854540311 65.9450366679 256.4341733890
198.7731562330 155.9182305635 219.0165907362
221.6846523723 61.2940765641 240.5844346981
223.9671629391 77.5941731883 226.0846067728
223.5020755711 66.2888791984 227.1081851267
223.8577104081 61.3766313889 246.6115557848
219.4626909356 162.9650697591 207.4137389692
216.6167154873 163.4024553450 205.4255025339
223.4100748625 58.3589591778 232.1672715602
194.2617820360 130.1652319312 222.7681746187
225.8895876666 67.0196871249 246.0582445385
215.7103633433 101.4085883329 224.8038264567
219.3656228020 154.5436332879 210.2907133465
210.5237484598 111.9899227615 217.3644077543
222.8943058519 158.9446416298 213.1414122198
205.5966830920 116.4867531882 214.9487682708
231.7012256772 73.2613722765 225.8857805251
213.8323195708 154.8035926171 212.5602793316
221.4499800719 69.4350904997 279.8316988605
215.1760745130 162.5212265543 206.3339659402
196.1819305819 124.1997692402 221.2784381357
220.6450304152 58.3717797072 264.9586412599
226.6180018376 60.8756858681 270.5924356207
227.9394089694 54.5399108027 255.2262144828
208.4910865822 128.2579357248 221.1525842955
213.8900206456 100.7089199445 226.0778273452
220.6976800421 156.8339269411 210.3919823384
225.9914987729 62.9050113294 240.7730830087
222.5355939153 94.8404227555 225.4573297309
222.7128832415 64.5414388763 271.6929599371
203.7561288102 113.6793637752 221.9726488711
219.5669413229 62.5134179589 266.0284699170
198.2479334257 145.7180618231 226.1199653661
207.5741961090 155.1962528521 231.8406519322
225.1459425550 100.7913772451 228.8440030418
212.4950148385 110.9653875279 218.5932678173
224.3034568166 62.1786663297 264.4998802781
218.2931803219 64.4380977793 281.7644706781
201.4807001259 119.4956336598 221.0159185961
201.5924491815 114.8904026026 212.4035525628
223.5375549276 64.3635912342 239.3201502436
230.4738191403 63.7403347729 258.7288426431
198.9476267567 151.2145217712 225.3492467666
195.6252715356 146.3292615479 221.2176982569
221.0970378682 56.5475702360 236.5972990739
204.6240420736 159.3427227482 224.7030282933
225.3714953941 62.1105746550 266.3648578061
224.6460464010 77.9113336063 223.3903743941
223.6844156846 49.6401890092 248.9649915644
210.5750362519 104.2126977447 219.6703887619
228.5755093676 54.7718342882 265.4539976086
215.0978672753 157.6232358208 215.6535102520
225.6338800790 87.2933934409 219.8153705333
217.0110397704 159.2862602408 221.7145274423
222.4485559440 67.7408376412 228.3670547663
206.9685358768 121.6917581820 218.8925148086
205.3482698554 154.2139566796 223.1839450747
226.4152320136 97.3075434692 221.8987037010
228.5647664202 96.3996557431 223.1852161653
223.6852622338 67.1873809021 248.2600587648
208.4043873182 115.3297857070 221.1707164376
224.8587152948 66.0553199521 277.2615566275
226.7094937102 67.6644221310 230.4744271634
228.0868297961 97.3903135662 223.5560533726
215.9329776424 161.9474664025 204.5587530011
228.4996264027 77.9678574126 221.3417969944
228.4099350811 59.1713555389 268.3862994508
222.8555672677 58.5718541936 263.6446445135
216.9414990499 159.0317442289 213.0183391742
199.2580554598 142.0163453275 222.7112016221
224.4237184243 63.7049616944 280.0914241524
208.3924485023 104.6171497610 220.7841978499
226.1517234243 96.7547848169 227.1951771484
216.7798863643 161.3975583927 210.6597434446
232.4996194975 97.0880785694 214.9938066832
216.1843270524 60.2024063008 265.7863298618
232.5034771813 83.2985043073 219.1275986959
217.6012627403 158.1537306947 202.0838090872
222.7419389873 64.3827634591 228.2085769006
206.3480760237 103.9036884435 223.7216773488
203.7416754300 126.9052901872 224.5167211451
215.0046960146 158.9548872342 207.0952795850
222.1980375412 59.5014545469 238.6198493782
217.3503731546 64.0949496336 265.3501472844
203.6323524871 154.8996718086 221.6682445047
228.9595478005 77.6545842033 224.3844306308
212.4202220473 157.5485453905 209.2752684538
223.2179550560 65.1261744454 241.5783248663
213.5723406621 159.1511558580 210.4013785889
199.8061530378 119.7310251811 225.2762884617
222.7632746120 64.6055647221 247.4970609424
212.6155546438 163.1464468089 214.9522709629
194.4990605166 149.6300366775 226.0529466331
228.9407706601 67.3301168556 273.2754021516
220.9562563546 102.4557185691 226.1847927265
221.8692709809 65.5681618708 276.8924196596
204.4104383631 116.0967094684 222.0188158308
211.7477979176 100.9480149936 218.8327140064
222.8944883201 64.1350550150 276.4625297907
199.4384549226 155.2469115272 221.3029079770
230.5304643193 96.8932930344 222.2348609913
225.8086839260 66.1681830548 240.5406101182
204.0565689729 141.5583250047 225.3186099984
217.8371615770 65.3173215650 280.8216781800
216.1877971276 59.6595446519 263.6898284678
223.9678063693 59.7867656428 255.2339432265
226.1927072502 54.3236202669 269.4094322277
223.4041761043 92.7922085140 219.2476909020
223.4530257742 63.8065336986 276.8418070888
217.7132942663 101.3964079389 224.1798533559
224.7810830514 99.1591081109 232.0941963272
228.3248540148 79.1349731330 220.5456063671
222.5355939153 94.8404227555 225.4573297309
223.1017534411 67.3468572233 235.1793243458
203.3119685521 137.4739581052 225.6540626271
197.5660205337 118.6887393173 221.5715629348
203.3566805513 125.6102438489 220.6259765738
227.0113862784 94.6675259894 215.0774077804
211.7228965466 157.1709742664 225.3389462579
226.5127597822 65.8430505137 257.7209311409
197.2467555843 121.8595641935 223.5964192481
221.1274048011 63.7317940627 282.4410923252
212.3785472264 104.3519644624 220.9892666581
221.3629443710 65.6770833211 243.0023419209
212.3007506027 107.8635862231 219.6113113061
219.4212140981 68.5385534848 281.2000407167
205.9161664716 109.3389674371 216.9486730865
205.8984586383 159.6017094865 224.3200521107
220.2483728892 65.1857007472 282.5102095407
197.9610684753 130.0052054384 221.8891279455
229.3140038060 94.7980092209 224.7948546270
222.3626201647 64.5686425614 267.4013111280
215.6671945360 60.0623945829 263.1845883394
227.9868768696 66.8741669043 246.5045428060
222.4021906326 64.5773059668 245.7773351706
204.5180409282 139.6408078375 224.7093956334
194.7621676458 145.7332372754 223.5817038759
219.1405764519 64.8425995059 263.7534159227
229.1240155790 86.2722612137 215.9942298339
201.4698924642 131.9710979460 224.2975171526
201.6923387350 153.3472722154 220.5636712844
233.0263677240 79.3874243313 218.4012062031
224.3376827429 76.2151400847 223.6184592972
226.2382764333 58.9550310770 253.1086934852
195.9336297787 127.8651084926 229.0331238396
208.6083265212 154.8414492795 232.1858063226
213.2661229605 149.9416102918 219.9738167450
224.3572072529 89.3040571606 215.1150897556
218.4367017270 161.2150478103 210.6845496340
221.9765766406 61.2811468644 279.2819376642
206.5051883829 159.5062617971 228.1591285709
227.2401893769 53.5388767218 256.3119689525
210.0254169007 111.9871844239 219.4183148612
210.8810516591 107.6543375338 215.2629495082
202.1777899753 111.3030430651 220.8655339963
220.8099659482 162.7154105157 206.7262024067
215.4120680461 99.2921449808 226.1864814099
229.4333595768 70.3451424408 226.1185069881
223.0577123686 64.4745845945 247.5793862427
217.9470932240 161.4102825318 211.3088720673
225.8281633604 85.9160074593 215.4371413218
223.5338134906 62.4034751390 279.4583323904
225.4739282308 78.3278181307 226.9903290429
203.7058144540 115.2763854407 221.5606635642
222.6608415963 65.2972389435 267.3643180600
211.1601852309 108.8246273736 222.2966697738
200.7191373342 140.4949159073 225.6441578636
219.4366445420 96.8103229532 228.2411814650
226.4289685722 94.0249384905 225.4059610307
217.8240238387 63.7024806633 277.7977066954
220.6384405914 94.8905969659 229.6156987734
200.5132020797 140.6852312882 227.1741000825
207.5753220009 110.8575769781 217.5397833696
230.9795612985 83.3884026301 222.2718150071
218.4511000732 68.9275100734 280.3400464002
227.3003416693 71.2712833560 224.0951120459
210.0994372723 111.8408861510 221.5806355999
210.8565897457 104.9384566973 225.8242341530
221.4101534545 61.2061835195 239.4917578458
227.3812738106 58.8516549290 233.9188141327
193.0319878541 155.0550880325 221.4161220606
208.2614832750 110.0373056825 222.6039604814
229.2148324983 94.7959411722 214.1772931801
226.5669088119 51.6786490831 256.8082291023
214.2697026483 105.1574409174 225.4059594555
226.9547639472 56.8654668238 251.8886741953
206.7233313644 127.1494731280 222.6509777168
193.2326215789 134.0740871673 227.0374415129
223.4530836434 49.6370189598 247.5430458227
217.8583571837 161.7019341310 214.3005215247
222.0601355597 95.1894206629 231.4544453671
199.1800398197 122.7139056258 222.2924745610
227.7185596493 97.0107072678 222.8575430702
201.9046709726 117.1818319266 214.2621359772
219.0984724234 154.1470008304 207.7283077665
222.0766019135 56.1818314619 235.8607069184
201.8766049500 131.6462076907 228.3138316048
219.4108340443 62.0188173954 278.1404093334
221.5299210236 65.1480492185 235.6103876008
223.7264971528 66.1423194699 236.4709591584
215.5296856951 102.8159852551 222.5745405956
222.6496320131 58.7621695745 265.1745867324
198.9339132663 115.0341564471 217.7498980728
226.0728480859 56.0442822204 270.6023980430
207.7020086683 112.3779594936 220.1594745741
220.5378727524 54.1684038170 250.0017929656
225.2032583759 70.0546136096 229.9612717990
199.3528964759 155.2668452135 221.0340217564
197.6270521484 154.6026835833 217.9752184393
223.2903054417 97.1904400142 219.9946516159
210.0825220666 154.2642187262 229.2726072536
218.7649215179 159.6964348628 210.5062619214
200.9071970526 107.8382098223 214.7265156788
220.1786390672 62.5305083415 272.0434286717
219.2142092418 61.2566749895 260.4036549754
211.9097699129 112.3537949530 216.4039657074
221.0165026020 58.1170996597 252.9512958774
210.4005710008 105.8176804829 224.8814416549
229.5576854101 88.3954377432 223.2249870171
228.4174572773 76.5225432368 222.5838879926
206.6598394300 129.6791263763 221.9539430211
221.6533890973 160.5810498398 211.3588000332
207.8754845235 116.9728199801 222.3333844690
222.4021906326 64.5773059668 245.7773351706
224.2656897275 69.3511964261 233.4591004357
202.5751639809 135.0569395761 225.3729513242
218.2401565215 160.4372693894 213.5141712968
220.0765425792 58.7917452319 262.7619359754
199.5892113296 152.4406437892 220.0402580886
216.8084957948 100.6449902647 223.9231137269
207.6720724443 111.4457599800 219.7041152540
213.9941657758 163.4151462898 215.8928651269
