195.7962484691 118.6924728643 257.5651591110
220.1459396048 103.7959239843 203.4029241599
216.6181086701 134.2563902047 241.1821439720
213.9597101291 82.7325896616 243.2427265977
220.8373627653 86.4971494257 222.1320422031
216.9992902887 112.0821334379 200.8297760151
223.8706213194 66.6067976627 252.3597950950
213.6224109815 135.6293919388 225.4245260140
213.1584294051 132.8996467538 203.7425949505
221.8333020778 96.5786242885 220.4774075104
198.2929996902 111.2864541801 249.5155732340
220.0873015323 88.2938014025 235.1960299545
216.1166111403 110.8342745888 203.5082549877
226.9235697097 85.6721551269 239.8728369143
222.1024598675 134.1794628586 237.5292095944
218.9375583705 93.4765254145 213.2503790868
217.7477310262 71.6400243676 246.1184053676
204.6863635890 128.4733308156 257.0919121349
212.8080905840 116.6872494526 201.2680688154
225.7598207337 100.0538049948 221.6488096856
211.1862933628 128.7310696450 253.4783751115
219.8484962268 136.6230107295 233.0625941768
228.1431995380 57.7816565421 248.9166956699
219.1270583113 78.8162509053 241.3448805934
221.1136068843 106.2105965331 208.2896557062
211.1339623694 111.4312387496 193.0323537643
220.5007725178 122.5505457252 248.8600612030
219.3281391894 136.8074861405 217.8426541020
221.2615556744 89.6140315595 237.5578743053
195.9512908376 111.3557044432 254.1702817958
222.1078935979 90.3285541925 237.3584669010
222.0252679706 67.2177941939 248.6038224048
215.3943593987 98.2648510109 221.4173092445
217.2634288244 94.6276205101 216.3519253705
217.6038657359 131.2781590961 220.9509739400
213.7840545113 85.1282067469 243.2665025657
225.4121891605 75.4498570848 249.1043717191
215.9303059195 101.8984458967 213.7612042462
210.6952361307 128.4297686889 208.0627710317
224.9737598922 90.6408606864 231.9649142489
214.4068673340 114.2858105211 202.4734512457
214.8130842727 132.7190291608 242.7236187459
201.2542441429 116.8011252742 259.5046407376
195.3916154799 114.6784166326 240.6466154149
197.9523112366 111.6106616827 257.0954820051
220.9401579286 105.5521361809 208.8716158431
224.2227849852 89.4347173946 233.8514995087
217.0303152646 133.6927131142 226.7433532378
214.7638269222 122.9413211184 199.4159076564
216.1319222830 124.6057214162 251.7885395213
222.6669987836 126.9440766813 217.8326280621
228.0897046271 87.0773377630 222.5810521083
216.2845112374 133.7562740309 228.5069276865
216.4799297194 106.9584130531 208.4610847049
216.3222420375 83.5369438827 240.0135764942
226.5622824760 87.0793379829 239.3172647669
228.6478074132 53.6870475396 247.8170767341
214.3465610096 132.0310586471 208.1253492035
210.7354948475 123.1181366983 245.1426585126
212.6362598123 111.0698949984 203.8516595820
201.5685626522 112.8255490460 252.4259882070
224.5204488177 90.4395469641 216.3721038468
204.0691180806 126.8724905609 255.9441800494
219.1933779388 98.0387214841 214.8488060147
216.2529245218 78.6977851618 245.3767187166
208.2444452374 113.3928044909 195.2333657442
201.7923005967 113.0899163186 255.1642148097
226.4107714758 69.0083974487 248.2984319349
214.0210923361 94.2802974324 217.2628347241
220.9538225284 84.8559345674 225.2144353319
222.7479407210 69.0476072421 256.2953880096
215.8379180727 132.0567336204 245.4173859926
215.5819866446 130.3180979271 209.6390099224
223.7213279846 68.8214910597 248.1247844359
211.6035521571 126.6002300982 204.2648895615
219.8185479308 124.9966374160 251.6945546104
210.8930219685 107.8816870592 199.3962115557
211.9666014137 129.1293696942 204.6042328878
212.1385677670 130.2767330449 208.3529372251
212.7453220174 133.7669234595 225.2048992497
218.8333716975 83.9404446293 233.0969052040
212.4243692452 129.2840055389 248.9239881979
209.9798771645 105.9185395428 201.0330045405
219.6109438039 80.6441691759 244.8544293685
214.4593269672 133.8180362703 219.6054372958
218.3952521197 100.9433488558 208.5785928352
195.7445530727 116.0880617551 244.9157913242
220.7712315125 57.4897298245 246.7972613349
225.5702189729 106.7414121848 206.9197670372
227.6933522564 94.6795351386 220.6220605364
214.5571480895 132.1033061687 216.2871623632
220.1589477939 85.4385677430 241.2325312819
208.9842013671 120.1955241433 205.5499978289
228.0096735791 54.1751183422 244.5493460708
203.5732099406 125.7535124581 249.8190736047
191.6774785894 119.8003724971 242.9713319898
209.1592277743 125.1572304932 256.9090071911
220.4279344923 105.0457586646 201.1909039270
218.8677584592 122.5274897427 248.5885652123
220.6833491942 83.6718283665 238.3670156716
227.9013929842 88.9714409001 225.6665597581
213.9806826108 128.7878766309 240.2795311417
215.4788993583 103.7132725178 202.4628204692
199.0973700859 110.2319985677 255.5825942290
198.8572109030 115.5363762348 257.6001186965
223.0715264360 100.2172681170 217.8829082946
219.1933779388 98.0387214841 214.8488060147
224.3408258493 69.9430619941 245.8741069843
201.4629432043 120.3204244361 252.8417992291
226.4918722780 91.8041122183 230.4202655737
228.8148361028 89.5630129035 232.4380864593
221.0425992404 131.0986408951 216.0204041968
211.1583025884 117.5174671615 204.0373611985
201.7330395978 119.5059816751 262.2643569442
220.3424080181 122.9562221997 252.5001463015
211.7984292103 131.9383105676 245.1263476441
227.0818877241 87.9833907890 222.2540628228
220.4200908906 84.3058010756 247.2468377430
201.0956983719 125.8936430791 255.2742281132
223.5947915185 105.7668554677 199.7424971375
224.2811661810 69.4509232956 248.5072420716
223.3911867768 138.8063283866 219.8728373278
221.2176607542 62.8941060788 243.6146665250
219.5516106693 109.4009218929 205.8076496235
224.3159419286 78.0169746030 242.2681182470
198.2929996902 111.2864541801 249.5155732340
212.0494861290 132.4801448974 220.9245268794
225.7675510740 85.7109582802 225.7518538026
223.8274664059 88.8096270432 236.4078069294
230.1148818953 92.8833619236 223.9817252541
220.1248960376 82.7576331888 230.5612087163
220.2503931549 134.3072816479 242.1132821095
217.7609118434 122.0135131155 256.2415151398
215.1139712554 132.0341618956 233.4403962018
221.5658685904 87.8578515289 231.2454153801
212.5510529526 106.1786666794 198.1738533965
197.2309506449 111.7904756209 251.5586674347
215.4076387937 133.2856946899 242.5790905545
215.0384878603 131.2917582044 209.5395097806
219.4910016780 87.5190307411 222.7027030571
217.2539084019 93.8067036113 220.4063982482
216.6181086701 134.2563902047 241.1821439720
210.5940842578 135.3128892861 227.8619064205
215.5455381998 109.1057781783 205.1316393481
217.2886014881 75.0869180813 244.0206053814
226.7008926817 70.2206058616 256.4951123391
224.0893846607 105.5446708482 199.5771376233
228.8440052707 86.9647970221 232.4644233065
210.6921465070 125.2097362199 216.6957117465
202.1730547562 116.1003267109 260.0610890858
218.3479886342 88.1457876276 224.3520930579
209.5114940966 135.6261327209 225.9128814136
217.3748472501 128.8068624001 243.7859638162
217.6416848440 110.1244577794 203.8884218746
206.0431036252 125.7034103794 252.0570688935
207.9399857711 134.9114226263 232.6073983798
209.3415283344 129.1320670237 252.1126441663
228.1457971562 87.0863643882 221.9328759334
201.5015259875 119.2971061366 263.1104495210
219.5304183039 127.3165440116 248.9547605017
212.0169746751 133.8609468930 247.4635549166
218.2696649334 98.2638160071 215.6481001103
226.0795275959 64.0725945329 252.8223804055
197.2673935475 107.2735359296 252.7225384724
222.1542781019 133.0539366003 215.6007576313
212.1585848397 130.7161649286 233.3587489788
218.4632537562 97.5863994342 215.2323928020
208.2641826908 111.3264774691 195.0525572448
220.1037749460 86.7247446317 230.4869310361
196.1660305313 110.5719721549 241.9661228594
213.3433140743 129.5176404125 220.9546573431
208.2484693475 119.1674557727 200.4580766173
224.6986473907 70.3244911053 243.0696306685
224.8380534427 54.3254616211 248.5858720657
210.7445087683 127.5864298458 217.0169602944
222.6734781736 137.8706194775 219.9119785856
205.2126144754 127.9444944599 254.3533541365
209.8681318056 136.2442201714 227.0801320002
225.1986316862 132.4947756977 239.0746354639
232.6578020542 86.9696973477 224.3587656379
220.8799530682 75.1842855426 243.3873570292
213.7615123996 122.4602217523 199.3866368423
216.8738811817 129.0457716376 242.1731357127
221.3501618636 133.3778557216 221.0335469907
218.5322416813 103.6210560567 206.1311164108
223.9815322464 82.5524419025 237.2782240631
222.6491725726 84.0326497235 244.8325715492
195.3766358296 115.6235261262 252.9437190547
196.5046848799 112.7909329666 255.1992718006
214.8661997485 137.4168271802 230.1681364164
195.3007910462 119.4304726640 252.9602398141
213.1587364967 123.9249615995 206.5429727782
225.0154969187 90.7871262901 221.2652107110
217.3626620380 77.4789686581 243.7027054774
226.5497041661 55.4758479031 243.7806311153
218.6595624358 136.2402575106 228.7098821952
198.7574259516 118.6848761888 260.9042014596
211.5473399787 125.1048400581 202.3910866875
214.1875707614 115.9951272287 200.6917887050
222.7140123541 68.2910220638 253.6062319309
214.4593269672 133.8180362703 219.6054372958
217.1953313256 129.8168004678 242.4039249936
220.7182641170 130.3883331687 215.7007665513
220.4806163093 87.6866853427 238.5164270958
218.4769992610 95.9405004656 219.9115223236
211.8849636291 135.2950723547 206.2730146721
209.9798771645 105.9185395428 201.0330045405
229.3317263815 72.7685060995 245.5277917558
196.5740283834 113.7184650203 243.4196241711
215.7582923514 133.7462225150 240.3783416875
227.7608182882 94.3554404453 222.7022935701
222.1685759961 100.2345721471 216.2675538247
206.5214280100 124.2261428081 204.3681811313
225.9371071976 105.8171110076 205.0903557500
217.8997404620 137.9756523778 227.3352954808
219.1939235464 110.5166813546 204.7372793728
220.8332568484 109.7302499607 205.0877378809
212.6088038333 124.1672298911 201.8042580223
222.8155267097 90.4315511214 220.5672911819
218.4104752788 130.3531087494 220.8992257422
215.2062118118 115.1544765978 200.4900950001
221.7392115765 72.6725747159 245.7338892787
202.3644598667 130.1482574837 253.4663312993
220.2644304509 140.3602068378 220.1466319103
227.1560622737 48.9692354458 242.8949567270
221.1193748103 82.9730303434 233.1747754567
226.8697315462 69.3580637004 256.9995501944
217.1455863165 72.5158089212 248.1527684316
214.6457211315 96.2717807027 218.3653387090
213.3797561807 132.2156874294 243.4037001677
218.4791630180 128.9160402586 217.8689542893
202.4213419286 130.4334677881 252.3102997985
211.7195247659 137.2856866610 236.2073429482
222.3766002905 127.1522253344 218.4658007188
217.8444605068 132.3052351352 215.2112551787
193.9154493651 116.4841979462 251.5419199518
222.5029478467 92.8305094261 219.6938716057
223.7544878724 90.7623843978 240.6364657043
224.0399171035 79.5982077782 245.4317753394
214.7369713842 94.1393052533 214.8238214614
220.4279344923 105.0457586646 201.1909039270
214.8758591539 126.4571179844 209.7933359722
214.1026872241 132.2188292201 217.1748793963
204.5601552054 122.4881927019 253.3137283058
226.2060695328 86.7201858082 225.4779205983
191.2888492259 111.1524897556 254.5486077849
197.5471686073 119.5429037299 257.2841403666
213.4074589727 95.2959280213 214.1751284963
211.5248310705 128.1153707297 244.3907591342
212.0267839411 135.9579317591 232.1351352157
229.4858819884 71.2239196904 244.8148921261
198.8698697051 110.9014352723 255.9801236871
215.2697984123 76.8252897627 244.7175661280
220.5512464336 85.9278856949 246.3021125106
189.1300076571 114.1759446093 242.6795304549
214.8693693038 133.4377305224 226.3942256142
224.8295129246 74.8582988732 246.4042498983
225.8017544919 72.9528183953 251.0089518391
220.8032914957 58.2045755857 249.3380578143
219.4405880464 106.6999825923 202.1834256234
221.8648145376 68.6282278570 245.2750654147
225.7661699242 68.1029588812 253.9609601979
214.7986266485 133.0736462634 207.6130523733
208.0287908061 124.4747919293 215.4782970762
230.4119238250 88.0471083907 223.8786401870
226.7494157582 86.3339201440 227.5904603366
209.7145268060 118.2918978498 198.3617470846
228.0225405435 70.2981553710 243.9699400619
224.6846935586 86.1217780905 244.1434179425
214.0199400268 100.6770107627 212.1946493179
195.8243330228 118.2541374611 253.4560763731
216.5861464618 121.1832344310 196.9434980588
210.9404728298 123.9489889453 201.9842008608
210.5022782889 104.7076168271 201.5758328575
213.4737699284 81.7306804320 242.3516666957
211.7267091848 123.5325115679 245.9966119970
208.4631481142 117.9952485774 203.2772145758
222.7248612053 109.4206011591 201.1074415755
218.8333716975 83.9404446293 233.0969052040
220.1227418751 81.6103811994 240.0570571021
209.2409652021 133.8543213486 225.2427549842
222.6729445139 70.8996814827 251.0986174181
218.3500653428 74.1493079143 243.4337767162
219.3687632889 82.5384901959 240.0362395588
209.7945528794 125.1682368728 257.3914080057
228.7042492090 54.1618093525 245.7919286928
213.5276271790 130.4445442550 204.0488031194
190.6887430627 108.5456981518 245.1027810047
218.2804929124 128.2573008003 245.2606425289
210.7070969698 114.8544882389 197.9203606769
217.9253745325 102.4652049440 205.7242305842
222.3316105109 127.1825108578 216.5285923626
214.7544207119 128.9204652203 221.0027143222
221.6215153729 59.7621586040 243.2072115005
223.0491671361 57.1271519301 249.8181914541
228.1413721756 91.1585221471 218.8750059220
223.8365564137 83.8569062862 235.4394780089
215.7693689753 133.3784419916 242.3145476076
215.5819866446 130.3180979271 209.6390099224
219.3239652715 136.7605139403 225.3549090139
220.4102857972 100.6022033718 218.6407471499
192.9520583085 109.9241415370 246.0344321149
224.4588891943 90.0116537912 234.9023353486
227.7092074589 48.9106341022 247.7237199555
228.6913612149 95.7643716161 220.7670756800
204.7990750385 127.5039104768 253.1281493987
196.5360553032 117.8820622519 253.1102086461
226.7518435995 85.9435472771 236.2253846219
226.5330749609 92.5137425665 225.7612957503
211.2395088408 132.9013162176 204.7075372547
216.3494708695 129.7150267249 211.0621456023
221.8719660690 100.9178000458 218.5566004709
210.8676342013 128.2865165867 210.3052721937
223.6335076770 69.0046906260 244.6710336914
221.8648145376 68.6282278570 245.2750654147
229.4745030273 91.7644307071 220.0679416432
224.9660250127 50.6037428077 247.3150832444
216.5289905190 131.7681447576 244.5839120568
218.8076084479 99.0511648463 211.1201514096
219.7966808410 131.0325681402 216.2235645612
212.0857499719 135.1796676865 236.5546059068
223.4612535700 90.2792336647 227.3893075478
212.8552103502 126.5626963151 213.2247179127
190.9331529975 112.5454708258 242.3079912741
216.7188544030 124.2284335894 253.6074182569
214.7501710724 133.2822859417 231.3913017263
221.6287205126 123.7147189962 248.4009939451
221.4609599189 71.7601753317 245.6825204393
195.6813408640 117.6245691061 255.2135754661
194.6898486246 114.4510982939 246.3073911895
218.0118477125 102.4462436990 215.8033943460
226.5123798530 64.1890342445 245.1981638591
201.9272143189 120.4011378293 263.9019955056
223.6816007341 49.6095134906 244.6043516821
213.8539431338 134.7944890409 237.4799487548
215.6304984960 124.7516970303 204.0461756874
224.5290919961 85.1248872030 227.3720022500
198.8698697051 110.9014352723 255.9801236871
229.3462789571 54.5519583753 250.3785306423
227.0994838140 93.4685881488 223.7732902632
219.5516106693 109.4009218929 205.8076496235
214.5408845531 113.4633315694 198.6998715865
221.5340141779 86.0744114546 223.2664133799
222.6874131039 85.2112559696 227.1113831534
228.6730771763 59.9502104946 246.1814836308
227.7407136019 62.3964163827 251.4064803639
217.6597645772 80.8306870432 246.5000544475
226.8207356978 90.3345810182 227.2694719561
223.8706213194 66.6067976627 252.3597950950
216.1764330240 134.3931438082 219.3160222496
218.4104752788 130.3531087494 220.8992257422
219.7773939848 111.1507418064 203.2895831116
194.6522764096 111.0827169744 240.8588044793
213.7379918531 123.3869974547 196.0564752214
219.6829532832 53.9311721624 243.9077549273
222.8971466994 97.4134283045 222.1964245198
221.4680772318 68.7090379833 246.5791993508
200.7344932708 115.1591797663 256.1405120767
220.6330303095 51.7347252031 246.2457483157
224.8368657443 90.0174722367 223.5558989881
220.1827397667 75.6260164996 242.0957100403
220.8227718933 87.2949719593 245.8848356464
224.1848695431 88.5894279622 230.8470616731
220.2181525729 87.6797540181 238.6564424312
222.2441368726 88.3940623618 232.6483426537
201.2542441429 116.8011252742 259.5046407376
202.0230006285 127.7383886544 255.8744984494
220.4370022844 122.2381021212 251.5078231889
224.2892572894 89.9400937080 218.8465981525
229.1222990793 54.3336650467 248.8031739261
231.0551171847 100.1390645672 219.0378912964
216.0606211228 124.7103714045 244.1306848890
206.9244401299 125.6122088863 206.7549427733
219.8253235650 140.0743825012 219.0249557482
201.2595316037 110.4364013308 259.3369408227
209.3829757307 138.5525458409 234.3266873630
217.4087022773 132.5920105976 242.6650061156
207.7130800957 124.7519679164 202.7485171604
194.2992102141 115.3874095593 240.3934023666
216.6817343394 73.9310669686 243.6137195547
201.3974366002 122.5324614178 255.6132314031
216.9992902887 112.0821334379 200.8297760151
199.0650996657 119.7651907185 256.5578787642
212.5153724422 130.1631662223 238.8204711260
211.4885442572 101.7120802724 204.7840411224
222.9242100639 81.6958236014 245.9023889948
216.0902367780 134.7594379437 239.6795604255
189.8855485517 113.2890548855 245.0060119625
215.2226608093 109.2819433123 204.8596183877
214.0898434513 138.6427816754 226.4130456307
204.8710563116 129.0462663302 202.3001642257
191.2888492259 111.1524897556 254.5486077849
212.1585848397 130.7161649286 233.3587489788
210.1143211405 122.1135846713 254.5895038880
208.6642769430 127.0850702723 256.1478620108
224.3816602763 56.7065370243 243.9093058779
218.7587208886 96.5469743025 215.9422929412
226.4918722780 91.8041122183 230.4202655737
203.4284870333 130.4141641085 254.1120392076
214.5796132693 127.7742890085 215.7683329047
211.7245614364 137.8262581546 233.4265336134
226.2020204115 97.0903545568 217.4999532359
227.4307039087 74.7989969501 245.4230953986
230.4873284625 48.0164193116 247.0458275837
214.4715792326 133.2117245679 240.2253665065
213.9431066161 125.6781893349 208.2242001447
216.1226249359 131.0718585436 207.6428624206
219.6305622671 99.0457196693 211.2459687055
216.2015900466 103.1285671001 207.0768235559
195.5428338581 107.4446584768 254.7478246974
223.3728317838 85.9094939052 246.1781813265
190.9924901472 113.6768347398 245.8209278564
218.1866074346 123.1175426788 257.0330601396
202.3218615699 121.3111069211 253.3944679912
211.8720001707 132.9250506495 250.2788328860
226.9248199932 61.2500174067 245.4324078396
212.0857499719 135.1796676865 236.5546059068
209.5482214759 134.1490960586 226.2877143975
219.1522335864 84.7121465966 247.5557443839
222.2676882887 82.9748650762 234.0437214842
227.6400647268 94.7857430885 217.7627734547
217.8226706745 87.3007897953 222.8826458955
218.4475123077 106.4229951169 210.0286905352
222.8359674109 78.2554583898 245.5791129264
218.6144437743 129.7849186665 215.1657845153
218.4769992610 95.9405004656 219.9115223236
214.2755931143 110.2834636044 204.2021180901
223.2966284971 82.8742395229 243.6406273947
207.0927918628 119.7038144384 201.9537645214
223.2425439550 62.9063894684 242.8683755247
193.6830804482 111.2045147659 248.9419939701
228.0322677840 62.8165416874 244.8411692140
214.4714777476 128.9535805187 217.9489189593
223.1820470649 73.1993941434 243.3298533869
200.7011155179 125.3477309333 252.9233801139
213.3221868442 132.1614290474 215.9825474428
229.4095894372 90.5805138606 227.5115037834
211.3080345857 112.2027338536 191.6669151470
218.1843643980 94.2738163489 217.4695735744
225.7029438105 90.3015035345 229.8913101818
214.8583911848 136.1496631845 222.0911294860
212.8323707070 126.9904438650 211.1807680269
216.2868998754 105.0472604978 202.4004431910
216.3914315570 120.9614751516 197.5220112138
193.6199607329 111.8106251038 247.6206229753
224.7092260420 68.6459496102 243.4150549710
227.2727559522 72.4226743027 254.1677563875
226.2051802729 86.6414882225 230.0142012020
219.3092376174 54.5625567756 245.3949633459
226.8992360634 49.7856050920 247.3809220648
225.0381417153 108.1668194149 200.7853028779
221.1174766955 132.6204202936 222.1874682462
221.4477460326 81.1510235469 245.6940313474
212.7696087271 121.3823102066 201.8477341586
225.9278993047 58.4754857044 248.4841177332
219.0579126149 110.0200191776 205.0622564529
200.7011155179 125.3477309333 252.9233801139
222.9938385392 128.7530677185 219.6135337891
228.4253519430 89.7729716093 224.9551508124
220.4060661832 84.9102381837 223.7254806378
215.0560410857 74.5968444992 246.0650742462
224.3414903026 108.5895573861 199.6509317010
223.4391848781 71.0733233388 245.7646307102
222.4424409663 86.9889957465 230.9624461103
220.7662191968 96.0371721406 219.2501715283
226.3207114914 79.2852353405 243.4257218506
226.8868144048 62.1814900880 246.0422330821
223.1644380278 132.4409600787 217.2456049606
225.2963747492 97.6399161565 216.0252745232
213.5119113614 107.2731126494 197.8892267375
223.9218493655 131.7295714275 240.2092626793
201.5685238686 121.9182323785 262.6034556848
207.8986422769 122.6019583016 202.9776204862
214.1437350071 100.9605257865 211.5468386680
220.5405823275 68.3434680382 248.9287772235
221.1392546880 122.2982458288 250.2572109311
226.3455018831 86.8175045516 228.9902325157
224.3558332686 70.0117947310 242.9305802665
202.4217490954 122.8827966384 255.9586253514
219.0867684013 81.2886555156 242.2482597916
217.9129407489 104.2833737065 217.4870767986
216.0606211228 124.7103714045 244.1306848890
219.9809258578 96.2035805917 211.0220012929
216.4606726138 137.5548140141 235.8287211745
225.8658761914 87.6626808938 223.9143951575
214.8009876305 130.4621723711 238.5739462716
220.2644304509 140.3602068378 220.1466319103
220.8452481796 71.4668896218 246.5126845224
222.7759887596 84.5095040311 243.5350548882
198.7379254149 114.1323660651 259.0521831829
215.1801163031 130.0244947836 221.7942593220
201.3954000696 117.9610134077 253.3052650920
211.1741788415 133.0361962454 225.3085856159
218.7131723222 109.0412839072 200.4352655679
213.4722741533 117.6350274366 201.5194213488
226.2012644640 87.4242467172 225.2184308569
225.8818588017 73.6205045222 249.8266198823
227.5393558652 68.3235741868 250.1361065551
228.1252795385 74.7856879603 246.6656780206
227.8619046622 94.4910419775 220.4163544624
225.4854953042 67.7361732666 253.8122670844
215.2105631760 81.5816481776 240.4332230598
216.6164233652 108.1727547843 206.1633263912
210.8098566290 123.8409898452 255.2029887276
211.5552660669 125.0192831272 207.1327252064
222.5516188434 91.6077810405 225.4804667841
211.5826552802 112.7113953124 191.5123141417
225.1191184387 58.9464148591 249.6502810162
227.7855449612 87.1103977362 236.0365233696
223.1877385121 106.6749069680 199.4676777265
219.9990829126 126.6218446126 220.0892818426
233.3609259326 87.9797429097 222.1941396664
213.1563086368 123.7846159300 250.4283840366
220.9066614306 96.2178882447 215.6497160724
222.5004202804 134.5511468241 241.2063456261
219.4919224059 94.6076819962 214.6517353697
223.0373465200 83.0602749862 238.1167106003
204.8282403622 127.5588944252 203.7113272330
209.9638058465 112.9071376614 201.7300341309
220.5843790974 82.4309654988 232.3477323773
230.6045697220 88.1797697770 230.8267818047
211.0269765524 134.8470115728 230.5223936151
221.6529269065 99.0165978571 214.2434940689
211.6288287829 131.3652586933 243.6847198969
215.5131794914 137.0591797040 225.8072776911
213.3212709979 109.3734757699 198.1384620212
204.4200358693 128.3382063290 250.9358187608
218.2794197039 107.8680253504 206.6669272955
218.3876940811 133.1445445870 233.2954550308
226.9550642305 95.9232622662 222.4101582959
218.7418999428 104.1291779887 204.7648153035
202.1930906097 122.7303613308 252.4427668208
195.3916154799 114.6784166326 240.6466154149
231.4293681924 92.5898232337 222.6407523718
228.8686667740 63.5606148785 250.9473967286
217.3393398902 95.8430515087 221.9375144266
206.4350224563 119.8610995037 255.9202459879
207.5618117411 125.3602382614 252.0414004167
209.9490685383 110.5782256696 196.3136401794
224.6459984991 62.1104067341 251.0437957369
213.7986391828 131.2790185918 218.1691829319
194.2654680302 112.2702159130 254.5446521875
206.9133495452 126.2346415363 256.4288817401
215.8375126025 123.7973242034 197.4383031437
225.0923584276 106.6092278378 201.8379796111
195.6475746775 105.7757636788 252.1172619787
219.8488836319 89.9598491653 231.1220028429
222.2397367583 86.8825551690 235.8960620159
216.6416789323 136.2744036107 219.5983694576
212.2105277043 126.2123466721 255.8185503557
213.6614944929 135.0676505018 225.6218777790
226.4498347897 90.8856701171 229.3724796020
221.0154599057 138.8751910010 221.8161386221
206.7454823762 123.5952827436 257.7297004032
219.5977321753 99.3031659740 209.7500612207
223.3089636725 55.7497297879 242.7937186507
192.9946962042 114.8957621225 240.0932081700
218.1699179569 132.4390167289 215.5619392708
211.0279100237 138.2489961256 232.2921624366
220.0051353330 95.1715767539 217.1545908291
219.3202450945 136.9942159885 224.0705574449
229.5379278457 48.3007823650 245.5885681732
224.8116535580 62.3495029812 242.5055482655
226.7518435995 85.9435472771 236.2253846219
217.8226706745 87.3007897953 222.8826458955
225.7166303059 107.1091746514 200.9676979012
223.3355146935 77.0296020831 247.2100825907
222.7383969032 136.6929941648 220.6901846647
216.5788666986 103.3723316658 206.8813308565
224.3220764862 88.1721866178 241.7345601279
223.5528398498 84.1701683538 223.9232750895
209.1431874563 132.6481538407 230.2165789211
226.5497041661 55.4758479031 243.7806311153
216.2702300297 99.8274370684 208.1546472921
214.9201528753 133.2457137354 248.1399683212
218.9007028790 140.1223077262 218.2739120135
208.6366712800 113.8488610723 198.2526609406
212.5762415231 130.7365263911 208.4444463694
199.3497674331 111.3506658490 253.6026907343
219.8059224408 86.6980255047 246.3023638408
218.0369417366 108.5053328835 197.2623852462
210.8098566290 123.8409898452 255.2029887276
227.4065037421 72.2052629178 250.5493281139
225.8423274536 54.8755789472 244.0866402479
190.8726645446 113.5947959876 240.6448609695
229.6588912972 49.3595339445 243.7469361852
212.7380811373 121.4271281526 251.8945257005
217.0058528625 82.4230926462 241.2346470669
215.2795968177 125.7394122683 206.2440515076
205.9582903521 125.7323078566 256.6840616984
225.8354517154 83.9490006015 232.9802343485
223.1451364115 135.3653206012 240.4001545043
215.5509379591 98.6172939963 214.8019814028
210.7865563143 117.1642962127 198.7534959878
213.8911912663 129.8354481455 234.5780893869
188.8455496938 110.5850162202 242.9966677103
224.2592126218 104.7144784276 202.7370875414
223.0982953658 128.5309879233 216.2391896273
214.9756339135 122.2746248864 249.1689713434
190.5756206111 114.5792942274 240.3541265671
213.5407830011 130.8109261775 221.4438008138
214.7544207119 128.9204652203 221.0027143222
199.2933379742 108.5786369473 258.2782377880
217.8993927714 106.6343275835 198.9769656407
225.4104796940 99.2036314741 219.9494001445
214.3604965022 107.2305732849 206.3539544011
224.3408258493 69.9430619941 245.8741069843
229.2277131338 86.1564283294 221.3527889262
206.9179737737 130.9370732768 207.2492966205
221.5047661594 53.9095886689 243.6566470584
216.7348982229 137.6921712097 217.3065676470
232.6654764415 87.6312561661 221.0913270417
219.4681682498 75.5804663144 243.6511719431
221.3542195792 102.7957611794 203.3061684879
215.2516886360 74.6027140036 244.5867480016
192.3659240120 110.2537419284 243.2515966283
211.0487878778 127.8938805191 248.1528834767
217.8810729491 137.0147295609 230.1538046269
232.7422830976 89.2533417780 220.3392596603
226.6438507744 71.2206885523 248.1787242207
217.3164539339 131.1741231289 205.5168243607
221.3493497343 90.2382176893 241.6700555036
222.1419256875 94.6694778327 215.7996849044
214.3211515771 122.3081803272 194.5068884427
223.9370710418 84.9346534648 227.1284890617
202.7528712276 112.1068967324 254.3544230248
227.9074482716 98.1064503640 223.4837407294
196.6004497896 108.4298115330 247.2825171460
222.4358766086 102.1502066843 218.3653182573
223.0373465200 83.0602749862 238.1167106003
193.8010481152 110.7764691803 241.0116945211
227.9899438995 51.5390166023 250.1930831520
229.4832724779 71.5684957151 244.9013510565
222.3925831423 62.0330603111 242.7664502851
222.0494156487 96.3165249861 215.6747039124
215.0270778718 100.6577092125 213.9963897118
219.1649737535 79.6615403378 244.3493184290
191.3230129101 110.1907006110 246.2821753629
194.5792091582 113.2706922989 249.9233965924
227.6933522564 94.6795351386 220.6220605364
204.8664518155 127.6784871121 251.9894516835
228.6517033274 54.5652673651 249.1359480203
215.4776537379 126.2499323615 209.2567628362
223.6999746965 60.3942072761 242.9251948310
227.2727559522 72.4226743027 254.1677563875
221.8041741018 97.8290360527 220.5754535861
228.0130456110 56.4016122225 244.6255831794
210.5982255402 120.3407429283 194.7904328835
208.8708756429 125.7390970840 212.2480854344
220.3103389973 137.5739824750 240.1498639815
223.0501534546 85.1825023668 242.6681738464
230.7575711019 100.5588794902 218.3978641723
191.6198402797 119.5810193092 244.7339339193
219.0467167554 73.7265699432 244.5681478930
191.6307860693 118.8706009315 242.1875073492
201.4434140442 124.5626507937 250.6414701948
213.3467794918 131.7466906725 239.3779031712
213.7840545113 85.1282067469 243.2665025657
215.4367968411 119.1901955945 200.0952905283
220.1246307390 70.3930739623 246.4160959063
210.4502562083 108.5986537335 202.3670496556
191.6774785894 119.8003724971 242.9713319898
214.7960045548 132.0496760946 211.7296306824
209.0835329032 136.5676725344 225.6517271799
212.9143051348 133.2917898628 246.7360466743
226.6925764789 54.4334282890 243.6662259295
198.3153088402 110.2685156518 259.2674903006
217.4507210512 98.6198701058 216.8834755003
217.5056372988 133.9422542533 226.1599456930
225.3418791247 87.4876659210 241.3492302986
222.5609630587 87.0715224105 231.1449104260
209.7145268060 118.2918978498 198.3617470846
191.7900459004 107.4898064140 251.8003570920
225.5832172551 58.7018694278 244.5493718598
215.3120794223 107.2123359443 208.0562909174
224.5751038627 89.3366282561 230.0909298978
218.8333716975 83.9404446293 233.0969052040
209.4082045021 125.6646340231 202.9847555076
208.5020085631 126.2545766003 203.2774725523
207.8986422769 122.6019583016 202.9776204862
233.7088862409 88.2046790983 223.4831818506
226.1432452844 67.9945008248 254.9901690519
213.7615123996 122.4602217523 199.3866368423
211.5335649791 129.5506686485 205.5735014596
230.8485360166 96.0696633492 218.0213601866
208.2641826908 111.3264774691 195.0525572448
217.8226706745 87.3007897953 222.8826458955
225.7775206329 87.0271037366 240.3750730361
227.4261979633 53.5410326655 245.9970587093
211.7104236723 125.2969505842 214.8823225138
210.4808084569 119.3258113535 197.1173979842
211.9409537143 135.7528009196 204.7354206883
201.3835512100 113.1121165054 257.6034216664
208.3242802236 134.4934559355 230.8138928095
229.0259362311 94.1514128377 222.8327145577
215.2516886360 74.6027140036 244.5867480016
195.7641786375 117.9776166201 255.0243718050
216.4541768002 92.7343477314 216.5453085245
219.4256771796 122.9729943591 252.7672470257
200.8531320532 108.0584764185 256.4570624619
210.9404728298 123.9489889453 201.9842008608
229.6424767032 88.0973667821 232.5401231109
205.9039587271 127.2001534095 202.4553485127
222.6731592992 108.3713164404 199.8308745396
217.0723122551 120.8782523428 199.4296343659
209.8675947918 121.9501623217 253.3526875822
223.1358638719 63.2478202206 250.3676416171
213.9738310513 135.7908856918 225.0024733479
215.5901508394 124.9873500971 205.2237353230
228.6901347687 100.3435615926 218.0834629581
216.1761295033 132.0869941894 215.3911980172
194.8670250255 116.4659627351 253.2442574531
224.1507187596 130.0253242130 218.1449581573
226.9956042320 69.9947425576 243.4649108709
219.3413715750 55.6274810121 247.0609994493
210.5406662275 130.1690693953 247.3229454405
212.0609458212 131.7320524982 208.3718740579
202.3644598667 130.1482574837 253.4663312993
218.3391955543 103.2199418978 215.1159062510
209.3415283344 129.1320670237 252.1126441663
214.9939589809 118.9365642381 201.8249474717
226.7082643091 73.7319261965 248.4146806957
193.7894668371 112.2696475915 249.9975347046
214.7960045548 132.0496760946 211.7296306824
211.9470470349 132.2106702054 234.8748638907
196.1259579526 115.2369730245 251.4493097904
223.0995888678 87.4225910291 229.8069000664
202.3644598667 130.1482574837 253.4663312993
212.2613804135 126.8432824617 204.3068069580
213.9504143362 122.1406319779 195.0465766698
224.7884923421 86.0524352682 240.3202393090
226.2548019091 87.5658694003 239.7234299013
216.6604199504 113.8699582964 199.6861381005
209.5114940966 135.6261327209 225.9128814136
220.2826110832 67.7989428157 250.6384918904
214.1473962685 132.0723068877 243.8336402496
214.6338779429 131.7728627134 245.7853867027
215.2248285375 85.8549071285 241.6898671420
218.8519727579 130.3530165303 239.8240064995
222.7479407210 69.0476072421 256.2953880096
195.3498908188 105.2944314216 253.5029687246
214.9696989258 73.3529045484 246.7987518573
199.8180161710 120.6239720218 254.8763231706
218.0395286985 101.5413483637 207.0586816038
218.7854452018 128.5123055698 220.5303683343
210.6810091316 113.8416314322 191.4028542449
195.0380897962 109.4077967546 242.4251891326
228.2806249642 86.6584181400 234.3076545216
222.9978901688 61.2078252349 242.6165744540
212.9792288954 134.8727593903 224.9118401336
223.1537583224 59.7599473350 249.1937993237
214.7501710724 133.2822859417 231.3913017263
213.5414640086 132.1941394488 240.7226854176
208.6366712800 113.8488610723 198.2526609406
220.6210054096 107.1417376641 205.7667735458
213.8566132378 134.5927528838 248.8350084316
210.9089765272 126.6135390881 203.0223069396
216.5859002588 92.1482891514 219.5787908359
218.8999263214 131.0040816968 241.3055966312
222.8751529333 138.6615296007 221.7283590071
218.2613717263 85.7350085818 232.0323124918
225.5197692981 84.8603539497 240.7281804639
214.2229171465 108.2432396501 198.2479219181
221.1732007128 83.1219619956 234.2220633387
213.9568134171 104.1795733691 206.5142669250
225.4977877280 52.8875056855 246.3802645987
219.5506608614 132.9238211339 237.2426168195
216.2403888643 99.1842469957 219.3181474346
208.9538687001 114.6362879494 197.0445540115
225.9666814941 91.7667759271 231.5510636220
215.0130681218 130.4948081450 234.9801144871
217.3354807167 132.5066222200 233.9338285389
195.3916154799 114.6784166326 240.6466154149
225.8666111979 84.1767677323 232.9518479822
218.9038168541 135.5048436040 227.3748857884
189.7982473454 108.1031640214 244.3409070805
211.1741788415 133.0361962454 225.3085856159
212.8509226311 122.9386190742 195.2609792641
211.6410800683 121.7793542382 204.5845686838
224.8489666470 61.6907679672 251.1011384818
216.7861497894 124.1558354512 247.7731171358
222.7945598714 106.7844439777 207.9346954644
197.9418800881 110.8662454306 252.4841612860
218.8247411177 97.6850411149 221.3124197652
198.2448388981 118.8840220794 256.9478939684
220.7662191968 96.0371721406 219.2501715283
227.6933522564 94.6795351386 220.6220605364
214.8208206693 133.8697700674 228.5689451551
224.9737598922 90.6408606864 231.9649142489
207.1032044622 126.4525577899 215.1200381422
222.6850691099 102.5153753669 207.5335595893
217.2208616551 94.0828247969 216.2559057891
212.4845094856 121.5029295191 253.0789682604
218.7742722720 122.5027428543 249.3027825928
218.9216943525 85.0209019744 232.9520281751
197.9569860498 112.2050198484 260.0107359734
223.5656190090 52.0004352329 242.3366053371
222.7596594082 94.5117846494 220.3297644797
224.6790462536 73.4339712433 250.3590633594
223.3278357161 60.5314676641 247.8283443292
216.1777949904 122.9063577988 256.9429321739
207.9716905831 134.6181015688 233.4871884675
216.9935995142 110.5602110566 201.3859255395
217.2886014881 75.0869180813 244.0206053814
218.5539418230 105.0316475911 202.1800057955
227.7346096072 89.7104930332 227.4729361796
201.5008186696 114.3933006595 254.7432554340
221.9683483049 100.8028690390 211.1188940878
204.0905574848 118.0794312189 259.2806588336
222.4663212659 99.4204390839 215.5929637046
221.8648145376 68.6282278570 245.2750654147
214.9748409309 103.6023973925 201.1204985398
221.2891310075 58.4333733039 246.4470667933
222.6115812484 90.4733985985 238.8215451876
211.8450504244 127.1756728366 211.5798705834
214.3506743262 129.5087804556 236.3646130479
215.3563710560 77.0647990550 248.6755071947
222.2915109602 81.8925498049 240.2045827069
203.7113690347 124.8550243468 256.8474411831
220.0051353330 95.1715767539 217.1545908291
194.1168443307 112.1320267589 254.1077968624
206.2504255154 129.5861274831 202.4012405733
229.4561283233 99.4163373673 216.7483957237
205.1263755609 129.1805334512 256.2612215564
198.6658063141 123.7006256308 259.5676315401
229.6588912972 49.3595339445 243.7469361852
225.6159280186 84.6698256044 236.4070037714
226.4677650032 62.3248912583 251.3969911013
221.8129291094 58.2228524387 245.2340972397
216.9412109071 132.6924064164 224.3918447332
224.2687761942 105.5988700619 205.2702985886
216.7791770559 129.6564907619 242.0090713959
212.8449699554 114.7604466242 192.6450014617
226.2607278807 99.2442146008 219.4067455713
226.8488847774 86.0720797124 239.8018287417
190.7847074112 112.2874051452 245.4543657936
197.6178930209 120.7840907829 261.1375589868
206.6257035793 125.0818196116 206.2240981142
221.8312536625 100.2048581748 210.7075582381
220.6848213263 87.1830651616 222.2998901933
214.4322876881 122.6608905506 247.0564316052
218.7404095247 103.9955204492 205.0407084205
211.3156497480 117.4746820683 198.5759406954
227.5712830892 53.8404339254 247.4226984385
222.6146847247 87.8798481843 229.0442152190
216.6167821407 104.2176210983 209.8857686921
197.7019691185 114.8826404207 242.9605578979
209.5350853256 115.7722790478 200.1374208307
220.8294317080 131.5627629177 220.3127121800
213.8292640241 122.6427312382 246.0682210507
226.2051802729 86.6414882225 230.0142012020
198.0296338840 109.5774193783 248.6320623443
218.2680960699 125.5285925895 245.4638074778
197.0244177034 107.5527462634 252.8670759854
211.5474524293 125.7264151393 248.0553058345
211.5552660669 125.0192831272 207.1327252064
211.8110198063 131.4231918988 222.7951887408
214.5544589863 115.0708260515 198.8623774178
209.9193729672 106.9602837265 204.0979693250
223.0995888678 87.4225910291 229.8069000664
200.9178615906 121.6644794964 253.7870751219
228.1252795385 74.7856879603 246.6656780206
222.9020218852 106.2994910109 205.5796714833
192.8455614733 113.8437247562 252.8551517376
233.7088862409 88.2046790983 223.4831818506
204.8899561411 122.4950636564 253.0260989845
209.7686738270 136.5395189494 231.1990272644
198.6942869124 112.7162147153 252.4036358762
228.4921677633 73.8613867831 244.8362667335
217.9397180983 129.3264620610 245.6354182562
214.3504204226 123.4283783368 250.7647551025
190.5451208209 117.0057114401 244.3612494045
218.7811017305 74.2038656696 247.4871122692
228.0897046271 87.0773377630 222.5810521083
220.3511214453 135.3567297688 230.5563007608
228.7269615022 71.1381433888 253.3638076765
214.9512262591 97.4036419658 220.0267816242
201.2595316037 110.4364013308 259.3369408227
205.4487484284 127.2007713414 255.0207056598
218.4512349972 93.8222629794 211.3595221606
210.2339847052 132.2956597834 245.2037863550
210.6028229244 128.0970091931 254.9260713728
217.5645160223 126.2646915742 244.9190810860
216.6497293568 94.0545317364 220.6552291947
216.8273059777 126.0588484701 243.8412821536
202.3473773124 120.6445540934 261.0243018958
229.0561223225 57.8598600214 247.2908952727
204.4200358693 128.3382063290 250.9358187608
213.0947588285 132.6905987022 236.9883866058
216.6164233652 108.1727547843 206.1633263912
219.2279490554 89.8217814033 224.9420791380
212.9740970210 122.6613381424 246.2089039173
219.8558808012 52.6064084543 248.8725493631
219.0423110914 87.6623547987 231.0737597013
224.2564029545 85.7196853141 236.2332018219
195.4593815803 109.5635000324 253.9041045997
220.4763542278 134.8962937542 218.8415607159
213.9806826108 128.7878766309 240.2795311417
227.3959646934 48.6486968902 244.1191155744
226.9687281466 64.1635808358 245.5362093243
215.7977949923 98.3966793009 214.6352458354
220.4398180510 138.7627818457 217.4230075365
223.1153438288 61.0612737116 248.8232020166
216.3618125254 93.7288770581 213.0167334680
224.0387891152 101.5711726082 204.6587109520
218.6064469601 131.5424594912 241.2653645247
205.6585109181 122.8744584272 251.5241673455
213.9095025369 123.2527259894 205.9077487836
216.4606726138 137.5548140141 235.8287211745
225.0381417153 108.1668194149 200.7853028779
223.8542417717 66.6194626941 252.5101491271
215.9500731672 109.3972403954 199.2345809184
208.4250809813 123.7921512365 202.3255947304
226.8652941293 71.6057792470 250.3139117287
201.4629432043 120.3204244361 252.8417992291
215.8344148893 131.7814537474 243.3413294348
223.5575921558 66.2301504594 248.6173034720
214.4956077101 113.7064149529 195.4564972079
220.9505411761 140.0528163137 221.0379325429
208.3835007385 127.6258736004 254.2941142087
217.6038657359 131.2781590961 220.9509739400
222.3316105109 127.1825108578 216.5285923626
229.5631014065 85.9179941529 222.6568246257
209.2468271667 122.0545393510 255.2816082762
220.7033056678 99.0406849040 211.1666254961
217.3796498551 121.8441233515 196.4305056020
197.8220007619 111.3992916522 244.7280190839
230.4255813295 50.7080362349 243.4575170726
211.7267091848 123.5325115679 245.9966119970
227.0740467488 69.1173225373 246.0998852726
211.0269765524 134.8470115728 230.5223936151
214.7217762238 127.2896183698 251.4441492747
218.3457881475 79.3514640571 244.3618580660
208.3167609503 111.7537369595 197.4602433379
222.4986515659 76.6286365012 249.2348466099
193.1825996883 111.1137964788 249.5906488779
218.1164057634 81.5257261515 242.6353299198
217.8055696405 133.2722801235 216.7070942904
209.0835329032 136.5676725344 225.6517271799
196.5740283834 113.7184650203 243.4196241711
223.5947915185 105.7668554677 199.7424971375
220.8635190259 100.4479737773 214.6407936757
221.6147860710 84.5808465465 245.6070724002
229.5631014065 85.9179941529 222.6568246257
224.6492862376 107.1074300434 208.4035865447
220.2454113074 102.9850658753 212.2448480452
217.7351710710 134.4558882285 237.6450354991
234.3313103982 89.4461871133 224.1014701336
221.8129291094 58.2228524387 245.2340972397
203.6857994747 126.9511233804 250.4198616715
223.4182487437 105.2131364473 204.8246964889
215.2214910499 114.1830812257 199.4634571516
211.9629402887 102.8766335250 201.7531836049
223.4191583064 79.7679712098 246.6635423638
205.9039587271 127.2001534095 202.4553485127
227.2502726453 65.8153824792 250.2377394675
223.6380796512 134.6485957810 239.1803535230
218.3500653428 74.1493079143 243.4337767162
226.1637361295 60.3844220200 243.3368271404
205.4212536191 126.3729114916 252.4004595129
216.2851297854 130.6592056591 234.3303222254
211.1217188583 131.5877165829 204.8059539406
215.2857424462 129.0841961169 204.5963456310
228.0545145169 62.2358207801 244.1903745062
220.0498162874 111.0979307233 202.6011591366
216.8886375647 136.0282015770 241.8522704014
212.0890179730 137.7688856957 222.8692528075
231.5646944138 87.7828439098 220.4606639043
232.0471271222 52.5231828920 249.7473653165
212.0890179730 137.7688856957 222.8692528075
195.0946409421 114.3736914459 255.1557392875
205.8575276058 121.2522248505 201.8037956894
221.2533553015 125.1343471754 247.8288065443
227.1560622737 48.9692354458 242.8949567270
212.6896308006 123.2420391724 249.0911010907
220.3857625312 71.7935446992 244.7261690500
220.1007152180 123.9297438508 251.9833901824
215.2848097630 132.1876132274 250.4268548970
217.5436510984 133.5985409048 233.8564631039
196.4591969881 115.7248098517 240.7976315977
201.3954000696 117.9610134077 253.3052650920
217.5316408910 128.2248337222 208.6784879950
218.7311772200 88.5210389322 227.8444126628
223.9824411548 86.0616343828 245.3940302003
199.0973700859 110.2319985677 255.5825942290
220.7662191968 96.0371721406 219.2501715283
223.9699010367 89.9486025188 232.1875711487
205.7147743854 127.8046163331 206.4533705510
202.0655769939 112.5292182554 256.4296463715
218.7424505025 78.2881081549 249.1313188469
218.1699179569 132.4390167289 215.5619392708
211.3582375321 138.6928695169 235.6517708008
198.0421266983 117.6150618213 258.0452845620
221.1752469689 84.6050497496 230.1647150299
224.6896067101 91.3569500338 226.8138898918
222.2461684488 128.5509534799 220.8528706626
222.1854769612 60.9774109008 247.8130931884
210.6636619023 138.7061785067 234.4091881788
207.9029510861 111.4441237631 196.2439585794
222.9151654689 70.4756444178 244.8785717283
229.3155833376 101.1891313842 217.7071126118
225.0860865154 71.5445090251 255.9680742164
211.9637634490 139.4223206901 226.7179970220
209.1638520029 129.8596622338 207.7294220716
218.0918833448 127.5216059515 244.1520892947
196.5117282886 111.8178813855 244.9443662383
201.0993414583 127.0259400167 255.0191907549
202.7011478346 110.5701550353 257.5263073017
227.9865441482 86.1695286694 237.7758366385
214.8130842727 132.7190291608 242.7236187459
212.5318806766 134.5042677465 203.0550632989
227.3163941984 56.8243501936 243.4912120026
209.7145268060 118.2918978498 198.3617470846
227.7346096072 89.7104930332 227.4729361796
227.3826915935 50.5647426851 249.3699280012
215.6686318863 131.6138385911 248.9563685619
198.8572109030 115.5363762348 257.6001186965
192.1745801953 110.5580489517 242.8637931798
195.5825216431 110.3749681721 254.1493866108
210.6216222505 120.8625335893 196.6450149714
230.0360587629 50.6731058963 250.2627729406
211.4587402860 104.6070276972 206.0471257536
219.9888462403 133.5585284396 237.9435606243
222.2713674188 106.5635450917 205.4426793884
227.8465931758 93.4446093796 219.1724318518
215.3105721570 82.2375348031 243.1912686746
211.4998716888 119.2105068086 194.8998927803
200.2592624685 109.7888707755 254.9308480682
230.9903098030 86.4800398447 220.8253067993
211.9629402887 102.8766335250 201.7531836049
221.6986026601 137.3113977208 237.9366728077
219.8484962268 136.6230107295 233.0625941768
216.4278122343 96.3418622087 210.9137179103
211.7195247659 137.2856866610 236.2073429482
208.8969245671 124.4679924150 217.1696232368
215.3323202309 127.7309793741 257.7394823525
230.2890118549 53.8835310302 249.1998228049
218.0128516999 88.2904621162 242.0762796365
228.7157830917 94.4270020727 216.5067947343
214.0542741627 127.1102279122 257.9445959919
219.4491371342 106.3773644260 207.6513720060
210.6027640632 110.7863226734 197.5381135906
228.4695538720 100.2697353994 219.8062744216
221.8297546402 79.1698065425 241.0533813990
208.2690585297 114.7822157633 199.7935416378
216.0690333302 104.3131804108 207.8674401637
220.3141771020 78.8938134168 247.5237664690
211.2030736868 117.0093609382 203.8446838380
228.0130456110 56.4016122225 244.6255831794
220.7505725531 102.3251188082 209.8116414870
213.0250399213 132.0375628948 215.8469014059
205.3637319184 125.1605456597 251.8215932753
225.0826954303 71.3802379831 256.0479061537
215.1777938461 122.8519361089 197.9630977054
213.4751372279 112.2359252151 193.6516112313
221.0395304163 62.8657570970 244.4571967062
204.6944735689 129.1735238308 253.6336765578
215.7968012643 107.8695543194 198.4047174758
191.1680376178 109.8580546714 252.7607741386
222.4986515659 76.6286365012 249.2348466099
213.5389176000 133.6292992097 236.9974286792
221.8490495240 140.7595292385 220.8806348694
217.7244437809 81.2972984898 244.3323155994
195.0380897962 109.4077967546 242.4251891326
219.4564933514 84.6253673200 242.1177603895
209.2144400621 124.5012528349 207.6930271924
215.8379180727 132.0567336204 245.4173859926
214.2767653558 126.1139995286 252.6977907767
222.6718663042 61.6095751649 242.8107178141
210.4206869696 137.5506447500 223.0491956460
192.9520583085 109.9241415370 246.0344321149
218.0395286985 101.5413483637 207.0586816038
229.1888191760 73.4386488120 245.9706379103
221.8447757061 108.6830790959 205.6580244652
222.7627788008 77.3661028695 243.5969023675
