121.8697967529 153.9357147217 234.6417999268
163.7040710449 188.3928527832 237.9700012207
124.0116577148 166.7793579102 240.5803985596
138.8546600342 178.2423553467 199.1399993896
136.9039916992 148.1622009277 214.9499969482
133.4067687988 153.8920135498 214.3146057129
128.6267089844 152.7897338867 235.7599945068
161.6788177490 187.5540313721 231.2099914551
174.6289672852 185.1292572021 277.8890075684
163.2938079834 183.6172027588 244.8612060547
159.9221954346 174.9598693848 244.8999938965
123.3057632446 146.4759063721 234.5729980469
169.3216552734 190.8093566895 234.2104034424
125.7307205200 157.5666503906 233.4759979248
140.1213989258 180.3899993896 195.7288055420
167.7097930908 188.1257019043 236.0218048096
157.6419219971 193.9789886475 214.1180114746
158.0436248779 180.4469757080 244.9895935059
123.0852890015 166.2669219971 230.4239959717
139.1847839355 170.4753265381 200.4409942627
153.1219177246 175.3889923096 258.6679992676
171.1992187500 188.8175811768 235.6381988525
139.6289672852 189.4192657471 195.7289886475
164.8739929199 188.8622131348 230.0299987793
155.7764739990 194.1112365723 216.5700073242
146.9774169922 203.0498657227 216.0099945068
164.9272308350 179.6953582764 266.3399963379
157.6940765381 173.5828552246 251.1999969482
163.1036224365 191.0869750977 225.7195892334
140.9338073730 191.1571960449 202.6212005615
142.1021423340 155.1969299316 217.9031982422
128.2392120361 152.5375823975 221.6481933594
139.0072326660 163.4953613281 206.5500030518
140.7292633057 168.7191925049 198.5442047119
165.5800018311 184.1152343750 236.0473937988
129.6488189697 149.5040283203 230.4599914551
154.3332824707 194.5581054688 228.7740020752
162.7992095947 179.1875915527 248.0782012939
144.8182830811 197.7533874512 196.4660034180
143.0172271729 154.8253479004 205.2500000000
167.3389434814 179.6958312988 263.4620056152
145.9599914551 190.5152282715 197.5473937988
155.7843017578 198.0040740967 223.9824066162
157.8859558105 188.0088043213 226.8368072510
160.0149841309 181.2569274902 262.3453979492
136.6627807617 169.8789978027 202.8661956787
164.8772277832 175.9453582764 263.5599975586
118.4908676147 170.7529754639 231.1199951172
160.1213989258 176.3699951172 258.8688049316
150.2684631348 200.4062805176 204.8097991943
155.8046569824 194.6323547363 214.2200012207
137.5767059326 169.8197326660 203.3399963379
124.6499938965 160.9608459473 242.9799957275
167.5908660889 185.5629730225 270.6100158691
161.4994049072 184.9225311279 245.9940032959
138.5567169189 193.0697326660 200.5399932861
139.5746612549 162.5023498535 200.4799957275
164.2940673828 181.3328552246 272.5299987793
127.5436248779 152.7969818115 228.1396026611
146.0739898682 167.5222015381 197.8000030518
156.3936309814 201.2969818115 211.4895935059
168.3689727783 190.7592620850 233.6790008545
140.6197509766 186.3099975586 188.6399993896
156.2416534424 181.6893615723 262.1803894043
162.9833984375 186.7898712158 272.0325927734
141.7572326660 149.9353485107 225.6000061035
163.8908691406 181.8329772949 264.0700073242
158.1997833252 178.0557098389 265.8918151855
169.5636291504 192.5169830322 277.7896118164
171.0289459229 188.4758300781 235.2720031738
151.1646575928 195.3123474121 214.4799957275
122.3620605469 156.4480438232 234.2820129395
135.3908691406 153.5029754639 223.0000000000
165.2321319580 181.5769348145 242.0331878662
157.9282836914 175.3933868408 256.7860107422
144.7040710449 155.9328460693 211.6499938965
146.5831909180 195.5745849609 201.6879882812
160.5046539307 174.8623504639 262.9600219727
144.1765899658 191.7116851807 198.8257904053
134.3040008545 147.5622100830 223.8099975586
164.9743041992 180.3940734863 259.0524291992
151.5449981689 201.6369171143 215.5553894043
138.4617614746 184.5767974854 201.0410003662
152.1036224365 191.9869842529 226.8295898438
129.7716827393 151.6473693848 232.4100036621
123.6886062622 157.3556213379 237.8276062012
160.9382781982 174.4133758545 259.7760009766
140.8363037109 150.6786956787 217.8849945068
135.1125793457 150.0200042725 213.3580017090
148.0716857910 194.8973693848 199.8699951172
125.1899948120 166.2208557129 230.8399963379
166.3516845703 189.8273773193 230.5899963379
159.3107147217 180.9766540527 250.1560058594
147.0074310303 177.3598632812 201.8399963379
131.8538055420 151.9472045898 229.3712005615
135.7440032959 148.8122100830 213.7500000000
165.6840667725 177.0528564453 263.6100158691
135.9186096191 149.2256164551 226.8276062012
152.6397552490 179.9900054932 250.6800079346
159.7116546631 180.5893554688 258.7403869629
141.2416534424 159.3493499756 209.5204010010
121.7084579468 171.2562866211 233.8697967529
170.6957550049 184.8559112549 279.4429931641
126.9188232422 153.0940246582 240.6699981689
165.1416931152 177.0373687744 263.9799804688
171.6159667969 184.1988067627 279.8367919922
166.2588195801 179.7340240479 273.3600158691
141.5121307373 153.0069274902 215.6931915283
157.8516845703 195.3673706055 220.3600006104
141.6002807617 146.7398376465 227.3849945068
126.9021377563 162.0669403076 238.2431945801
139.9239959717 177.7822113037 198.3000030518
157.6046600342 188.9923553467 228.6000061035
152.6516571045 198.3593597412 225.3904113770
135.5359649658 147.4588012695 225.4668121338
147.9394073486 208.3925323486 202.5540008545
129.8764648438 148.8512420654 227.5000000000
140.3667144775 153.4797363281 223.3699951172
153.5299987793 198.2652282715 218.3273925781
139.3702850342 186.8798370361 198.1649932861
164.2339935303 185.0022125244 237.0299987793
139.9797821045 166.1957092285 197.9318084717
125.8682632446 154.4673004150 226.1710052490
144.6427764893 197.1790008545 206.9662017822
149.0667572021 198.9320068359 214.6346130371
125.7834701538 151.6730499268 236.5659942627
125.5852890015 160.7169342041 239.6040039062
147.0616607666 207.4193572998 203.4204101562
125.5046615601 154.2023468018 230.9199981689
146.8208618164 207.3629760742 203.4099884033
135.0925903320 190.8300018311 193.4580078125
136.6682739258 149.7433776855 219.3359985352
164.1067657471 186.4220123291 275.2145996094
122.1667633057 167.2920074463 238.9546051025
136.1367034912 169.9797363281 198.8899993896
158.7867126465 180.6497344971 252.6100006104
151.5449981689 201.6369171143 215.5553894043
156.0699920654 174.8308563232 259.6199951172
166.3686218262 190.5317687988 231.9059906006
150.7755737305 173.9959106445 199.3090057373
123.2487487793 165.5160064697 235.0986022949
127.4083862305 159.4279632568 233.9859924316
174.9943084717 190.2940673828 276.8124084473
165.2443084717 191.2140655518 229.7023925781
144.4997558594 169.0200042725 191.1000061035
162.1339569092 179.4700012207 258.0238037109
125.5013961792 152.2599945068 220.8688049316
132.8655853271 147.8959045410 226.6790008545
168.6288299561 185.4340209961 278.1000061035
149.5516815186 205.3773651123 201.2799987793
146.9431915283 198.1245880127 203.6079864502
147.9197845459 197.2557067871 205.5617980957
166.4418640137 174.1475219727 265.1119995117
163.6392059326 179.8675842285 264.2381896973
138.8506927490 194.9510345459 203.4002075195
144.3452911377 194.0269317627 203.4540100098
126.7221374512 169.3969268799 231.2531890869
141.7982788086 150.3533782959 218.7559967041
141.6986083984 171.6556243896 196.1976013184
138.0297546387 161.5599975586 202.2900085449
165.4616851807 173.4373626709 270.5499877930
126.0697555542 154.9499969482 229.5200042725
166.4916839600 176.5773773193 262.2099914551
163.1036224365 191.0869750977 225.7195892334
148.8716583252 204.0593566895 215.0204010010
131.7759552002 149.0688018799 223.3668060303
137.3336181641 163.3969726562 203.9595947266
127.2574310303 156.7398529053 232.4499969482
138.2839965820 149.7022094727 215.9700012207
166.0216674805 182.3793487549 262.4603881836
157.0988159180 188.5940246582 225.0899963379
161.7021331787 197.1669311523 214.7931976318
163.2840728760 189.9828491211 241.1299896240
157.0708618164 200.4229736328 214.0599975586
149.8546600342 194.4623565674 222.0500030518
141.7688293457 173.2540283203 202.7899932861
138.8439941406 150.8822021484 218.3399963379
160.7864685059 175.1312408447 246.7200012207
146.8663024902 194.4887084961 197.2149963379
128.7833099365 153.9826812744 235.1080017090
139.3374176025 185.0198669434 202.9700012207
165.1982727051 184.1633758545 275.0660095215
153.2736206055 198.6269836426 224.8896026611
121.4243011475 170.8040771484 228.3423919678
159.2907104492 180.4866485596 247.5760040283
159.1127319336 200.4001007080 216.0589904785
158.5740661621 200.3128509521 214.3399963379
142.6013946533 197.7899932861 199.0787963867
159.9221954346 174.9598693848 244.8999938965
160.9521331787 176.8369293213 252.1331939697
167.1272277832 181.4553527832 262.4799804688
154.8489685059 178.9492645264 250.2289886475
175.7467041016 189.4097290039 280.6900024414
165.4116821289 181.8973693848 241.7899932861
144.3493957520 157.5125427246 210.1640014648
132.8655853271 147.8959045410 226.6790008545
125.7421340942 168.1869354248 232.9832000732
145.9243011475 170.5540771484 192.6623992920
163.5797576904 179.0200042725 266.0599975586
136.3414001465 161.1499938965 203.0787963867
126.1131973267 168.2345886230 231.8679962158
158.6767578125 194.0520172119 224.2846069336
154.9536285400 199.9969787598 210.3896026611
126.3982620239 155.9873046875 242.0910034180
138.5865936279 158.7516937256 213.9357910156
163.1716613770 189.3093566895 237.5503997803
154.8779144287 174.7976226807 254.2070007324
126.8721389771 168.8469390869 233.8432006836
165.4616851807 173.4373626709 270.5499877930
136.7616577148 170.4693603516 201.8404083252
163.9386138916 180.8456115723 263.3675842285
153.0937957764 199.3871917725 214.3311920166
152.3867034912 195.0297393799 230.9400024414
160.4707336426 186.9400024414 232.6625976562
159.5259552002 184.4988098145 239.4368133545
125.8740081787 162.6622009277 235.4600067139
166.7316894531 187.4573669434 223.2400054932
174.7138061523 189.5771942139 280.4411926270
160.5240020752 184.6822052002 237.8000030518
146.5692138672 154.2275848389 205.8582000732
126.7682876587 153.0933837891 238.5959930420
145.9592132568 178.0175933838 198.8481903076
160.4327850342 176.7590026855 257.0462036133
160.9397583008 176.7700042725 265.5599975586
158.9772338867 180.8053588867 254.1200103760
145.5688171387 167.0740203857 201.2500000000
135.6886138916 153.3656158447 223.0776062012
142.2886047363 185.6556243896 198.6775970459
140.5516815186 158.5073699951 204.4400024414
158.2889556885 197.3081817627 208.6569976807
155.5039978027 193.4721984863 218.5899963379
164.0502929688 171.8698272705 271.2350158691
139.8049926758 173.8969268799 201.9753875732
146.6289367676 169.4858245850 199.7519989014
153.6694030762 195.6025390625 231.1540069580
135.6152954102 147.5069274902 224.7040100098
154.9122009277 193.9398651123 214.7500000000
125.3697586060 163.8699951172 234.9000091553
163.1636199951 185.6769866943 269.4696044922
162.6602935791 185.5498352051 228.5449981689
176.0488281250 184.5740203857 281.2600097656
142.1946563721 194.6223449707 203.4700012207
170.9983825684 184.8979644775 272.6760253906
134.6052856445 159.5369262695 206.3740081787
156.2516632080 193.4293518066 227.7203979492
144.1357574463 198.3559112549 196.8330078125
136.0872344971 167.7053527832 197.0900115967
135.2959594727 165.3388061523 202.6368103027
167.7639923096 187.1122131348 230.9300079346
127.2216873169 147.0773773193 234.7500000000
145.1340026855 172.6921997070 196.0200042725
146.0497589111 201.3800048828 211.8500061035
141.4084625244 173.0362854004 198.8297882080
159.1127319336 200.4001007080 216.0589904785
119.0633850098 170.3798675537 238.0826110840
147.9408721924 204.4029693604 211.0099945068
158.5852813721 174.7369232178 254.3040008545
162.6888275146 185.7840270996 241.5899963379
171.4240722656 189.0628509521 234.4099884033
144.5213928223 197.8699951172 196.7388000488
145.9686279297 208.0017700195 201.1259918213
167.3300018311 177.4708557129 262.5100097656
122.3989486694 166.2681732178 228.2169952393
165.5716552734 174.0993499756 268.2403869629
125.8188247681 166.6540222168 230.4700012207
163.6239929199 179.8922119141 270.5699768066
160.9546661377 186.1123504639 241.0299987793
158.6967620850 180.5320129395 265.1246032715
162.8782653809 180.8773040771 262.7509765625
125.7497558594 154.1699981689 238.7100067139
121.8697967529 153.9357147217 234.6417999268
131.2287445068 148.7859954834 226.9886016846
153.1182708740 191.1133880615 220.8260040283
140.1867675781 169.4920043945 199.5646057129
164.1316833496 183.2373657227 243.6699981689
147.2340698242 154.8228454590 209.7799987793
152.9949951172 199.1069183350 220.2453918457
128.6643066406 155.8640747070 231.2023925781
144.9725799561 174.0299987793 195.3280029297
170.8343048096 187.8540649414 274.3424072266
136.6767120361 154.4497375488 222.4400024414
137.9882659912 147.3273010254 226.9609985352
169.8208618164 190.3329772949 280.1700134277
129.7716827393 151.6473693848 232.4100036621
151.8340759277 202.4028472900 214.4099884033
135.9417572021 182.6368103027 203.5310058594
136.8566741943 155.3600006104 219.2319946289
137.4949951172 156.5969238281 218.2653961182
151.5747833252 189.0753173828 229.6110076904
142.5316619873 154.3993530273 220.5704040527
157.6813964844 176.4799957275 243.3587951660
163.9027862549 179.1190032959 243.7661895752
136.3751373291 180.3999938965 199.2030029297
135.8936309814 154.5269775391 220.8096008301
156.6516876221 175.8173675537 257.4099731445
139.6416931152 162.5773773193 207.3899993896
152.3867034912 195.0297393799 230.9400024414
139.6622009277 179.3698730469 196.8600006104
157.5967102051 180.0397338867 259.7000122070
122.5582580566 149.4673004150 234.5210113525
127.3699951172 153.7952270508 220.4973907471
162.5292053223 185.3675842285 233.9981994629
135.1797485352 168.6900024414 197.2100067139
134.0186004639 153.0856170654 217.1576080322
158.9582672119 184.2772979736 247.2109985352
142.7652893066 172.1569213867 202.4640045166
146.7346649170 200.2723541260 208.2799987793
155.8251495361 197.1600036621 213.3529968262
158.5233917236 179.5498657227 267.0426025391
173.6807098389 192.0666503906 279.4360046387
134.3386077881 167.9456176758 201.7276000977
154.8772277832 200.3453521729 210.9499969482
159.7002868652 197.9098358154 209.9850006104
155.9716949463 193.0873718262 228.1100006104
148.4989624023 199.1692657471 194.3489990234
162.4288177490 181.2740325928 246.3000030518
146.8508605957 202.3329772949 217.4099884033
161.7531890869 177.2545928955 252.8379974365
159.8859558105 176.5388031006 267.4768066406
126.1740798950 159.4528503418 238.7299957275
156.1782836914 174.5433807373 245.2959899902
140.9252929688 189.0369262695 201.7140045166
123.3482818604 166.6233825684 232.0760040283
137.0543060303 168.4840698242 198.5523986816
165.1988220215 186.8940277100 235.5099945068
136.4686279297 182.3817749023 199.1559906006
162.4636230469 181.0169830322 259.9596252441
143.6857604980 167.7259063721 193.5130004883
157.7567138672 179.5897369385 245.3000030518
146.0497589111 201.3800048828 211.8500061035
164.9372253418 187.0053558350 222.4800109863
144.4172210693 199.5453491211 200.2799987793
126.6852874756 148.0969238281 235.4840087891
160.5827789307 179.3990020752 267.4262084961
162.0152893066 174.6269226074 262.0440063477
152.6067657471 191.2020111084 220.5246124268
165.0738067627 177.5971984863 264.0411987305
148.7918701172 195.5875244141 199.1619873047
147.6298065186 199.2367401123 214.4100036621
139.1967163086 163.9997406006 205.3600006104
134.5489654541 161.4592590332 202.8289947510
145.7846679688 174.1223449707 202.7500000000
147.9089508057 168.2781829834 196.2070007324
125.5242996216 171.4140777588 231.3423919678
126.7488250732 161.6740264893 240.5599975586
157.6419219971 193.9789886475 214.1180114746
140.7740783691 154.5228424072 222.7099914551
141.5567169189 175.6197357178 202.5099945068
135.0759582520 188.9288024902 196.8668060303
142.6316680908 183.5693511963 198.9403991699
145.1918640137 185.3175201416 191.5019989014
154.6052856445 194.1169281006 217.1040039062
158.9097595215 179.7100067139 243.9800109863
165.2802886963 170.5498352051 269.8450012207
153.7251434326 176.1799926758 257.7130126953
148.6888275146 197.8040313721 209.8199920654
134.1046600342 153.7823486328 216.1399993896
135.9498138428 188.7767486572 194.4100036621
139.0072326660 163.4953613281 206.5500030518
161.0946655273 183.8223571777 237.6999969482
171.8557586670 183.0659027100 279.5130004883
155.5046539307 184.4823455811 243.5299987793
147.5816955566 155.7573699951 209.3699951172
156.0736541748 180.8578186035 256.8540039062
142.0616912842 189.7573699951 200.0599975586
157.5967102051 180.0397338867 259.7000122070
130.3589630127 157.8692626953 239.9489898682
127.3782882690 150.5433807373 231.7160034180
156.8252868652 194.7269287109 217.3740081787
157.0240020752 172.1422119141 249.2400054932
164.5431823730 178.2945861816 244.3179931641
152.8752899170 174.2569274902 253.7940063477
160.0734710693 190.1330566406 241.3659973145
159.3067169189 181.7997283936 257.7600097656
160.6433868408 193.4298706055 231.7826080322
128.0316619873 156.8593597412 233.4703979492
142.5904693604 183.8869323730 198.3873901367
169.9426422119 187.8068084717 277.9930114746
165.0139923096 175.6122131348 261.6499938965
123.3686065674 149.3656158447 235.5876007080
155.8351440430 183.0899963379 240.2030029297
152.3314056396 175.6499938965 250.2487945557
175.0172271729 189.6053466797 275.3299865723
158.0986022949 190.3356170654 240.8975982666
132.1097564697 150.0500030518 222.3300018311
138.6167144775 164.1097412109 207.9499969482
152.8838043213 176.3771972656 254.7012023926
162.3349914551 179.2569274902 255.2153930664
157.0982818604 173.0533752441 247.4459991455
124.4074249268 167.0098571777 237.8300018311
141.7321319580 182.8169403076 202.7332000732
126.4272232056 164.2153472900 241.0200042725
139.4267120361 155.6597290039 223.2500000000
151.2059631348 195.4387969971 215.0568084717
166.5827331543 187.4801025391 270.2390136719
141.0516815186 152.2473754883 215.3200073242
154.0107269287 190.1900024414 219.9626007080
164.0502929688 171.8698272705 271.2350158691
125.5046615601 154.2023468018 230.9199981689
134.4674224854 155.5898590088 215.5800018311
142.2133941650 178.6598663330 202.8825988770
128.9767150879 160.5297393799 237.1199951172
129.6516876221 151.2573699951 235.1999969482
145.2067108154 154.0297393799 221.7500000000
140.9821319580 158.2869262695 206.4331970215
120.9346618652 160.2323455811 241.0500030518
141.8286132812 152.0956115723 223.6475982666
124.4389724731 168.3092651367 227.5789947510
168.3394012451 190.9225311279 233.3339996338
144.8388214111 185.2940216064 193.8799896240
121.1440048218 160.8321990967 239.1800079346
138.8286132812 164.0156250000 204.0276031494
129.7118682861 150.6775207520 234.6619873047
145.2727355957 200.8901062012 199.3089904785
146.2143096924 170.4640655518 194.0424041748
156.9467620850 187.4620056152 244.5746002197
134.3708648682 150.0229644775 217.0800018311
167.3300018311 177.4708557129 262.5100097656
169.4233093262 182.0726928711 275.1679992676
151.4067687988 198.7920074463 219.0946044922
142.2133941650 178.6598663330 202.8825988770
160.1059570312 175.1887969971 262.3768005371
164.5217590332 182.6068115234 262.1809997559
154.6992187500 201.7575836182 210.5681915283
161.5439910889 174.6622009277 259.4099731445
139.4838104248 149.4472045898 227.9512023926
151.3447875977 194.7453155518 226.1009979248
142.2564697266 169.6612396240 201.6200103760
160.2465820312 180.5816955566 249.0357971191
161.8914031982 187.7899932861 224.8488006592
143.0859680176 198.4988098145 197.8268127441
165.4043121338 188.7340698242 223.3824005127
156.2697601318 191.4900054932 237.4000091553
174.3639984131 182.5322113037 278.4299926758
121.0387496948 159.9759979248 236.7586059570
140.3339538574 182.9600067139 193.5538024902
153.7874298096 194.3898620605 227.8300018311
135.5359649658 147.4588012695 225.4668121338
136.6172332764 192.5253601074 194.9199981689
155.7046661377 190.7423553467 238.8000030518
139.6267700195 155.6320037842 207.5346069336
152.7808685303 194.2629699707 224.8399963379
138.4520568848 191.9180450439 201.7920074463
162.0867156982 179.8697357178 262.7700195312
139.3702850342 186.8798370361 198.1649932861
171.8231811523 183.7045898438 273.7680053711
163.4313964844 189.3699951172 224.3587951660
151.0320587158 196.6303863525 213.6569976807
143.3939971924 166.6422119141 200.6600036621
161.4117584229 174.9268035889 267.5910034180
137.9302825928 179.5398406982 205.1549987793
127.9146575928 149.8323516846 229.8999938965
144.3072357178 186.3353576660 189.9499969482
161.1336517334 188.7778167725 232.6539916992
164.3279113770 189.2876129150 229.0769958496
157.6046600342 188.9923553467 228.6000061035
123.1286087036 169.7956237793 235.6576080322
159.8908691406 185.6529693604 227.9299926758
146.4852905273 197.9969329834 204.5339965820
140.1679229736 147.1676177979 227.3669891357
139.3374176025 185.0198669434 202.9700012207
141.0867156982 165.5297393799 203.5099945068
147.5188293457 173.7940216064 203.3099975586
141.4227752686 194.8489990234 205.0861968994
144.5004730225 190.1369323730 200.0773925781
134.0186004639 153.0856170654 217.1576080322
127.2120666504 151.5280456543 229.1920013428
142.3867645264 179.6420135498 200.9645996094
143.5564727783 187.0112457275 199.3099975586
141.3066864014 176.9900054932 198.2220001221
143.0384674072 168.1462860107 197.7097930908
142.1946563721 194.6223449707 203.4700012207
137.2216949463 149.7773742676 214.3099975586
160.0240020752 176.9822082520 257.0099792480
169.5846557617 189.2423553467 279.3300170898
141.2939910889 178.8722076416 196.0599975586
143.5564727783 187.0112457275 199.3099975586
154.9122009277 193.9398651123 214.7500000000
168.1082763672 184.2733764648 275.2359924316
149.7906951904 198.9410247803 216.1602020264
167.7106933594 189.9210357666 278.4102172852
163.1340026855 179.1722106934 239.4600067139
156.1540679932 197.5528564453 219.4700012207
140.3033905029 167.6898651123 199.0826110840
139.1927337646 184.4401092529 204.3889923096
126.9021377563 162.0669403076 238.2431945801
130.2367095947 158.9897308350 241.6699981689
147.7927246094 176.0401000977 197.8089904785
143.8116912842 172.8473663330 201.6300048828
156.4736175537 180.3269805908 249.5895996094
154.6621398926 190.6369323730 229.3931884766
153.7443084717 200.4140777588 208.0724029541
163.1440734863 174.4228515625 271.3600158691
148.1288299561 198.0940246582 204.6299896240
153.9062957764 172.7087097168 251.3650054932
154.8489685059 178.9492645264 250.2289886475
133.1839599609 152.4499969482 219.0138092041
126.4013977051 154.3200073242 229.2888031006
169.9533996582 188.2798614502 280.4725952148
162.0843048096 191.0240631104 227.2523956299
145.2872314453 152.6853485107 222.6000061035
146.7346649170 200.2723541260 208.2799987793
135.4016876221 159.4073638916 204.2700042725
148.7639617920 200.7700042725 204.1938018799
118.4908676147 170.7529754639 231.1199951172
156.8013916016 178.6100006104 248.2288055420
137.0020599365 154.8680419922 212.3020019531
131.6899871826 154.9952392578 228.1073913574
170.0821380615 180.4469299316 272.5632019043
149.5516815186 205.3773651123 201.2799987793
144.7938079834 187.0171966553 199.0012054443
131.4455718994 152.5959167480 230.4089965820
155.7255859375 173.6359100342 250.2290039062
122.3359527588 156.4687957764 235.6768035889
135.5872344971 149.1653594971 221.8200073242
151.1308746338 189.6029663086 229.6199951172
140.8813934326 154.6600036621 206.1188049316
146.5692138672 154.2275848389 205.8582000732
165.0772247314 186.8853607178 236.7500000000
143.5117645264 206.5467987061 203.6410064697
152.0425872803 193.4100036621 228.2980041504
127.2527923584 167.0789947510 236.5061950684
127.0464706421 162.5312347412 239.1600036621
156.6888275146 173.1240234375 252.8799896240
145.8125915527 204.0299987793 200.7779998779
149.9052886963 197.7569274902 210.0940093994
129.6383819580 155.3379669189 229.4960021973
135.3984680176 152.0262908936 219.1197967529
146.9521331787 169.0669403076 194.0231933594
137.3267059326 153.0797271729 226.2400054932
138.4091339111 159.5758666992 211.3339996338
159.0639953613 173.9022064209 246.9499969482
141.8114013672 197.1699981689 200.1988067627
174.3639984131 182.5322113037 278.4299926758
134.8016662598 153.6693572998 224.4403991699
164.9272308350 179.6953582764 266.3399963379
124.4866790771 155.8899993896 231.2919921875
170.7733001709 184.3226928711 275.5880126953
166.5179138184 181.4076232910 264.6170043945
164.6488189697 172.6040191650 271.3900146484
127.0286178589 160.2617797852 236.7059936523
134.4949951172 154.2169189453 221.3153991699
147.0672302246 156.8353576660 206.7700042725
125.8240814209 167.9628448486 231.0299987793
137.6517639160 183.0868072510 199.2610015869
160.7864685059 175.1312408447 246.7200012207
153.2482604980 176.6772918701 260.9609985352
163.6546630859 180.7423553467 263.2300109863
160.0821990967 188.8498687744 225.1100006104
158.6313934326 189.7799987793 237.2687988281
133.7508697510 152.9829711914 226.5299987793
142.3488159180 190.8240203857 201.9199981689
166.6259613037 187.9888000488 235.1268005371
155.5067596436 200.9220123291 215.0946044922
128.1031951904 163.6145782471 238.0679931641
134.8016815186 160.6273651123 203.1699981689
132.1197814941 163.7057037354 205.7817993164
162.3522033691 184.9298706055 234.7399902344
175.6121368408 188.5769348145 276.7131958008
169.8208618164 190.3329772949 280.1700134277
157.6346588135 188.1423492432 226.3800048828
131.4527740479 154.3890075684 231.1761932373
144.1357574463 198.3559112549 196.8330078125
159.5688171387 193.3240203857 214.3399963379
162.0522003174 185.8298645020 232.2899932861
144.2297515869 200.5000000000 202.4000091553
156.5546569824 175.9323425293 254.3899993896
163.7136230469 189.3969726562 277.1296081543
140.4638061523 148.4472045898 228.0211944580
156.3808746338 180.5629730225 263.4200134277
142.8467102051 173.0797271729 194.6199951172
170.8540649414 187.5328521729 235.1199951172
148.8682708740 173.0633850098 197.8260040283
158.7867126465 180.6497344971 252.6100006104
170.3239593506 181.9100036621 271.4038085938
152.3557586670 173.3759155273 252.5830078125
153.9759674072 174.2588043213 248.7768096924
156.0697479248 185.2299957275 242.1300048828
167.2321319580 171.6169281006 267.3331909180
145.9274291992 207.6598663330 200.6199951172
145.1497497559 199.7700042725 201.0700073242
163.4864654541 177.2112426758 245.4100036621
123.3347854614 153.3053283691 233.4909973145
149.1121368408 199.6069335938 203.8931884766
159.1772308350 180.0353546143 251.2100067139
142.5164642334 155.5512390137 211.8200073242
165.5116882324 175.0273742676 264.3999938965
132.4397888184 149.3257141113 219.4718017578
164.4374237061 190.8498535156 276.7899780273
127.7421340942 162.9969329834 239.0531921387
122.5208663940 171.2929687500 234.0800018311
139.4367675781 161.8920135498 207.6546020508
167.4282836914 177.0433807373 269.7359924316
123.7851409912 151.1699981689 230.8330078125
159.4743041992 191.2340698242 237.4523925781
138.8000030518 178.7508544922 201.0599975586
128.8621368408 156.9269409180 235.7131958008
137.8594055176 164.9325408936 207.8540039062
146.1157684326 174.2059020996 202.4830017090
123.8067092896 172.2397308350 233.5200042725
125.0342941284 151.2440643311 230.9223937988
157.1174163818 179.4798583984 254.9799957275
124.2899932861 166.7652282715 238.1873931885
143.8099975586 183.9008483887 192.9300079346
135.9897918701 165.1257019043 203.6918029785
166.8732757568 189.5581054688 273.9840087891
158.6767578125 194.0520172119 224.2846069336
124.4389724731 168.3092651367 227.5789947510
149.7834014893 200.3398590088 216.3226013184
160.9240722656 195.1828460693 215.8999938965
143.6719207764 167.8189849854 197.8480072021
167.4367065430 191.4597320557 236.4299926758
132.7207183838 152.7866516113 228.0859985352
142.5674285889 195.9398651123 199.9499969482
122.2607192993 170.9966583252 235.3260040283
140.0808715820 149.6029663086 227.5599975586
152.4740753174 180.0428466797 254.3099975586
125.5340805054 157.1928558350 238.5499877930
150.8646545410 192.9923553467 230.6600036621
170.9983825684 189.0079650879 275.0559997559
121.4426422119 168.6468048096 236.3730010986
167.8892059326 170.9775848389 267.2582092285
141.1264648438 152.6712493896 217.4100036621
139.7939910889 184.3022003174 190.0100097656
158.7074279785 180.7698669434 244.8200073242
154.6517639160 198.4768066406 225.3410034180
170.7526397705 181.0968017578 274.0130004883
146.1297607422 206.6000061035 199.7799987793
160.7474212646 191.4298553467 227.6900024414
143.0321350098 191.6769409180 200.5531921387
136.9997558594 180.0099945068 197.7300109863
144.9551391602 199.4400024414 194.8030090332
135.7734680176 151.3730468750 227.4160003662
126.1740798950 159.4528503418 238.7299957275
163.0825805664 181.9900054932 268.6679992676
171.2067108154 190.1197357178 233.5699920654
122.8513946533 150.1499938965 230.4687957764
144.3827362061 153.2100982666 223.8289947510
142.2313995361 171.1000061035 192.5688018799
156.1588287354 188.1540222168 227.0800018311
169.1852874756 184.4869232178 277.5039978027
121.0186080933 163.4556121826 242.5375976562
144.5582733154 167.5033874512 193.1159973145
164.6655731201 176.5859069824 272.1290283203
139.6622009277 179.3698730469 196.8600006104
126.8197555542 148.5800018311 221.7300109863
144.8527832031 178.6690063477 200.7661895752
123.0351409912 148.9700012207 231.2730102539
129.4489440918 157.1381835938 236.9669952393
138.1936187744 184.9269866943 202.2796020508
120.6397552490 162.0399932861 238.6200103760
139.4936218262 193.7869873047 200.0995941162
147.9394073486 208.3925323486 202.5540008545
138.4459686279 162.2488098145 202.6668090820
138.2289428711 163.1358337402 209.2819976807
126.3347854614 165.1053161621 233.8209991455
163.5897521973 186.3300018311 222.2000122070
152.5859680176 191.5688018799 221.2468109131
137.9421997070 150.4798736572 221.4400024414
145.3382720947 195.9133758545 197.6459960938
139.7298126221 149.9867401123 218.3300018311
125.5036239624 154.6569824219 230.8795928955
158.7074279785 180.7698669434 244.8200073242
139.4282531738 148.7973022461 227.7910003662
127.6879196167 150.2776184082 237.0670013428
142.6517639160 171.8368072510 193.1410064697
158.7299957275 172.3808593750 250.9499969482
140.7636260986 193.6869812012 197.8096008301
140.4838104248 166.5471954346 203.0912017822
146.8672332764 168.8653564453 192.6300048828
138.5733947754 172.2198638916 200.2425994873
122.7186050415 158.2356109619 237.0375976562
171.5151367188 185.9400024414 277.4129943848
164.0816650391 179.9493560791 263.9104003906
164.0579223633 173.7676086426 272.0469970703
165.1331939697 175.7845916748 261.5480041504
152.8752899170 174.2569274902 253.7940063477
137.7172241211 152.4653472900 224.8400115967
156.8252868652 194.7269287109 217.3740081787
149.5121917725 197.4698638916 206.8600006104
160.1816864014 173.6373748779 249.4600067139
161.2282562256 173.8872985840 269.6210021973
151.1667633057 196.2820129395 219.3646087646
155.7046661377 190.7423553467 238.8000030518
166.7799987793 177.4252319336 269.0374145508
136.0872344971 167.7053527832 197.0900115967
168.8349914551 191.7269287109 276.3753967285
131.9420623779 149.2380523682 221.8920135498
141.4240722656 155.9428558350 219.8600006104
149.2789459229 173.8181762695 196.9969940186
121.4504776001 170.5969390869 237.2073974609
170.9788208008 184.9940338135 276.9600219727
132.3636169434 151.9969787598 222.4595947266
156.3788299561 176.2040252686 254.4499969482
159.6219177246 184.7389831543 226.9680023193
140.7443084717 149.1640777588 224.3923950195
142.0446624756 150.1123504639 223.9600067139
141.8686218262 187.9317779541 192.2659912109
153.1414031982 176.6699981689 249.8088073730
125.5239639282 152.8699951172 220.1138000488
141.7872314453 158.7753601074 207.2700042725
163.0746612549 185.8223571777 233.9400024414
148.4067077637 204.0497283936 205.0999908447
169.3699951172 190.8852386475 274.4573974609
159.9467163086 201.4597320557 209.5899963379
134.0546569824 189.4923553467 195.5500030518
166.0639953613 185.7522125244 232.1300048828
123.0466766357 162.3200073242 234.6320037842
142.4308624268 195.7129669189 204.3099975586
143.5233001709 191.1726837158 200.7180023193
155.3555755615 175.0559082031 263.6990051270
126.5963058472 153.7987060547 237.5149993896
143.2372283936 172.4653472900 193.2200012207
136.2138061523 163.4772033691 208.5411987305
135.9897918701 165.1257019043 203.6918029785
163.7136230469 189.3969726562 277.1296081543
144.7516937256 194.6373748779 200.2299957275
139.3374176025 185.0198669434 202.9700012207
125.3589477539 166.9781799316 228.7969970703
153.6265869141 197.9116973877 220.2457885742
145.1472320557 201.2953491211 196.5200042725
155.7819213867 172.9389953613 249.9980010986
136.9662933350 179.3487091064 203.1250000000
158.9119262695 181.4589843750 245.5180053711
122.4397583008 150.2899932861 230.5299987793
138.7633972168 186.6498565674 195.8626098633
152.1008605957 192.5529785156 223.5699920654
125.5239639282 152.8699951172 220.1138000488
124.5746612549 152.3223571777 231.8199920654
148.7599945068 199.4608459473 216.7900085449
164.0579223633 173.7676086426 272.0469970703
138.8064727783 150.6512451172 223.2600097656
140.3767089844 162.3897399902 206.5800018311
122.5402984619 160.3498382568 241.7749938965
144.9474182129 200.8298645020 201.9100036621
152.3867034912 195.0297393799 230.9400024414
165.7116851807 185.9673767090 237.5899963379
141.3583831787 154.9479675293 215.2259979248
122.1667633057 167.2920074463 238.9546051025
126.7172241211 164.5453491211 235.1800079346
140.5936279297 189.4869842529 195.4895935059
137.0999908447 148.1908569336 216.6900024414
145.4898071289 167.0367431641 196.4199981689
121.0186080933 163.4556121826 242.5375976562
129.7652893066 149.3369293213 229.9540100098
144.1449890137 191.9969177246 197.3553924561
125.0733871460 153.3398590088 223.1826019287
132.1974182129 153.3898620605 224.9799957275
144.1716918945 192.5273742676 198.1800079346
150.6100006104 201.6952362061 204.5773925781
121.1440048218 160.8321990967 239.1800079346
145.2788238525 185.9240264893 198.2500000000
150.3497619629 198.2500000000 209.4400024414
138.7633972168 186.6498565674 195.8626098633
126.0984573364 167.6362915039 233.4297943115
133.0246582031 167.3423461914 199.1100006104
126.4640045166 149.2822113037 221.1900024414
136.1297912598 156.8057098389 220.6318054199
149.5327301025 177.1201019287 200.9389953613
138.5567169189 193.0697326660 200.5399932861
169.4438018799 189.5771942139 236.9411926270
151.4827270508 197.7700958252 224.5289916992
157.8316955566 193.3173675537 221.2500000000
154.5979156494 178.3076171875 253.4769897461
159.1267089844 191.0297393799 228.8800048828
141.0508728027 186.9529724121 198.9099884033
166.8979187012 185.9476165771 271.4570007324
139.1199951172 159.1452331543 211.4973907471
140.4140014648 154.2122039795 211.7200012207
128.7389526367 155.1981811523 238.3269958496
126.4088211060 146.2440338135 235.5899963379
150.5399932861 199.2052307129 204.0273895264
152.9520568848 194.1903991699 218.5769958496
160.2536468506 179.0678253174 263.6240234375
131.9397888184 147.9557037354 227.9718017578
143.3431854248 165.3045806885 199.4579925537
160.2197570801 185.3099975586 225.6900024414
166.2042999268 173.1040649414 265.9724121094
166.2939910889 176.1921997070 259.5999755859
142.5833892822 197.3298645020 206.5826110840
126.0736236572 156.0369873047 230.6495971680
168.7118682861 178.8875274658 261.0820007324
158.5939941406 176.7122039795 243.0700073242
132.2546539307 160.1223449707 203.4499969482
170.6594085693 190.2725372314 233.8440093994
171.0200042725 186.2508544922 234.3200073242
152.2440032959 192.0122070312 220.7400054932
126.1608657837 148.8229675293 225.6799926758
137.7533874512 195.6198577881 202.8126068115
143.4708709717 200.9629669189 198.4799957275
136.8125915527 180.5800018311 197.7279968262
137.7692108154 169.2275848389 200.9481964111
148.5599975586 200.0508575439 214.3600006104
154.9607086182 197.7366485596 220.9560089111
138.1408691406 154.7129669189 223.8099975586
142.1913909912 171.6000061035 196.9588012695
146.8446655273 196.6323547363 195.9299926758
145.3107147217 172.1266479492 200.5760040283
165.6527252197 189.7301025391 279.6990051270
166.7789459229 178.6258239746 262.8320007324
144.4997558594 169.0200042725 191.1000061035
145.4846649170 200.6323547363 213.2500000000
142.2617645264 172.7368011475 195.2910003662
120.9939651489 161.4600067139 235.9038085938
167.7716827393 177.1573638916 260.1599731445
136.9967651367 159.6720123291 212.2646026611
129.5667572021 155.5220184326 228.8746032715
141.2521362305 155.3169403076 215.2731933594
165.8647766113 169.6553192139 266.4909973145
133.7508697510 152.9829711914 226.5299987793
140.5888214111 177.9140319824 199.6999969482
141.4927368164 154.3000946045 219.5089874268
159.6117553711 192.0368041992 238.9510040283
137.3943023682 169.4740753174 199.5724029541
168.9688262939 182.7540283203 269.3700256348
131.9172210693 152.2653503418 224.1699981689
139.6636199951 187.6969757080 193.0695953369
140.8308715820 197.4129791260 202.8899993896
165.1152954102 185.8969268799 226.1040039062
150.7736206055 197.9869842529 224.0296020508
144.5089721680 172.1792602539 194.4789886475
154.7936553955 193.7378234863 225.5240020752
134.0186004639 153.0856170654 217.1576080322
123.3482818604 166.6233825684 232.0760040283
157.9282836914 175.3933868408 256.7860107422
161.6079101562 190.8376159668 241.3869934082
125.8146591187 151.5023498535 230.8699951172
140.5659637451 169.3088073730 199.9968109131
151.7982788086 174.0433807373 251.5260009766
150.4849853516 177.2369232178 198.9253997803
166.2752838135 184.3769226074 277.3340148926
138.3655853271 164.6759033203 204.4589996338
129.8439483643 154.0700073242 227.7238006592
166.9997558594 179.0299987793 268.5199890137
146.5567169189 157.2897338867 209.9299926758
155.3372344971 194.0053558350 227.2700042725
144.9652862549 152.9769287109 208.2239990234
124.4866790771 155.8899993896 231.2919921875
149.0716857910 203.3673706055 202.2599945068
172.8716583252 192.9893493652 278.6004028320
135.9498138428 188.7767486572 194.4100036621
155.7246551514 178.4623565674 250.2400054932
139.1963043213 145.0787048340 224.5249938965
142.0446624756 150.1123504639 223.9600067139
164.9372253418 187.0053558350 222.4800109863
153.7997589111 196.7299957275 207.6800079346
160.4586029053 187.5756225586 241.4076080322
141.3389587402 146.4781799316 225.3369903564
125.0342941284 151.2440643311 230.9223937988
135.7122039795 149.2098693848 219.9899902344
164.9326477051 181.3368072510 239.8130035400
135.0539550781 169.5599975586 199.4138031006
159.4598083496 193.1967468262 212.6900024414
161.6855773926 178.0459136963 249.2290039062
136.0997619629 190.8699951172 193.4199981689
161.1236267090 182.7669830322 239.1795959473
157.1972351074 194.2353515625 220.4100036621
161.7738189697 178.2984771729 248.2014007568
129.6516876221 151.2573699951 235.1999969482
156.6788177490 195.4140319824 227.5000000000
159.6182708740 187.2633819580 225.4759979248
160.9697570801 180.4499969482 238.3000030518
142.4308624268 195.7129669189 204.3099975586
142.4655761719 161.3159027100 205.8390045166
159.5536499023 192.2378234863 229.3439941406
151.5886077881 197.2056121826 216.4176025391
136.8592681885 158.4091949463 212.6842041016
146.3282775879 203.3733825684 201.6060028076
148.1367034912 203.2797393799 216.8499908447
132.1182556152 160.9772949219 205.6710052490
154.3332824707 194.5581054688 228.7740020752
146.6359558105 199.7488098145 209.2568054199
152.9859619141 176.1388092041 262.1068115234
160.5692596436 193.1191864014 230.1842041016
132.8220520020 148.1003875732 225.7369995117
158.5939941406 176.7122039795 243.0700073242
154.6621398926 190.6369323730 229.3931884766
156.6788177490 195.4140319824 227.5000000000
164.0852813721 185.3269348145 226.9040069580
150.9636230469 198.1969757080 225.4395904541
164.2182769775 170.9533843994 265.4859924316
146.4051361084 174.1699981689 195.3730010986
128.0197601318 159.2400054932 235.4400024414
156.0252838135 195.5869293213 218.3639984131
144.7238006592 185.4772033691 199.1311950684
163.8874206543 178.2498626709 265.6499938965
165.9602813721 186.2998352051 280.1050109863
165.9188232422 186.6240234375 224.0800018311
161.4455718994 196.2659149170 216.1190032959
156.1782836914 174.5433807373 245.2959899902
148.3683929443 202.0879669189 202.3260040283
142.2864685059 164.2212371826 200.5500030518
152.4117584229 198.2667999268 225.8710021973
168.1179199219 190.1176147461 236.9270019531
142.4292144775 160.1075897217 208.0381927490
142.4916534424 158.8293609619 210.2104034424
137.2216949463 149.7773742676 214.3099975586
140.1952819824 151.6569213867 217.0540008545
144.9416961670 185.4173736572 190.7899932861
146.6208648682 202.3029785156 207.4899902344
142.5721435547 163.0669403076 202.2131958008
123.3482818604 166.6233825684 232.0760040283
135.2540740967 152.8728485107 226.8099975586
135.9067687988 156.2820129395 217.1146087646
125.4767074585 172.3497314453 233.4799957275
164.0579223633 173.7676086426 272.0469970703
170.0489501953 184.4081726074 268.6569824219
147.0672302246 156.8353576660 206.7700042725
139.5359649658 150.3888092041 221.1668090820
159.9051361084 190.5000000000 237.7330017090
126.3982620239 155.9873046875 242.0910034180
139.4936218262 193.7869873047 200.0995941162
156.4682617188 191.8773040771 240.3810119629
166.8516540527 191.8993530273 234.8603973389
169.1152954102 178.6069335938 272.4939880371
156.3327331543 198.8101043701 226.5589904785
142.1946563721 194.6223449707 203.4700012207
136.2216949463 148.2473754883 222.6600036621
171.8231811523 183.7045898438 273.7680053711
138.3727874756 166.4689941406 205.2261962891
161.4884643555 178.5262908936 253.1497955322
140.4463043213 183.8187103271 191.5050048828
137.4472351074 191.5453491211 193.6999969482
138.4459686279 162.2488098145 202.6668090820
123.0033874512 166.1498565674 235.3626098633
145.5113983154 205.3300018311 200.6988067627
144.0188293457 183.7740325928 198.7899932861
155.1808624268 196.8329772949 227.7799987793
135.4802856445 159.2198333740 206.9750061035
159.0297851562 187.0657043457 235.2718048096
155.0608673096 178.8229675293 264.1600036621
136.0646667480 180.6923522949 205.2200012207
130.4897918701 148.3457031250 225.9118041992
139.9172210693 159.4253540039 203.6000061035
155.1808624268 196.8329772949 227.7799987793
151.5583953857 203.4279632568 208.4459991455
121.0082626343 164.3972930908 241.5510101318
164.8321380615 186.8269348145 236.6431884766
153.8036193848 199.0469818115 216.5495910645
161.7531890869 177.2545928955 252.8379974365
136.6547851562 154.6253204346 212.8809967041
131.7342987061 153.1140747070 224.3423919678
139.4533996582 154.6498565674 209.4526062012
152.4927825928 191.0489959717 232.2962036133
125.0407180786 167.9766540527 236.9260101318
122.5846633911 161.3423461914 242.7500000000
165.6840667725 177.0528564453 263.6100158691
176.9618682861 185.7175292969 279.8819885254
143.5233001709 191.1726837158 200.7180023193
161.5908660889 178.4329681396 270.2100219727
141.4786224365 187.5317687988 191.0260009766
126.9940032959 147.2722015381 224.0000000000
156.8252868652 194.7269287109 217.3740081787
148.3072357178 199.8453521729 202.9499969482
157.3716888428 178.2373657227 263.0399780273
151.0016937256 202.2473754883 207.7599945068
143.8882751465 152.7633819580 205.9559936523
143.5940704346 193.9828491211 202.9299926758
167.1389465332 187.5081787109 278.8869934082
171.8231811523 187.8145904541 276.1479797363
159.9508666992 178.4729766846 268.7100219727
139.7147827148 170.0953216553 197.9409942627
122.2607192993 170.9966583252 235.3260040283
136.5936431885 156.7378234863 220.3239898682
168.7738037109 181.2171936035 274.8312072754
143.3321380615 179.9969329834 197.5431976318
143.5349884033 162.8569183350 204.1253967285
143.8340759277 172.7228546143 200.8899993896
127.9888229370 147.5040283203 223.6900024414
143.3616638184 189.4393615723 195.6903991699
159.3816833496 199.8373718262 212.9400024414
143.8394012451 188.3225402832 193.6940002441
159.0955810547 175.9559020996 261.8790283203
141.5816955566 154.0473632812 221.3099975586
134.8943023682 162.3740692139 203.6524047852
155.9102935791 196.0598297119 211.7850036621
165.2040710449 188.2028503418 236.0699920654
159.7146606445 177.3823547363 267.8700256348
157.8452911377 196.6369323730 211.0240020752
142.1257629395 169.2159118652 193.9530029297
131.9547882080 147.7153167725 224.7610015869
143.5792083740 162.4575805664 204.6882019043
137.4932861328 167.2380981445 198.6040039062
136.8999938965 170.4852294922 199.7973937988
135.4497528076 165.3800048828 198.2100067139
163.9799957275 180.3952331543 258.4074096680
137.3697509766 154.1399993896 213.1000061035
155.0916900635 193.9973754883 230.0200042725
166.4492187500 182.8575897217 237.1981964111
164.3813934326 186.1199951172 274.1588134766
149.5519256592 194.2889862061 223.0279998779
164.3697509766 190.0700073242 229.4700012207
174.3616638184 191.2893524170 279.0803833008
166.1438293457 182.5784759521 238.5614013672
142.0136260986 154.4869842529 219.3195953369
145.4898071289 167.0367431641 196.4199981689
162.3043060303 177.4640655518 259.3224182129
126.8721389771 168.8469390869 233.8432006836
138.7246551514 184.7623443604 190.8500061035
127.8866729736 154.4600067139 229.1320037842
126.2540817261 163.7728424072 243.2599945068
138.6116943359 181.1973724365 204.9400024414
127.6236419678 155.8378295898 230.2239990234
176.0540771484 185.8828430176 281.8200073242
167.1308746338 186.8529663086 278.3800048828
135.8688201904 148.6040191650 216.8000030518
171.0947875977 186.1553192139 278.1709899902
129.6983947754 153.3779602051 227.7359924316
167.0836486816 188.4478302002 273.5639953613
153.4789733887 180.4892578125 250.7989959717
175.5489501953 183.7981719971 279.1069946289
132.5951385498 160.4799957275 202.4230041504
162.4116821289 186.3873748779 229.3099975586
147.5016937256 167.9473724365 193.4700012207
147.3339996338 197.7322082520 194.3899993896
137.0791320801 159.8158569336 209.0940093994
143.5974273682 201.6798553467 197.0800018311
175.7421417236 185.0169372559 279.3831787109
143.0859680176 198.4988098145 197.8268127441
147.3016662598 203.7593536377 206.5404052734
156.6940002441 182.6522064209 240.6800079346
152.3314056396 175.6499938965 250.2487945557
154.7451477051 177.9299926758 256.7430114746
140.2074279785 150.3198547363 226.1600036621
162.9888153076 176.8440246582 247.1600036621
156.1488189697 196.2440338135 218.9100036621
163.7933044434 176.5326843262 270.1380004883
150.2588195801 174.8340301514 201.3799896240
134.2567138672 153.7297363281 223.5999908447
145.5264739990 194.4912414551 202.7799987793
150.8646545410 192.9923553467 230.6600036621
145.7227783203 189.9089965820 200.6161956787
135.5133972168 156.7498626709 215.1826019287
159.9766845703 181.9199981689 240.0019989014
143.5767669678 156.0120086670 205.4746093750
148.6379241943 175.6276092529 204.1069946289
160.9172210693 196.2553558350 212.0100097656
142.1046600342 173.8123474121 198.0500030518
150.2588195801 174.8340301514 201.3799896240
138.7572326660 146.2453613281 223.6699981689
163.5238037109 185.5072021484 240.4711914062
135.4813995361 151.4400024414 213.8587951660
164.6727752686 178.3789978027 272.8962097168
136.4686279297 182.3817749023 199.1559906006
161.1302947998 182.2198333740 246.8049926758
123.0620574951 165.3280487061 236.5620117188
174.7143096924 186.5040740967 278.0223999023
144.2636260986 201.4569854736 202.7195892334
130.7738037109 150.9571990967 229.8011932373
163.7852935791 186.0469207764 228.0240020752
159.9508666992 178.4729766846 268.7100219727
167.5908660889 185.5629730225 270.6100158691
139.6636199951 187.6969757080 193.0695953369
163.9027862549 179.1190032959 243.7661895752
156.1585998535 188.5156250000 240.5175933838
146.8021392822 170.6669311523 198.5631866455
134.5489654541 163.5892639160 203.6490020752
140.5788269043 151.1140289307 223.6499938965
162.7027740479 193.2790069580 232.1661987305
147.7927246094 176.0401000977 197.8089904785
160.9239501953 180.1999969482 262.7037963867
164.3839569092 184.9700012207 274.0638122559
132.3636169434 151.9969787598 222.4595947266
160.1118621826 173.7975311279 249.5219879150
154.0927276611 198.6000976562 227.0889892578
162.5327758789 180.5189971924 266.1561889648
