231.7867126465 121.2397232056 200.3800048828
279.9992065430 121.8775939941 164.3881988525
243.1827239990 148.4600982666 201.7389984131
225.8255767822 127.9259109497 203.3190002441
280.3397827148 133.1067504883 144.6699981689
225.9733123779 116.1826934814 206.1380004883
252.2189331055 112.6858367920 181.0719909668
230.6508636475 118.5029754639 201.0399932861
242.5027313232 112.4501037598 169.5389862061
282.6346740723 145.2423553467 141.7100067139
284.4308471680 145.0729675293 146.0800018311
263.7448120117 108.5853195190 155.7109985352
225.3600006104 132.7552337646 201.0473937988
236.4267120361 124.0297241211 209.1799926758
267.6867065430 124.2397232056 156.8699951172
286.6140747070 127.8228378296 153.9899902344
287.8040161133 135.2221984863 137.1399993896
252.7272338867 112.2253570557 177.6000061035
246.2116546631 117.2793579102 191.2904052734
287.3272094727 148.4953613281 142.4499969482
235.1716613770 117.5393524170 218.7004089355
250.6972351074 118.4953536987 182.7200012207
223.4759674072 113.7288055420 203.6768035889
285.2916870117 134.6773681641 149.2400054932
261.4374084473 109.6998672485 159.8600006104
289.9407043457 142.3166503906 140.0060119629
245.1567687988 121.2320175171 181.0846099854
255.8387451172 107.8359909058 164.4786071777
284.4841003418 135.1528472900 150.6399993896
242.9982604980 114.2273101807 183.0709991455
281.8591003418 137.4058685303 152.0039978027
261.8540954590 113.4628448486 166.5800018311
284.2221374512 133.5669403076 148.8231964111
285.1108398438 127.9329681396 153.7099914551
227.4446563721 118.0523529053 206.2400054932
221.3547821045 122.9653244019 200.2209930420
245.4289703369 114.7092666626 180.2289886475
280.5140991211 124.6128387451 156.1999969482
266.2449645996 111.9869232178 161.1953887939
242.5588226318 111.7840270996 177.3999938965
226.8720550537 111.4080505371 210.6720123291
286.7172241211 143.8353576660 139.1000061035
278.6053161621 121.2069168091 164.8240051270
253.7021331787 113.2269363403 178.0131988525
232.9697570801 148.1499938965 196.8899993896
291.2257690430 137.8659057617 146.4430084229
266.5559387207 119.2388000488 157.7568054199
268.2689819336 123.4792633057 154.1389923096
287.5559387207 135.9188079834 140.7568054199
214.7239990234 119.9022064209 199.3500061035
242.0082702637 109.0133743286 171.8359985352
249.0738220215 112.7484817505 174.5014038086
246.0452880859 112.1769180298 177.6540069580
280.9440917969 122.7428436279 163.3600006104
283.5898132324 125.1257171631 151.1417999268
221.9397583008 116.2699966431 199.8400115967
289.1236267090 142.8669738770 144.1095886230
283.5797424316 127.2600021362 146.6900024414
244.2062988281 111.9787063599 180.6349945068
286.1387634277 137.8059997559 148.3186035156
252.0540771484 109.3728408813 171.5399932861
245.4182739258 108.1133728027 168.6159973145
241.2472229004 123.4453506470 208.4100036621
231.0174255371 139.3898620605 205.7599945068
270.3286132812 119.3956069946 160.2875976562
285.3188171387 140.8940277100 140.3199920654
246.2520599365 138.3203887939 199.6970062256
227.0374298096 137.7798614502 204.7299957275
269.7582702637 115.3633728027 156.6360015869
285.2927856445 138.7989959717 153.8562011719
292.7763061523 137.1986999512 145.2250061035
243.7640686035 144.4928436279 205.3999938965
277.1143188477 129.7740631104 151.9024047852
239.9542999268 122.6240768433 195.9723968506
281.2442932129 127.4640808105 152.4824066162
234.9972229004 122.4653549194 201.5900115967
245.9591217041 141.7258605957 202.8840026855
227.6386260986 140.7617797852 202.5959930420
250.5555725098 139.0159149170 204.4290008545
246.1483917236 141.8979644775 199.0159912109
253.0589599609 106.4081878662 166.3069915771
245.2067108154 142.7897338867 202.6900024414
215.0434722900 122.6330490112 205.3659973145
264.3649902344 112.0069198608 157.2453918457
288.9882812500 138.5233764648 144.0859985352
219.6208648682 127.8029708862 209.5099945068
225.6919250488 115.3789901733 201.0880126953
267.3540039062 119.1322021484 153.1399993896
255.1372222900 111.5553512573 160.8500061035
247.2208709717 118.9929733276 195.0199890137
284.3638305664 140.4772033691 150.9311981201
243.9574279785 113.4098663330 171.8000030518
241.8827362061 149.5401000977 202.9689941406
281.4449768066 137.0769195557 152.8353881836
281.6918640137 121.9075241089 161.5319976807
283.2574157715 131.1898651123 148.7700042725
269.4633178711 114.5926971436 161.2279968262
279.3598022461 134.2857055664 152.4517974854
286.8889770508 145.7792663574 147.2789916992
284.6697387695 147.2299957275 143.1600036621
268.8497314453 117.3799972534 155.5299987793
228.6921997070 110.8798675537 206.2500000000
230.8686218262 119.4317703247 215.8860015869
237.5772247314 120.4653549194 201.1000061035
228.8262939453 132.2087097168 200.4149932861
289.8272094727 137.7553558350 135.7700042725
228.3540649414 114.4528427124 210.9499969482
242.6638183594 117.7384796143 201.0614013672
272.1721496582 111.5169372559 157.3931884766
215.0308685303 131.8429718018 208.2299957275
240.1951446533 110.5100021362 170.6730041504
235.9886016846 118.7356109619 206.6076049805
240.3008728027 123.4129714966 199.9899902344
250.7321929932 109.9898681641 164.1699981689
236.3339996338 120.1522064209 206.2799987793
243.3797607422 114.5500030518 185.5700073242
220.7617645264 132.7268066406 206.3209991455
232.2786102295 139.8056182861 204.8675994873
249.1543121338 119.3440780640 182.6923980713
220.9017639160 132.8968048096 208.5510101318
232.8394012451 119.8225326538 217.3140106201
220.9221343994 122.4369354248 199.7031860352
245.2336425781 114.5678253174 172.7439880371
256.4367065430 111.6497268677 161.9900054932
286.5267028809 143.7097320557 147.3199920654
253.9716949463 109.0173721313 166.5599975586
281.8674011230 140.8298645020 147.7700042725
244.9838104248 113.5172042847 179.3011932373
253.9716949463 109.0173721313 166.5599975586
228.0388183594 110.6340255737 209.1699981689
245.3136291504 112.8469772339 168.7095947266
276.4816894531 132.1293487549 154.6304016113
275.9140014648 122.2322082520 164.0599975586
277.2640075684 121.6722030640 158.9900054932
230.1749877930 139.5869293213 199.7453918457
247.6392059326 119.4175949097 187.6681976318
231.3282623291 117.7173080444 219.1809997559
254.3867034912 111.5797271729 160.3699951172
243.2057647705 113.6759033203 183.5429992676
231.3317565918 140.1567993164 199.3310089111
243.8840026855 113.3422088623 186.1300048828
222.7089691162 115.5792617798 196.7189941406
246.0088195801 110.2340240479 174.1999969482
247.3474273682 119.7098693848 193.6199951172
231.8467102051 119.6897277832 216.8899993896
236.2197570801 116.9599990845 199.9800109863
275.9140014648 122.2322082520 164.0599975586
293.2818908691 136.5975189209 138.1019897461
243.2374267578 116.7198715210 176.5400085449
234.5816650391 122.8493576050 203.0503997803
243.6498107910 110.9867553711 165.5299987793
236.9627838135 142.5690002441 205.0161895752
225.8733978271 121.2198715210 203.6526031494
292.2032775879 138.1580963135 136.6739959717
286.7789611816 129.0792694092 150.5089874268
238.4752960205 142.5569305420 202.3240051270
248.6117553711 107.8968048096 164.2310028076
259.4428100586 116.0889892578 165.5861968994
256.1188049316 106.9840240479 162.4700012207
290.8931884766 139.6145782471 147.7879943848
235.3857574463 144.3659057617 198.5230102539
247.6467132568 146.6297302246 200.4499969482
231.7189483643 117.4981842041 203.2169952393
233.5933990479 138.4498596191 207.9226074219
285.1392211914 133.8675842285 151.5281982422
282.2386169434 129.3717651367 148.1159973145
242.7925872803 113.0400009155 164.5780029297
283.7140197754 128.1822052002 153.0599975586
245.8216857910 108.9673690796 187.9900054932
235.3672332764 117.0853576660 218.7900085449
258.4174194336 112.1598663330 162.4100036621
288.0674133301 143.0698547363 141.7100067139
243.1508636475 118.6229705811 197.5000000000
286.8889770508 145.7792663574 147.2789916992
230.9857635498 116.1359024048 217.9629974365
241.8339538574 117.2799987793 188.1838073730
230.4440765381 133.8328552246 202.4099884033
218.8467102051 132.6897277832 204.3000030518
249.0840759277 113.9128417969 184.0399932861
285.5697326660 142.4199981689 145.6399993896
245.8983917236 119.1079635620 192.9160003662
229.6094055176 141.1525421143 204.0240020752
280.6557617188 142.8259124756 148.4629974365
251.7789459229 106.0081863403 164.6369934082
231.6336517334 119.7978210449 212.9539947510
242.3162994385 108.5787048340 173.0650024414
246.8036499023 114.3878250122 169.7239990234
223.3055725098 130.5559082031 212.1589965820
268.9089660645 112.2892608643 151.5390014648
237.7467651367 124.8720169067 198.5246124268
250.3198089600 112.0267562866 176.2299957275
285.9797363281 147.8200073242 142.1699981689
242.5292663574 118.6391983032 190.2742004395
249.6362915039 104.6087036133 163.8249969482
242.6316680908 113.6893539429 168.6903991699
251.6055755615 138.2559051514 202.1790008545
246.6327819824 139.3990020752 203.3562011719
244.8282775879 112.7133712769 186.0859985352
226.8508605957 114.5629730225 210.6699981689
247.4016876221 108.8373718262 169.4400024414
280.1390991211 133.3758544922 153.7440032959
256.2972106934 108.7353515625 160.7900085449
249.4237976074 117.6272048950 187.4212036133
231.1421356201 117.2469329834 202.1231994629
243.5443115234 142.8340759277 198.3623962402
286.3992004395 138.1475830078 151.9382019043
222.9247894287 113.2553253174 204.2910003662
243.6486053467 114.2856140137 184.2276000977
222.7249908447 123.0669250488 200.6553955078
240.2752838135 120.8469161987 199.4739990234
287.3357849121 135.1659088135 139.7830047607
235.2674255371 123.7998657227 208.3399963379
240.8246612549 112.1123504639 176.8399963379
246.4567108154 118.6797256470 193.1699981689
265.9503173828 106.8198394775 165.4550018311
246.3139495850 117.7699966431 174.0138092041
249.1543121338 119.3440780640 182.6923980713
231.9986114502 118.7356109619 203.3675994873
216.4317626953 132.7368011475 205.1110076904
230.1143035889 118.7340774536 200.7624053955
228.6218566895 129.9275207520 209.4619903564
277.9288024902 121.8040237427 160.3899993896
267.3014221191 113.4000015259 156.4888000488
238.8839569092 120.7699966431 204.9038085938
252.0488281250 108.0640258789 170.9799957275
240.6382598877 111.0773086548 170.3509979248
219.9913940430 118.1900024414 199.5088043213
250.3067169189 119.1097259521 184.1199951172
231.7425842285 109.5899963379 206.4980010986
236.9036560059 120.7678222656 205.0339965820
267.4672241211 108.4053573608 159.3000030518
279.4879150391 130.1476135254 157.9869995117
258.2651367188 114.6500015259 160.1430053711
279.1264648438 123.1712341309 154.4800109863
251.5907135010 143.7766571045 202.6360015869
238.8732757568 121.0381011963 195.2039947510
227.7167053223 131.6297302246 210.2400054932
222.8616638184 132.7093505859 208.7404022217
236.0440673828 117.1328430176 215.4899902344
250.9439544678 117.3199996948 175.0138092041
270.8516845703 118.8773727417 154.4799957275
286.7797546387 138.6900024414 137.1600036621
240.1652832031 115.0069198608 199.2839965820
231.8751373291 136.2599945068 198.6130065918
236.0982666016 121.5073089600 198.9309997559
235.2139587402 136.4799957275 196.3438110352
247.3464660645 112.6412353516 189.6200103760
259.8564758301 107.9612350464 164.8099975586
219.8602905273 127.3598403931 209.3750000000
220.2572326660 123.7853546143 198.3099975586
244.2416534424 119.7493591309 195.2104034424
232.6288299561 109.7540283203 211.5099945068
277.9282836914 123.1433715820 154.4960021973
247.1125793457 117.6299972534 192.2579956055
262.7767944336 111.6920166016 156.0946044922
235.5408630371 118.6829681396 205.6799926758
238.8174285889 125.2998657227 208.8399963379
229.5767059326 140.9797363281 204.4900054932
269.5916748047 112.8193588257 153.7704010010
217.4679107666 131.2276153564 209.4969940186
270.0388183594 118.0440292358 155.3199920654
223.1665802002 122.2016906738 201.6958007812
252.9038238525 140.1884765625 202.2413940430
272.9297485352 123.6999969482 157.1399993896
239.0200042725 121.8408432007 212.2600097656
275.8940124512 120.9622039795 159.6999969482
286.6140747070 127.8228378296 153.9899902344
254.0236206055 112.1469802856 162.9196014404
233.4239959717 107.6222076416 208.1200103760
246.4386138916 118.8056106567 185.8675994873
246.3399963379 109.9308471680 190.8800048828
248.1284637451 114.1162796021 173.2498016357
270.5556030273 114.9159164429 161.5090026855
225.1352844238 129.0669250488 211.0740051270
288.2588195801 143.3340301514 150.4799957275
293.5843200684 143.1940765381 145.4123992920
234.6067047119 123.0797271729 202.9900054932
245.3136291504 112.8469772339 168.7095947266
248.6117553711 107.8968048096 164.2310028076
233.7282714844 133.6633758545 199.5260009766
243.5443115234 142.8340759277 198.3623962402
243.0767059326 147.9597320557 204.9299926758
241.0608673096 113.2029724121 177.6799926758
235.7027740479 137.1390075684 205.9962005615
246.7118682861 110.4875259399 167.4819946289
245.1140747070 113.7528381348 168.6399993896
271.5540771484 112.3728408813 159.0800018311
261.4374084473 109.6998672485 159.8600006104
220.3208618164 132.3129730225 210.1699981689
248.8099975586 112.7752380371 173.4173889160
228.6921997070 110.8798675537 206.2500000000
242.8239898682 119.5322036743 196.4000091553
218.7091217041 122.4858627319 206.1739959717
263.3378906250 109.4776229858 169.1069946289
235.6382598877 122.2073059082 211.8010101318
287.2840270996 137.4822082520 137.7200012207
282.1336364746 141.8169860840 148.2095947266
251.7467041016 113.7397232056 180.4199981689
251.3088226318 105.7940292358 161.3799896240
283.5643005371 138.4040679932 146.7523956299
241.0597839355 116.2557144165 190.1018066406
245.5007324219 140.1199951172 198.8626098633
260.8157653809 108.0559005737 167.4830017090
251.8267059326 113.9397277832 167.9900054932
228.0388183594 110.6340255737 209.1699981689
244.5092163086 113.7775955200 195.9382019043
222.5267639160 127.1220169067 201.5246124268
284.0328063965 134.5189971924 153.4461975098
223.7907104492 131.9366455078 204.5760040283
247.6046600342 142.2623443604 202.9400024414
293.9989624023 139.9292602539 144.8190002441
247.3972320557 112.9053573608 181.0700073242
291.9516601562 140.8773651123 143.5700073242
242.6443023682 122.9540786743 195.7823944092
272.3646850586 122.9523468018 158.5399932861
228.3282775879 113.2333755493 201.6360015869
235.9397888184 139.0457153320 203.6818084717
250.7316894531 117.5273666382 185.6800079346
258.1336364746 116.7569808960 162.5795898438
286.6838073730 142.2771911621 151.0312042236
236.2743072510 137.7340698242 197.2223968506
216.7959594727 128.4488067627 207.4468078613
234.9967651367 117.2620162964 209.0046081543
220.6564636230 120.6412353516 205.8099975586
250.9439544678 117.3199996948 175.0138092041
215.9057617188 130.1159057617 205.9230041504
246.5637969971 115.5672073364 192.6511993408
266.8497314453 120.3399963379 152.5800018311
240.1979217529 122.0676269531 212.3669891357
246.9640655518 112.2128448486 191.2599945068
242.6046600342 112.9323501587 178.3000030518
259.5819091797 112.6589889526 163.1280059814
270.1743164062 112.1340789795 153.7924041748
241.8462982178 108.8287048340 167.9149932861
251.1286010742 108.0056076050 162.7575988770
246.6459655762 142.7588043213 196.9568023682
291.5340270996 135.6322021484 136.8399963379
270.9389648438 111.9792633057 155.0289916992
223.8107299805 130.6000061035 201.2526092529
235.5327301025 117.5101013184 219.8589935303
251.7616882324 111.9773712158 169.5099945068
277.6440124512 124.1422042847 151.1100006104
275.3186035156 128.3556213379 155.6376037598
240.2957611084 109.4959030151 169.1329956055
241.5859680176 115.3288040161 193.7068023682
283.5797424316 127.2600021362 146.6900024414
286.3992004395 138.1475830078 151.9382019043
219.5527343750 130.7901000977 208.9689941406
230.5282592773 119.5973052979 201.7010040283
248.0052947998 111.9169235229 197.0039978027
282.6997375488 143.3899993896 137.4500122070
247.2034759521 146.2330474854 199.6560058594
262.6587524414 109.2359924316 158.2686004639
248.7282714844 104.0533752441 167.0859985352
214.7659606934 120.9388046265 201.8168029785
252.4707183838 112.3466415405 168.6160125732
279.1439819336 128.9299926758 150.0838012695
236.4267120361 124.0297241211 209.1799926758
252.2172241211 113.3253555298 166.5900115967
227.2651367188 135.7400054932 200.4530029297
224.6499938965 126.5952377319 200.7574005127
249.7133026123 116.3226928711 186.4580078125
246.0367584229 119.2220153809 175.1646118164
234.0316619873 142.6493530273 203.2104034424
232.4140014648 108.3922042847 206.8800048828
234.9033966064 142.7198638916 204.6325988770
279.5755920410 122.3859176636 159.2290039062
218.5467681885 116.7020187378 196.7946014404
230.5608673096 118.7429733276 217.4499969482
275.4699707031 121.2052383423 156.1073913574
291.6542968750 143.7040710449 143.7424011230
286.3227233887 146.6701049805 149.3089904785
238.4752960205 142.5569305420 202.3240051270
244.7039489746 118.9800033569 175.5538024902
287.7959594727 135.0988006592 138.6768035889
242.2608642578 144.6029663086 205.1199951172
255.0164642334 106.9512329102 164.2500000000
220.7551422119 114.5999984741 196.3130035400
239.5920562744 114.5880508423 197.6620025635
244.6782836914 113.9633712769 192.5260009766
276.7338256836 124.7072067261 164.9911956787
222.5740661621 122.5528411865 206.0199890137
224.7855834961 118.2659149170 202.0090026855
280.5632629395 136.2980957031 143.5740051270
242.2608642578 144.6029663086 205.1199951172
282.8367004395 138.1497344971 146.7200012207
282.9841003418 132.0528564453 155.4499969482
231.2816925049 135.2073669434 199.4499969482
245.3608703613 143.8929748535 201.8300018311
241.4085998535 113.7456130981 177.8175964355
248.5727844238 112.1689910889 176.4861907959
267.3731994629 107.9645767212 161.7679901123
284.2485961914 142.4556121826 150.5776062012
243.6427764893 109.3989944458 172.0661926270
248.7282714844 104.0533752441 167.0859985352
286.1639709473 141.9600067139 141.8338012695
234.7746582031 122.6223526001 211.2899932861
253.2643127441 110.7940750122 158.0223999023
250.1038055420 116.5072021484 179.4911956787
267.6766967773 115.0397262573 158.5699920654
276.9432678223 127.9481048584 150.8339996338
238.3867034912 125.9997253418 211.7899932861
276.2357788086 135.8659057617 145.3130035400
284.7240905762 147.2928466797 140.8699951172
233.6546630859 114.6723480225 202.6999969482
222.3259582520 129.5988006592 210.1668090820
283.7052917480 128.0069274902 154.9540100098
249.0217590332 109.0368041992 169.3110046387
253.1246643066 108.6123504639 165.3199920654
235.9886016846 118.7356109619 206.6076049805
266.5885925293 112.4856109619 160.6076049805
285.1567077637 142.7500000000 136.4320068359
243.6932830811 113.4781036377 171.0540008545
220.6508636475 132.4829711914 207.8899993896
229.9166870117 116.0999984741 210.3320007324
270.8553161621 110.1669235229 158.7539978027
234.3259582520 145.9588012695 200.0268096924
280.3806762695 134.7110290527 153.1702117920
284.0716857910 146.9293518066 151.0904083252
261.0746765137 107.8923492432 160.4199981689
253.2721405029 111.2569351196 167.4431915283
222.7164764404 123.2712326050 204.5700073242
252.8616943359 108.8973693848 170.1399993896
247.9308624268 107.0129699707 165.5800018311
271.7149658203 116.2969207764 160.1053924561
241.9349975586 118.9669189453 202.6653900146
249.3440704346 143.2428436279 204.0599975586
226.8688201904 111.9440231323 204.3699951172
273.1192016602 114.1975936890 159.3381958008
226.9717559814 137.2768096924 201.6710052490
286.2846679688 140.7223510742 146.1300048828
247.4016876221 108.8373718262 169.4400024414
283.2259521484 126.1688003540 151.1468048096
248.6437988281 117.2572021484 188.6212005615
219.3086090088 124.4956130981 205.5776062012
218.2416534424 132.6793518066 207.5803985596
232.0716857910 136.5473632812 207.3999938965
292.6940002441 138.0122070312 144.5800018311
247.0384674072 118.7562789917 175.1098022461
248.0540008545 104.1122055054 165.7500000000
290.4483642578 141.5179595947 138.1860046387
225.0308685303 132.5929718018 208.9799957275
291.1972045898 145.2953491211 146.4600067139
244.1597595215 112.3499984741 170.9600067139
240.2536315918 144.5769805908 199.9095916748
291.3171997070 141.7953491211 142.7300109863
234.2533111572 139.2526855469 206.2680053711
213.6546630859 120.3623504639 200.1900024414
232.3521423340 134.8669281006 205.8731994629
230.5008697510 120.2929687500 200.9400024414
263.7582702637 105.7433700562 158.1060028076
243.9852905273 108.1669235229 170.6040039062
286.6400146484 143.1808471680 145.3000030518
221.4267578125 133.4820098877 210.6246032715
237.1597595215 119.0500030518 199.6200103760
214.6419219971 120.7789916992 203.9380035400
226.0233917236 136.7998657227 208.8825988770
251.0586090088 115.0456085205 180.2375946045
239.4397888184 111.2057189941 167.9318084717
225.4016876221 114.8473663330 198.3099975586
270.8553161621 110.1669235229 158.7539978027
252.7467041016 113.0997238159 159.9900054932
244.4516906738 141.8473663330 199.0800018311
246.8036193848 119.8869781494 179.5095977783
252.2099914551 110.4608459473 180.1199951172
259.1047973633 111.5953216553 159.3009948730
233.5439910889 114.3622055054 212.5400085449
228.2286071777 112.5156097412 212.3675994873
249.1089324951 118.0258331299 196.5419921875
227.2399902344 128.5108489990 210.8899993896
243.9391326904 117.6358642578 189.0140075684
282.6204833984 134.5469360352 153.5874023438
227.7167053223 131.6297302246 210.2400054932
243.6072235107 110.5153503418 186.7799987793
226.8336181641 117.3569793701 203.5095977783
228.3604736328 135.3569335938 208.7873992920
227.3759613037 136.0988006592 200.4268035889
289.4916687012 143.3593597412 148.2604064941
236.2889709473 147.6992645264 196.2289886475
279.0671997070 125.0853576660 159.7100067139
249.5637969971 116.0172042847 196.9311981201
240.1964721680 115.7912368774 201.4499969482
251.0520629883 110.4180526733 163.7420043945
246.1483917236 141.8979644775 199.0159912109
290.3992004395 137.3775939941 148.4981994629
220.3436431885 128.1678314209 201.7339935303
232.3816833496 134.3673706055 205.9400024414
228.3663024902 114.6387023926 200.8950042725
287.9616699219 147.5773773193 143.2899932861
242.3314056396 112.5299987793 186.6988067627
257.5567932129 117.2220153809 163.2846069336
267.3540039062 119.1322021484 153.1399993896
217.8897552490 131.3999938965 202.6200103760
283.8214111328 140.0000000000 146.1287994385
242.2555847168 139.4159088135 197.7890014648
288.8863220215 134.4987030029 138.5650024414
290.8931884766 139.6145782471 147.7879943848
247.0427856445 120.0989913940 183.3861999512
232.3940734863 138.5628509521 207.4399871826
249.5067138672 119.3797225952 180.9400024414
247.2208709717 118.9929733276 195.0199890137
243.6072235107 110.5153503418 186.7799987793
229.1463012695 134.1687011719 199.2350006104
247.4727325439 118.8401031494 195.2289886475
291.3808593750 138.5729675293 147.5699920654
282.1791076660 145.6858673096 138.9140014648
231.6674194336 141.4298553467 198.2299957275
251.1872253418 143.3553466797 199.3000030518
287.1457824707 135.3359069824 137.6730041504
248.5727844238 112.1689910889 176.4861907959
238.8732757568 121.0381011963 195.2039947510
233.5059661865 118.4588012695 209.0968017578
285.1440734863 132.5628509521 152.3999938965
272.3646850586 122.9523468018 158.5399932861
227.4446563721 118.0523529053 206.2400054932
246.1297607422 142.8800048828 197.9900054932
248.2014007568 116.1299972534 175.4087982178
250.7631835938 115.7045745850 184.6380004883
287.6488037109 143.0840301514 152.0699920654
247.3517608643 146.9168090820 196.1210021973
237.1597595215 119.0500030518 199.6200103760
233.9036254883 120.8769836426 209.6295928955
281.5459594727 138.8888092041 149.1168060303
243.9697875977 115.2257156372 184.8818054199
279.9072265625 135.2853546143 143.3400115967
279.7016601562 124.1673736572 160.5500030518
237.1420593262 116.3080520630 197.1320037842
270.1743164062 112.1340789795 153.7924041748
247.9308624268 107.0129699707 165.5800018311
246.7736206055 119.2669830322 178.1396026611
266.9019165039 118.4689865112 155.5279998779
226.1797790527 108.6357192993 211.1118011475
214.7659606934 120.9388046265 201.8168029785
240.9821929932 113.9898681641 196.5699920654
258.5340270996 108.5122070312 161.2700042725
235.6274261475 122.4198684692 206.5599975586
224.2072296143 115.8753509521 201.0800018311
251.9638061523 112.0272064209 169.7111968994
244.2338104248 112.9072036743 190.7812042236
232.9697570801 148.1499938965 196.8899993896
258.6197509766 111.0999984741 161.5700073242
291.2159423828 138.7788085938 147.2268066406
234.0888214111 107.7540283203 209.5200042725
233.6218566895 109.7475280762 210.2619934082
260.8959350586 106.4888000488 160.5268096924
287.1716613770 146.2673645020 139.4900054932
249.6362915039 104.6087036133 163.8249969482
222.7407073975 122.4666442871 203.1360015869
283.2259521484 126.1688003540 151.1468048096
288.3166809082 142.7899932861 144.1119995117
288.0343017578 146.4940643311 140.0923919678
246.3643035889 114.8240814209 181.0523986816
258.4174194336 112.1598663330 162.4100036621
263.9118652344 113.5175247192 162.6519927979
277.9972229004 131.9753570557 153.9000091553
248.1967163086 119.6597290039 178.5500030518
236.7592163086 137.6475830078 206.3881988525
279.1264648438 123.1712341309 154.4800109863
265.6386108398 121.7956085205 157.4176025391
245.4289703369 114.7092666626 180.2289886475
290.0542907715 142.1440734863 140.0223999023
244.8606872559 118.8810272217 189.5402069092
284.3964843750 142.8512420654 141.4400024414
251.7616882324 111.9773712158 169.5099945068
274.3339843750 130.9799957275 151.9237976074
229.7979125977 134.2976226807 203.2569885254
241.7908630371 147.0129699707 205.4899902344
266.5559387207 119.2388000488 157.7568054199
242.0116577148 123.9493560791 198.0503997803
238.0692138672 141.9175872803 203.0981903076
225.8992156982 119.4075927734 200.8582000732
240.0351409912 121.0199966431 194.6829986572
279.9221496582 122.5569305420 163.4631958008
226.2039947510 111.8122024536 202.9700012207
270.4002990723 108.9298400879 152.9349975586
228.3663024902 114.6387023926 200.8950042725
246.8440704346 116.0728378296 192.4899902344
224.7440643311 114.3528442383 201.1299896240
235.3672332764 117.0853576660 218.7900085449
231.2588195801 135.7140197754 208.2399902344
243.7589416504 146.6558227539 205.6519927979
244.3666839600 117.1900024414 186.1020050049
262.5967102051 109.9000015259 159.9720001221
267.0172119141 112.8253555298 153.0299987793
250.7889556885 144.1981811523 198.6069946289
242.4489746094 148.6492614746 200.9389953613
283.9533691406 141.3498687744 137.9026031494
229.8564758301 133.2812347412 207.8800048828
235.7027740479 137.1390075684 205.9962005615
241.6946563721 117.6323471069 194.5699920654
292.0889282227 144.1758270264 149.6819915771
224.4127807617 125.9889907837 203.8262023926
244.1055755615 108.9259185791 177.0690002441
287.7959594727 135.0988006592 138.6768035889
289.8272094727 137.7553558350 135.7700042725
251.3316955566 117.5773696899 183.5599975586
230.6621398926 136.6569366455 202.1931915283
247.3533020020 114.3426971436 190.3480072021
230.0399932861 115.8752365112 205.5173950195
259.1047973633 111.5953216553 159.3009948730
220.6708679199 118.8929748535 204.5999908447
287.7527160645 148.0601043701 143.3190002441
237.4443054199 122.8040771484 207.4824066162
275.1749877930 126.5269241333 163.7953948975
232.6152954102 135.6069335938 206.8540039062
250.4089508057 141.2881774902 195.8970031738
246.9282836914 111.7033767700 194.7359924316
235.1336212158 145.1769866943 199.9095916748
228.3282775879 113.2333755493 201.6360015869
222.5267639160 127.1220169067 201.5246124268
282.3940124512 130.4721984863 149.3899993896
277.6440124512 124.1422042847 151.1100006104
251.6692047119 140.1575927734 203.2781982422
216.3802947998 119.9798431396 200.5350036621
245.7799987793 108.7208480835 191.1000061035
227.9972229004 116.5353546143 199.2600097656
267.2940979004 107.9628448486 161.5399932861
238.3155822754 138.5959167480 204.4490051270
219.0759582520 116.9788055420 201.7768096924
285.5697937012 137.8757019043 147.0218048096
238.0116577148 120.9993591309 202.6004028320
234.2466735840 121.0400009155 207.4219970703
245.0640716553 142.9828491211 202.3300018311
230.0399932861 115.8752365112 205.5173950195
249.5746612549 106.1223526001 160.8199920654
279.5567016602 131.7497406006 156.0399932861
235.8416595459 149.4993591309 199.4703979492
244.4194030762 115.2325363159 167.4340057373
253.5189514160 107.9581832886 168.0869903564
226.8264770508 129.6112365723 204.9100036621
280.1316833496 138.5393524170 148.3204040527
226.9392089844 129.0675811768 202.1681976318
222.8833923340 117.2598724365 207.9126129150
255.1138000488 109.9072036743 166.1511993408
231.2757568359 116.0659027100 215.7530059814
249.4625854492 114.0800018311 175.2779998779
233.5120544434 120.0680541992 209.2420043945
232.2908630371 135.8329772949 203.4299926758
266.0552978516 107.6569213867 166.4140014648
288.4797363281 137.0800018311 135.4900054932
226.4486083984 119.0556106567 203.4376068115
279.4879150391 130.1476135254 157.9869995117
254.0618591309 110.6775207520 158.8819885254
291.6542968750 143.7040710449 143.7424011230
250.1097564697 111.3399963379 158.2000122070
244.1467132568 115.8397293091 182.2400054932
230.1979217529 118.8876266479 207.3069915771
239.7152862549 115.8169174194 200.4739990234
234.2459564209 144.5888061523 197.6968078613
238.8739929199 114.5022048950 197.5899963379
246.7699890137 120.6752395630 186.5173950195
246.3127746582 119.2989959717 179.0061950684
223.3792114258 124.2875976562 200.9881896973
242.3162994385 108.5787048340 173.0650024414
244.1114044189 115.8300018311 186.1688079834
227.6982727051 110.7233734131 207.0359954834
232.7674255371 149.2098541260 197.7299957275
236.9446563721 142.2023468018 197.9600067139
233.4474182129 122.8498687744 202.1500091553
234.9286041260 144.0156250000 202.1775970459
219.5147857666 113.5953216553 196.4109954834
246.3339538574 139.7799987793 197.7938079834
262.4898071289 104.0467529297 162.8600006104
227.9972229004 116.5353546143 199.2600097656
243.4027862549 114.4289932251 197.8562011719
245.1318664551 145.8475189209 203.2719879150
231.0467071533 138.0797271729 207.9599914551
233.9292144775 115.4275970459 209.6882019043
243.8397521973 109.2099990845 186.8700103760
224.7159576416 112.8488006592 203.7868041992
267.9374084473 114.4398651123 156.0099945068
285.6086120605 140.8756256104 141.3876037598
284.9726562500 136.5368041992 151.7830047607
241.5017547607 148.1268005371 200.5210113525
231.3982543945 136.7572937012 201.8610076904
242.1736297607 118.2569808960 192.7995910645
243.9297790527 117.9557189941 177.4718017578
291.1446838379 137.4823455811 146.7299957275
287.6717529297 137.9568023682 136.8610076904
220.6699981689 116.1752395630 196.0273895264
234.7108612061 143.7429656982 202.3099975586
283.0440979004 129.9428558350 156.1299896240
267.7027282715 124.3701019287 156.1689910889
244.8546600342 108.3323516846 169.7200012207
289.0621337891 145.0069274902 141.4531860352
291.2416687012 140.4073638916 141.5000000000
235.6527862549 138.2989959717 208.3061981201
242.5247802734 115.6253204346 188.9510040283
243.0508728027 114.8929748535 187.8099975586
246.4664764404 111.5312347412 176.5700073242
281.8720703125 144.2680511475 137.8220062256
266.0682373047 121.7173080444 158.5210113525
226.1639556885 134.7500000000 203.8338012695
251.8802947998 105.1998443604 167.5249938965
271.3367004395 113.4297256470 158.2400054932
280.7267150879 123.7997283936 162.5200042725
250.3067169189 119.1097259521 184.1199951172
252.7899932861 118.2452392578 175.3973999023
266.3567199707 111.3497238159 165.6799926758
265.0018920898 105.6875228882 163.8119964600
263.2072143555 112.6353530884 159.8200073242
253.4562988281 106.7187042236 159.9649963379
253.8536224365 111.8869781494 161.4496002197
235.0779113770 148.5676116943 200.7269897461
242.1736297607 118.2569808960 192.7995910645
242.1264648438 139.4112396240 200.2900085449
245.0522003174 139.4498748779 199.3799896240
284.3583679199 146.1179656982 136.3659973145
222.0138092041 122.8272018433 206.2211914062
248.2662963867 139.8887023926 195.0850067139
246.2339630127 113.9700012207 166.3038024902
255.7972259521 112.1353530884 162.8400115967
239.0882720947 114.7933731079 197.0159912109
244.1114044189 115.8300018311 186.1688079834
223.4552917480 125.9569168091 205.4540100098
237.2965850830 142.9516906738 203.3157958984
265.9336242676 113.3969802856 153.4095916748
246.5552825928 113.4469223022 191.7440032959
223.1665802002 122.2016906738 201.6958007812
234.7172241211 119.6053543091 214.0100097656
264.0933837891 111.1498718262 164.3226013184
239.5717620850 124.1368026733 197.6510009766
246.7767639160 107.0320205688 168.2046051025
282.9974060059 147.0498657227 141.1500091553
244.6467590332 121.2020187378 187.2846069336
280.1618652344 123.8075256348 161.3919982910
282.9985961914 128.7456207275 151.4676055908
223.2367706299 133.2820129395 201.8146057129
275.6449890137 132.7469177246 154.2253875732
235.3549957275 139.7469177246 207.1553955078
236.0221405029 138.8569335938 203.0531921387
232.7821350098 112.1269302368 209.3631896973
283.1249694824 146.7469177246 151.8553924561
220.6708679199 118.8929748535 204.5999908447
281.7373962402 143.6698608398 146.1800079346
249.7743072510 117.2140808105 181.9024047852
260.6086120605 111.8956069946 164.4476013184
238.5097503662 144.2200012207 197.3500061035
250.2246551514 111.7023468018 180.1399993896
222.4259643555 128.8388061523 209.0268096924
220.3208618164 132.3129730225 210.1699981689
295.0489501953 140.7781829834 146.1069946289
254.5099945068 115.1252365112 178.0573883057
242.3197479248 120.7399978638 195.8400115967
264.7127075195 111.5801010132 166.7689971924
266.3151550293 122.5000000000 153.7330017090
249.6297607422 111.9400024414 177.5100097656
246.4586029053 142.7756195068 202.5276031494
277.5792236328 118.5675964355 159.0081939697
250.3439941406 141.4721984863 199.5800018311
254.7467041016 112.1697235107 162.2500000000
247.5582733154 114.9233703613 185.4459991455
288.1189575195 145.6592559814 149.0789947510
238.5321960449 115.7098693848 196.0399932861
269.1657714844 108.8159027100 154.9530029297
247.5836181641 107.7269821167 167.5395965576
245.5786132812 114.2156143188 197.4575958252
284.8882446289 147.7073059082 145.5910034180
236.8755798340 114.3359146118 210.5390014648
251.2892150879 114.2675933838 168.7381896973
286.5242919922 143.2640686035 145.9423980713
225.6997833252 135.3057098389 207.7317962646
288.1272277832 139.3653564453 137.4400024414
241.5992126465 120.4375915527 206.4382019043
226.6497497559 115.8600006104 198.9800109863
233.5120544434 120.0680541992 209.2420043945
224.7916870117 126.9573669434 203.7500000000
242.0672302246 144.3653564453 198.9300079346
226.3239593506 120.7500000000 200.5838012695
233.7940673828 135.7228546143 203.7099914551
266.0682373047 121.7173080444 158.5210113525
232.8267059326 141.6597290039 199.0699920654
291.1972045898 145.2953491211 146.4600067139
242.8608703613 114.8929748535 182.8000030518
217.1459655762 120.2088012695 204.2068023682
284.8072204590 130.8053588867 148.2100067139
288.0099792480 142.8852386475 142.2173919678
248.7367095947 117.9397277832 187.8399963379
264.7736206055 112.6378250122 157.3739929199
294.7421264648 140.5569305420 148.8931884766
239.2952880859 116.0369186401 204.9540100098
229.0916900635 132.0573730469 208.2100067139
285.9797363281 147.8200073242 142.1699981689
283.5898132324 125.1257171631 151.1417999268
281.4751281738 143.9100036621 146.4329986572
223.3055725098 130.5559082031 212.1589965820
293.7402954102 137.3898315430 147.2550048828
241.3447875977 139.2353210449 195.8710021973
246.6459655762 142.7588043213 196.9568023682
278.4697265625 121.2900009155 160.7400054932
256.1188049316 106.9840240479 162.4700012207
230.0399932861 115.8752365112 205.5173950195
267.6867065430 124.2397232056 156.8699951172
230.9857635498 116.1359024048 217.9629974365
229.5564727783 111.0512313843 208.0700073242
229.9166870117 116.0999984741 210.3320007324
250.0474243164 145.0098571777 201.0099945068
267.7216796875 106.2373733521 161.3000030518
234.5139923096 117.9822082520 207.6000061035
251.7467041016 113.7397232056 180.4199981689
255.4539947510 106.8522033691 161.0700073242
241.7988281250 121.9940261841 199.7099914551
233.8074188232 120.2498703003 207.8800048828
248.4589385986 114.4158325195 185.0119934082
247.0240783691 113.1028442383 197.5000000000
246.8352813721 113.7869186401 184.9239959717
215.2586212158 123.8517761230 202.9859924316
258.1065979004 110.8716888428 164.8957977295
288.7304992676 139.2669372559 149.9873962402
233.1674194336 119.9898681641 214.5700073242
266.6473999023 121.3998641968 153.4199981689
293.4618835449 143.3675231934 147.3019866943
223.2872314453 116.9453506470 200.1200103760
251.1989593506 116.5081863403 194.2570037842
240.8434753418 112.9130477905 174.3860015869
223.3639984131 113.9922027588 201.3600006104
275.1482543945 124.1173095703 165.3209991455
235.7557678223 119.9259033203 197.7129974365
240.1902923584 120.1698455811 211.5549926758
248.2988281250 113.4440231323 178.2399902344
249.8588256836 114.5640258789 183.5299987793
228.7691345215 115.0558624268 211.8540039062
240.0755767822 138.8359069824 198.9689941406
234.5489654541 117.7592620850 200.2689971924
234.8374176025 144.4598541260 200.9100036621
239.2967071533 119.9197235107 199.5699920654
270.6802978516 109.4398422241 157.4649963379
243.8836517334 119.6078262329 193.6439971924
227.3859558105 117.6088027954 204.4368133545
231.4839935303 116.9522094727 199.3600006104
231.1421356201 117.2469329834 202.1231994629
242.8319244385 109.2789916992 190.1480102539
235.5920562744 114.8303833008 209.7070007324
286.7255859375 138.1059112549 144.4089965820
280.2886047363 132.1956176758 153.7575988770
263.8492431641 111.4191970825 161.1842041016
243.2297515869 116.1200027466 172.9600067139
277.3119201660 133.8789825439 145.4780120850
252.7467041016 113.0997238159 159.9900054932
222.7407073975 122.4666442871 203.1360015869
267.0782775879 109.7233734131 152.9559936523
246.7686157227 119.4317703247 193.6859893799
267.3540039062 119.1322021484 153.1399993896
292.1897277832 139.2200012207 144.0200042725
288.1272277832 139.3653564453 137.4400024414
293.4252929688 139.2069244385 150.2539978027
269.1657714844 108.8159027100 154.9530029297
229.5427246094 141.0601043701 202.6289978027
217.7674255371 116.5898666382 202.0899963379
267.2733764648 120.7698745728 160.0726013184
285.6267089844 148.5197296143 144.8399963379
220.3757629395 130.2759094238 209.3630065918
238.4752960205 142.5569305420 202.3240051270
249.5446624756 110.5923461914 159.6000061035
242.7643127441 143.9540710449 199.0023956299
244.3736267090 113.7569808960 172.0395965576
251.3082733154 111.6633758545 177.1060028076
247.9672241211 142.8653564453 193.3700103760
225.8867645264 136.2020111084 204.9846038818
241.1167144775 148.6897277832 203.5399932861
275.0808410645 123.7829742432 165.7399902344
262.5072021484 115.5853576660 164.6300048828
250.3340759277 110.8928451538 170.3499908447
261.1846618652 104.3723526001 163.8600006104
238.3813934326 122.5899963379 196.2987976074
275.7959594727 121.7388000488 163.9168090820
230.4288177490 116.6140289307 206.3899993896
262.1693725586 116.1225357056 163.6040039062
263.0227050781 111.0101013184 167.8889923096
243.3427886963 113.6989898682 190.0361938477
238.2779235840 121.3476257324 199.3369903564
242.6046600342 112.9323501587 178.3000030518
237.3036193848 120.6969833374 202.1895904541
224.7159576416 112.8488006592 203.7868041992
279.9493713379 124.5125350952 162.4840087891
289.4216613770 143.1393585205 142.2904052734
231.6513977051 117.3199996948 210.5388031006
260.2599792480 114.1752395630 158.9173889160
248.6016845703 141.9473724365 194.2100067139
261.8540954590 113.4628448486 166.5800018311
226.4397583008 113.2799987793 206.5200042725
286.5278930664 128.4376220703 153.7569885254
247.3972320557 112.9053573608 181.0700073242
283.8214111328 140.0000000000 146.1287994385
239.7683868408 144.5979614258 199.5659942627
246.7086029053 143.4856109619 197.4076080322
235.1582641602 148.1772918701 202.5110015869
263.2872009277 114.3053512573 162.2900085449
228.0951385498 133.9600067139 199.6029968262
247.6946563721 105.9223480225 164.7400054932
243.6932830811 113.4781036377 171.0540008545
235.8479156494 136.1476135254 201.7569885254
249.8849945068 116.3669204712 169.5053863525
294.1289672852 142.1092681885 144.8889923096
266.1814270020 110.8799972534 156.2788085938
289.1236267090 142.8669738770 144.1095886230
292.1200256348 136.1408538818 140.4700012207
243.5074310303 113.9098663330 165.3500061035
236.7916564941 149.2593536377 200.4804077148
284.2632751465 144.3981018066 145.6640014648
250.6013946533 116.2300033569 175.2187957764
277.9989624023 131.3192596436 153.4089965820
240.4855804443 119.2959136963 207.5890045166
269.4633178711 114.5926971436 161.2279968262
225.2621307373 116.8269348145 202.6931915283
280.8036193848 138.0969848633 146.5195922852
233.1288299561 136.4440307617 203.5599975586
267.3731994629 107.9645767212 161.7679901123
284.0328063965 134.5189971924 153.4461975098
230.9039916992 133.4022064209 205.3800048828
229.9166870117 116.0999984741 210.3320007324
274.2551574707 127.9800033569 150.7330017090
242.9982604980 114.2273101807 183.0709991455
218.5937957764 130.9671936035 208.9411926270
241.8462982178 108.8287048340 167.9149932861
237.3888244629 115.8840255737 201.9400024414
228.6282653809 110.9873046875 212.2510070801
270.0927124023 112.3600997925 152.5289916992
292.0727233887 145.2301025391 149.3089904785
236.0388183594 115.8240280151 214.9299926758
281.3746643066 141.8623504639 146.7400054932
241.2834014893 113.8498687744 189.6526031494
242.8736267090 116.7769775391 175.3795928955
270.5628051758 116.7089920044 162.2761993408
232.5557556152 147.1459045410 199.1029968262
285.7133789062 142.4298706055 144.9026031494
284.8740234375 137.7922058105 147.0800018311
224.0731811523 120.4745788574 202.4079895020
270.5666809082 118.6100006104 154.7619934082
249.0538024902 115.6772079468 180.2312011719
225.9416656494 117.0293579102 204.1304016113
277.3082580566 130.3072967529 157.5810089111
231.4555816650 111.8859176636 206.6389923096
283.9466857910 140.9600067139 145.4620056152
274.3147888184 118.6253204346 156.4909973145
287.4174194336 142.8598632812 147.8099975586
217.7282714844 120.6033706665 200.8860015869
249.1692047119 117.7575912476 188.9382019043
241.3833923340 117.7498703003 191.2526092529
268.6767883301 117.8420181274 159.9746093750
261.3417358398 110.6768035889 166.6710052490
284.3583679199 146.1179656982 136.3659973145
242.5027313232 112.4501037598 169.5389862061
219.3086090088 124.4956130981 205.5776062012
249.8307189941 118.7666397095 179.0260009766
236.2197570801 116.9599990845 199.9800109863
286.1240844727 140.4528503418 151.4499969482
289.6473999023 145.6798553467 147.0200042725
216.8988189697 120.8240280151 205.4299926758
235.8416595459 149.4993591309 199.4703979492
241.1489715576 124.5292663574 208.4290008545
244.7292633057 119.3292007446 175.9442138672
291.0167236328 144.5797271729 144.9199981689
276.5588073730 121.0940246582 161.0999908447
249.5746612549 106.1223526001 160.8199920654
249.5446624756 110.5923461914 159.6000061035
223.6016540527 119.3093566895 203.6004028320
246.0546569824 141.4423522949 194.4900054932
234.6822052002 116.2698669434 209.3699951172
234.5440673828 119.1628417969 216.2500000000
252.2089538574 113.5081863403 194.2870025635
235.8739929199 142.6322021484 198.9799957275
294.4121398926 141.7469329834 148.1331939697
243.2167053223 119.6697235107 194.8499908447
266.7686157227 113.9556121826 160.1175994873
217.2294006348 124.2425384521 204.4140014648
280.8786010742 137.0056152344 151.1676025391
243.6072235107 119.0553512573 193.4499969482
249.0538024902 115.6772079468 180.2312011719
230.6274261475 121.0098648071 199.5400085449
227.8546600342 133.9723510742 204.4900054932
281.9397277832 142.6100006104 145.3400115967
280.9638061523 126.7472076416 156.1112060547
267.3731994629 107.9645767212 161.7679901123
247.6516876221 115.5973663330 191.0899963379
229.9582824707 133.3033752441 204.9660034180
234.7365875244 139.5316925049 205.9357910156
233.6274261475 120.7898712158 210.3800048828
277.1416625977 122.0473709106 157.7400054932
231.8025817871 139.3600006104 196.6880035400
251.9588165283 111.3740234375 180.6999969482
256.9221191406 108.2869338989 161.7831878662
261.9489135742 114.6658325195 167.3520050049
238.9017639160 125.0868072510 209.2410125732
287.8602905273 143.1198272705 151.5149993896
290.6686096191 142.6956176758 149.9476013184
249.8238067627 143.5471954346 203.7711944580
237.2274169922 125.7698669434 210.9499969482
231.4537963867 137.0771942139 208.5012054443
244.1039581299 117.5999984741 180.1238098145
248.4216918945 115.6973724365 189.0599975586
251.8499908447 140.6552276611 199.8773956299
283.6919250488 143.7389831543 144.3480072021
245.3436279297 113.9569778442 169.7395935059
235.8416595459 149.4993591309 199.4703979492
237.4821929932 139.8498687744 200.5199890137
226.1717681885 119.4368057251 200.1310119629
260.5240173340 107.6822052002 160.6800079346
232.6340789795 111.0628433228 212.0699920654
227.5808715820 133.9629669189 203.2399902344
252.6347808838 104.7853240967 160.9010009766
233.9267120361 149.4397277832 198.5699920654
284.9591064453 140.9158630371 140.0440063477
232.1772308350 120.6253509521 198.9800109863
279.8440246582 123.1722030640 154.2400054932
250.4616851807 140.0673675537 197.3899993896
229.7902832031 132.3998413086 202.4449920654
253.1516876221 110.9073715210 157.8899993896
237.5097503662 142.9499969482 196.5600128174
238.3188171387 145.7440338135 203.2599945068
238.0116577148 120.9993591309 202.6004028320
252.2133941650 114.6698684692 180.7425994873
244.9889526367 144.0681762695 201.8470001221
286.1508483887 144.5029754639 152.3499908447
259.9166870117 110.9499969482 159.4120025635
246.4174194336 143.2498626709 193.9300079346
276.5840759277 123.6728439331 166.0199890137
238.3189392090 147.1858215332 203.7019958496
232.2716674805 139.4393615723 206.4004058838
286.1572265625 145.7153472900 136.9700012207
243.2564697266 140.6212463379 203.3200073242
245.3849945068 119.7169189453 191.5653991699
281.6219177246 126.2989883423 149.0680084229
245.4597930908 112.9457168579 168.2218017578
227.0008697510 120.6829681396 205.4899902344
241.1913909912 110.9700012207 170.9288024902
266.3882446289 112.1073074341 156.7210083008
257.9159545898 112.4788055420 161.4768066406
289.6473999023 145.6798553467 147.0200042725
248.7516937256 110.6773681641 171.8399963379
228.6218566895 129.9275207520 209.4619903564
253.8536224365 111.8869781494 161.4496002197
229.1820678711 115.1280517578 212.1520080566
265.7116699219 111.4893569946 165.9604034424
274.3986206055 130.5956115723 155.5375976562
222.7089691162 115.5792617798 196.7189941406
285.3898010254 140.9357147217 143.7518005371
222.8464660645 125.6612319946 206.4499969482
219.4586029053 118.7456130981 203.1376037598
271.5789489746 110.1381835938 151.7169952393
289.1236267090 142.8669738770 144.1095886230
223.4197540283 115.0899963379 197.1900024414
248.2999877930 119.0152359009 187.7873992920
246.2016906738 113.4673690796 180.6100006104
284.4039611816 140.8800048828 134.8338012695
275.3186035156 128.3556213379 155.6376037598
217.4679107666 131.2276153564 209.4969940186
232.5249938965 117.5269241333 210.4553985596
250.4199981689 115.5252380371 167.5873870850
257.9949645996 110.4069213867 166.2854003906
226.8336181641 117.3569793701 203.5095977783
288.0218811035 144.5975189209 143.8719940186
250.0662994385 112.1087036133 193.4750061035
288.3166809082 142.7899932861 144.1119995117
246.6255798340 137.6059112549 202.5890045166
287.9385986328 137.6856231689 142.1175994873
244.8738098145 117.6972045898 198.0511932373
287.6488037109 143.0840301514 152.0699920654
236.5808715820 117.7229690552 206.7399902344
247.2483825684 114.0679626465 172.0159912109
229.5049896240 116.7169189453 207.4353942871
242.9739990234 140.8822021484 198.5200042725
278.7889099121 124.6158370972 163.7720031738
272.6008605957 124.0429687500 159.3799896240
249.0538024902 115.6772079468 180.2312011719
248.3251495361 116.8600006104 192.6330108643
