212.7007817260 130.9699920552 221.9754851906
225.3097832820 67.2285696542 264.7704545649
213.4644324017 98.2882561928 213.9105659274
223.1371277090 67.2365001705 254.1417592578
220.1422228480 73.2138818326 244.1170332566
226.2856300151 79.9241804909 245.4392338241
214.0806707868 104.1786862277 225.4424314933
219.0504196364 65.1498562817 251.8702016580
221.0226525251 68.2348227834 266.0158198997
204.4971645719 141.0213141774 226.3366623838
220.5683348319 139.7600187394 220.3232046747
215.7984581148 101.3563663299 224.9806149958
201.7346236940 143.1915093519 218.7144803800
212.9516797486 123.6338038389 224.7435970539
222.9573313711 74.3314301746 229.3486852166
200.8295243874 137.8875426277 227.1060897051
226.5391863212 75.8917253966 235.1704327459
227.5796293910 68.2095896462 248.6281545488
198.1182866779 135.9197364788 210.1638378069
219.4229025318 69.8487331671 255.6367372749
224.2126000386 87.1435830251 224.1216950313
217.3444628297 119.9340089083 219.0765050172
199.9794493597 133.8927823169 214.6118778594
213.4499633498 56.2069271895 264.7756830522
216.8810319029 62.4141047141 261.9550044093
224.5522560952 84.9174669024 221.7235894658
222.8138671923 78.2651060046 240.4388516400
202.1710513559 145.8173313365 224.9546815957
222.3398035896 54.0637767348 263.0354678894
217.9586220511 73.6625006951 234.1924380804
214.2488565728 91.9640947338 220.0438277649
217.0255172321 93.0488801555 211.5925676389
216.1011816419 84.0738709087 213.6747269049
219.3250016703 59.5359219567 264.7497860343
193.8674815476 143.0352001527 220.9143650557
220.9520042838 140.9085977973 215.8413029627
199.0029167374 139.0182944331 226.2732533267
217.3692582263 105.6296039804 220.8949807518
217.3298309006 92.3826161470 220.8896084108
200.0010237858 141.5216765451 228.5649912681
222.8751152606 79.1162992902 233.7806277318
203.1456833936 129.0662912891 243.5043493924
214.4787271173 65.0510716564 255.0582947063
220.1422228480 73.2138818326 244.1170332566
216.7353080566 67.4070100781 260.1410727221
223.6687617781 60.9187040049 267.2592142616
222.5603022334 66.5692406246 266.3365032081
212.4724778259 130.8364273086 247.6914335487
212.2440499695 99.1264101386 219.1560629288
218.4636380206 122.4986995790 218.0882910475
207.2626753558 129.4848841054 246.7094680507
202.3592378820 139.9005907804 218.8381578169
213.8053906612 96.6314811548 212.9554981709
217.4373909181 75.1564110231 234.6697885386
215.3786631265 56.5828862426 259.3440282925
224.3286601651 76.5346880630 224.9424109671
221.8278318508 85.7846635721 223.3169986846
217.1927855870 145.4119847814 220.0896989581
216.4577350519 88.8146187764 216.8824485349
196.7737005673 140.2698644227 211.4073603736
206.2595629105 124.1943036775 246.3154523886
216.5349622003 105.9488583255 219.9287764241
221.0350241995 147.6420109254 217.6810691975
201.0588343608 134.1539350567 220.1856117908
214.9652752235 62.6652695489 261.4411962612
212.3832031773 127.4521852205 223.0572797244
215.7385195730 96.0292603395 218.3653302012
223.2420485600 65.9038715416 264.2485235302
219.7088270819 136.4217725781 226.6084494721
228.2929801845 81.2526652495 241.4809360619
223.5398382006 63.3855597101 267.9169849319
213.1911072870 81.6411871988 219.6489838011
206.6923493668 136.6590817794 236.3868846433
202.4310496722 132.2696467758 244.9339794655
213.5704356427 100.5991461527 221.5545706763
222.3398035896 54.0637767348 263.0354678894
216.5549050738 105.0940452007 221.4809470781
209.5253966942 128.7882763324 216.3675704395
223.1414434135 121.3947530231 222.6288831321
200.3400846069 129.1579507011 241.3817197367
204.5505947034 133.8119342274 234.6481713248
219.8818289423 54.9172100859 256.6410674008
215.2558953476 125.8107367538 222.4001645447
212.1607146545 126.2266365523 220.0662758906
221.4216935183 100.7223550539 222.9641750119
221.4853483858 67.5219743826 264.8737159120
216.9821627198 124.2747185544 217.4571074587
220.1229512238 94.8559699565 217.8983692628
222.1986659820 69.1843127582 243.9817963340
206.6121832426 135.1463744700 247.6319577373
223.0138250139 102.6022037120 223.0145121060
216.2093061365 60.5771698097 261.6602714680
221.5871087622 59.8526113062 259.1783349170
213.6263364166 129.5213612974 248.7819713483
203.2544363767 130.4931659017 243.6230490734
217.5024970812 135.2170556967 217.3528255469
215.3858245454 103.9993962119 220.1799947371
225.8332371394 84.3008786922 218.6795608239
220.1064590436 76.0720780651 232.8602118655
222.0723765057 147.4999560770 218.9524018698
215.8068522507 140.1051179222 226.4202096134
216.7731039643 123.7135876261 217.7758595519
216.7934963767 65.1570080025 259.8466667846
225.1976251082 73.6553126327 242.2124527018
226.3485040622 86.1574223586 226.7013073791
205.1426515629 144.0508315807 225.8549199198
197.2146862424 137.8591165425 214.3234284500
217.3789015049 116.8237034415 219.0971536471
197.1763314571 134.2139052099 244.3519658521
218.7954205303 101.5297292716 219.6559349293
215.1178922457 85.4043370773 219.7577261794
202.4584931574 140.2623581641 214.8826672227
224.8699949995 80.1095015494 231.9543423122
200.7582473496 131.8312688072 208.5270360912
206.2506202447 127.9921504948 239.5805019144
203.7839875552 134.2332966903 205.7795424913
223.3358605642 66.2352066418 259.1627069600
206.9891573215 134.3686907656 214.2092449376
220.4584352374 71.1906553167 256.1207741459
223.3950392782 115.8749711684 222.1944659154
221.0136777987 137.4970594298 220.2342528350
198.1720843353 132.0696411834 229.8757782670
203.8401416926 131.3330667461 238.2054334727
229.9884153182 67.3307400479 251.1482782633
219.3366303706 125.3053434379 220.3406605950
220.3353197431 142.1694985599 219.4247719380
202.7180303617 140.2286999597 233.7882973528
225.1618044531 80.5376810142 227.4685608603
217.0772722987 85.1430827920 214.2433967959
203.7839875552 134.2332966903 205.7795424913
215.5405534883 90.9386869302 212.9365256914
203.6919755139 136.7150846524 236.8723613201
220.3027876718 64.0960572460 256.2641844838
205.9148950464 132.6940341699 233.8727349283
195.2121847237 135.2638058106 209.8254393785
197.4171273390 136.4829088692 209.6912013760
215.7424358961 96.0096821709 214.4605869566
212.8285630519 135.7370143396 215.3160275291
200.4076103334 136.5055470101 228.1280646609
211.7689156548 129.8398307174 244.1302956358
219.0484039167 126.4375865854 222.6608966976
218.3476981959 87.4435502296 226.2854431955
220.2940331282 111.7664333789 222.5360051981
216.5652075216 138.7152165660 206.8436899379
202.5848850511 137.0316089232 216.9808858008
212.7671608415 132.2188643161 222.0315862351
223.3062315804 63.3597766436 260.8353836616
224.2888049347 64.3417735153 250.0568281926
202.4192337976 135.9835399219 205.5682016783
219.7290951398 138.5508170269 225.5808559346
202.1795502848 137.4013450770 227.8041362205
220.4017585441 103.0868979692 225.3326765541
212.9351969429 130.1235679180 246.5493459831
206.3447103668 122.5678287774 245.3973608757
218.2479639975 83.2270057017 221.5581954850
194.4626225844 132.3764899617 244.0063952691
212.2038294035 101.3413250242 212.3924900755
215.2700785222 113.7108898640 221.9360616544
228.5165076591 81.2664452445 223.3383084914
228.1935009711 76.7375981590 230.4981907085
221.2242900874 144.4123660418 215.1913586249
226.3247789067 77.0743942837 225.0260402122
202.7652715335 130.3036767106 238.1580590466
227.5372064166 76.5479873417 245.2625167998
216.1775693196 88.1707699582 216.7020867693
217.5651554080 115.7745208755 224.1918558280
224.5522560952 84.9174669024 221.7235894658
206.0755954817 127.6186867609 243.8193543545
217.3255456408 93.4045221442 220.2619319055
204.4971645719 141.0213141774 226.3366623838
206.0145509541 131.5769030188 206.4186196229
221.1514788729 65.6859659673 264.7086354555
223.1163818323 87.2996263455 226.7306749140
216.6568676337 82.4855940380 216.4443381996
211.7303393094 130.0073793910 216.2333324370
225.6769848631 71.8634220978 242.6455133631
212.3137020414 135.5966516771 214.4371715050
220.0108496691 93.1191733209 218.3123039451
218.7719828573 103.8848914391 221.8762972016
216.9110571005 117.1792237363 224.9090234945
216.4205598911 108.5774276405 226.4485045048
218.1562164303 140.5508349186 209.9054396175
201.7181610555 136.2051651923 228.8645272834
225.9569179932 72.7762203413 225.9120505088
229.4608681423 80.1654750373 222.3649362897
216.1365651354 145.3390879922 216.8635063892
217.4986617619 138.2327876196 227.8646450431
215.3016628259 86.0257822060 218.1006233285
203.6165426100 129.0423493405 209.6254373413
217.7081625569 140.9202803257 212.3110281234
223.1920948382 68.7268995462 245.1042371254
200.0010237858 141.5216765451 228.5649912681
216.4198239838 99.7243717188 223.6176349446
215.4428308309 134.0481097070 221.4572959893
216.4524590055 97.6166147684 216.1100208924
206.6777127164 134.0089537878 213.0078857684
224.6840634489 78.7331080791 236.9571085463
221.1247602662 82.8539539372 220.4063422885
226.1049119008 60.1241189817 261.7759351027
216.8075556303 92.8148745481 221.1256501865
195.9311726420 133.6601199124 242.5123414919
223.1880389403 78.2826037488 222.1435606264
215.6748608966 58.5234005562 266.6632522678
220.7562821984 102.0434397782 219.4247400661
221.0187982422 140.9388263861 218.0611455918
211.8635637543 131.3292739714 215.9390671493
222.8138671923 78.2651060046 240.4388516400
220.4000179427 137.5171792474 223.9248287224
215.7533107613 124.1248273789 218.1600153523
218.6889500291 63.7015614656 256.9269001109
220.4186340286 73.5863392488 244.1188850004
203.3192656601 130.2053532367 239.1941345011
227.8105958619 78.3074392589 227.3731046793
211.2442017474 130.0650398825 248.9504199572
210.5501655664 125.7992346722 222.7689071595
209.9532628679 136.9125342294 217.4575150912
221.1127427010 145.4433199147 219.2568809106
224.5024794981 66.7137275438 254.5936044130
222.9987455042 80.4076217296 223.6651488811
196.6991002857 145.8303537087 220.2066072442
224.3272982834 75.5902949704 231.8684143782
220.5918329943 73.5172241978 236.5051692929
215.3733759341 101.9696253161 214.2700866084
220.8268641514 84.8520655873 228.9209885623
204.3614002273 130.5687247213 210.4472271763
221.1976953675 80.5891428310 224.9676842769
202.2136109773 135.6348991204 209.1829724296
204.4971645719 141.0213141774 226.3366623838
201.6702246250 134.5300916591 217.4247507311
198.1720843353 132.0696411834 229.8757782670
203.1456833936 129.0662912891 243.5043493924
214.3418501119 135.5160187568 213.9177945779
225.3005014564 70.0314751637 242.5732727152
224.7951151182 60.7618997335 262.0756198312
202.3592378820 139.9005907804 218.8381578169
229.5190491882 67.5926631359 253.4889561706
226.9891977223 76.0543487121 240.2467620537
216.9873731538 82.4805062384 225.2774451581
218.8424995389 146.7509951998 217.2542817810
221.7579954015 88.3303604450 227.0583888273
226.3025058292 81.3265447092 245.2183214900
218.0827125974 125.2027781627 224.7609404567
206.4311095060 132.9776825663 210.9676307627
222.0726171682 66.6861956199 256.7246086779
224.3607317631 74.1074262513 238.0124260807
225.7343527132 86.6936340415 220.8971508572
220.0540538848 69.3260597568 263.7517854625
219.8714745943 88.0478342115 221.4195857263
216.8082084269 93.7529605841 211.0406082488
205.1061907958 128.5293703862 243.4287588534
209.9531114415 98.5969218934 214.6008859221
222.5342923642 76.6995880013 238.3260730562
216.0415267962 94.8248449257 216.2983539925
199.4892962637 132.1535447122 237.3846238241
215.6626258676 91.5289146849 215.4044902761
213.5607223924 85.2928708188 219.6061902145
216.1253903099 131.4371662659 216.9967486749
214.3090119138 61.2666049463 266.7862192566
218.3885878948 129.2596816197 219.8218963519
228.0480360184 78.5463205279 221.2937848920
221.0088345338 71.5217705437 253.5850881095
220.1422228480 73.2138818326 244.1170332566
223.1226527133 65.4738525471 249.5858473706
199.7282685633 129.2682050048 241.1537927023
218.9825835722 119.4025209084 225.2224477291
229.4608681423 80.1654750373 222.3649362897
217.4239313511 120.9507347681 224.5819121349
211.8635637543 131.3292739714 215.9390671493
225.3005014564 70.0314751637 242.5732727152
206.4362188356 131.2264682348 247.8931874365
209.5253966942 128.7882763324 216.3675704395
210.3168846944 94.1277776301 219.8839662919
201.2850764106 135.0544977519 232.6695395669
204.0628008996 129.3169153909 207.6102072513
215.8914443911 112.0788952529 220.5730816034
213.0430680112 104.2536133019 224.3174223055
198.8905344357 136.3231209121 228.0450056891
221.2161142077 73.3424995235 235.6230247173
215.5494654637 67.2451077417 259.6275915778
203.8678563656 131.6846996240 244.8936544830
202.2539736225 138.8045766409 235.5923658463
201.8306243439 130.1090305905 243.9199782932
216.3644752810 135.6406825440 224.8094381962
215.7876129640 62.8567474970 251.7967058790
222.9208429298 75.8721530301 222.8738740073
220.2983994492 78.3652893659 233.4800735144
215.5782993718 87.5978857899 213.5421269561
195.6447231777 134.1526559389 243.1799502531
202.0110167069 139.9555157032 214.0111458439
217.3842090293 82.8683635190 219.9109084733
223.4949234013 79.4300763609 233.6070399014
217.1927855870 145.4119847814 220.0896989581
227.2950031937 88.4841848465 224.3631279417
211.0000803537 95.2680589165 218.1135233159
221.4111579473 74.6477339854 245.7002736322
228.0480360184 78.5463205279 221.2937848920
205.2949155450 134.5893263594 233.4661656772
210.2146888994 137.0884951421 211.5221046802
206.8630924920 130.9605157323 240.4092376241
216.6590665733 64.4664285641 267.4506512142
226.0571246807 74.8352463797 239.8881567450
218.9593267019 112.2727336441 224.9534682169
208.7748645914 96.0518480947 216.4362319847
221.6136214998 71.7888800282 250.3170637531
221.9693232466 58.6758894567 262.3010443144
224.5444785876 87.5430741688 223.0561749785
211.4532782271 137.8069221275 211.4474815907
219.5912841421 135.2113893117 221.1041820208
211.6597329590 95.4882842323 217.4673650215
208.4015404777 133.0700297940 217.9054669843
216.7130502819 87.4171034960 215.4449886683
226.3808720637 74.1762928995 230.5896821251
219.7509984190 141.1407992064 215.9351794606
215.8539018431 64.8317901517 261.8096438517
216.2847009034 64.2349136591 250.9649475039
211.6509122289 95.1222916480 217.4651258820
222.9260539746 78.7108958705 242.5481149413
229.8204390948 65.5350940685 249.5481535904
221.2113673709 80.8551556231 224.7707009244
216.1253903099 131.4371662659 216.9967486749
222.0952143916 74.3946376620 228.4098356783
225.7232990571 79.2669949284 236.2466114863
217.9582533766 125.3439304376 218.0257773498
217.5384320537 103.8780683319 223.8884770598
212.1144231078 108.1675126328 222.7755229677
216.8838726473 108.1844633426 217.2500151133
217.5331166794 126.1575305931 218.7883385306
198.5228899085 135.5218682132 223.1327307129
203.5168308623 137.9505195067 211.8508654144
231.5227093257 77.4132936706 242.7702180525
213.0176590360 62.5280723968 263.5996240660
213.6493976382 116.3546059127 221.8621573983
220.3566090921 113.1675508908 222.9880927698
201.2459397155 131.7056704071 206.0169618033
228.7849773584 83.9774316799 222.0198149129
217.5309450480 93.5245127075 220.4269499416
198.0889477053 130.5525553989 235.3980429396
216.1482149388 59.5707310927 261.6573483700
216.3043617089 57.6262986642 258.8861600425
225.9975877415 69.5452513230 245.3612794324
206.0525378003 133.6329671810 232.7955784881
217.6575021203 134.9587345237 227.8781068227
214.9098611808 138.9632789327 217.2796474206
219.2211912633 68.4683462921 253.9523683989
215.6743478940 53.7141475613 261.3265427853
213.7665013280 139.5142202916 213.8261751241
198.0238571826 135.4688462490 217.4411354673
219.8553433313 123.5895030064 222.1270658715
227.5796293910 68.2095896462 248.6281545488
213.0698221142 130.0125473781 221.5475456821
223.2994566755 56.1204030694 262.7310116781
220.4027828540 90.3173218536 216.5149047843
225.9975877415 69.5452513230 245.3612794324
210.2146888994 137.0884951421 211.5221046802
222.1953479231 68.0318522979 260.2326156840
223.4447407407 71.5430267493 253.3322548508
221.7490895376 103.9893575832 221.9305470825
210.9114903298 58.2657619006 264.2224493770
214.9944576214 127.7194477043 222.1504047920
220.4673917779 58.8548510083 264.1536453621
214.9944576214 127.7194477043 222.1504047920
206.3334370017 135.2385939058 207.7069778158
219.0298862595 57.9864825685 258.1712530225
227.0432155490 64.4897319657 248.4509498199
226.7024493340 75.1798328918 231.4327334304
229.5609455179 72.7145093712 228.9501439371
212.0062799702 131.7241442803 211.8163251869
222.5008204002 73.7473444462 235.2536209583
219.6847835896 69.7913397813 243.6575328773
220.7285400084 111.8088076271 220.3450298946
200.2831511790 141.5489232581 232.0586654552
220.0669235864 123.0251965429 223.4019769726
200.3956952875 134.8351389301 245.1588277890
214.1529435540 126.8454474464 248.6767893848
210.3075445083 102.7385218316 219.9300378163
223.0369573139 75.9655479554 240.4382337206
216.5885534728 121.9291305709 223.0479099893
203.9647495691 138.7209177061 222.3117518798
221.4858482124 77.1709173066 237.6104814502
204.5682001793 138.9751825844 231.3092969743
214.1317846767 109.2858893449 218.8720768002
223.5244400806 67.5215487906 257.6870107450
220.1229512238 94.8559699565 217.8983692628
229.0673557136 82.4159156043 224.8373282736
215.5244106064 67.4490920796 251.7602215524
214.8437438816 121.3547972201 221.6408536909
220.4568649056 122.6627913565 220.6423518747
224.1856932146 78.8159053207 234.5171003690
213.4533846423 129.0051420593 220.7061979002
214.6877496218 65.9638691835 261.3386630297
231.0174923402 79.4747718242 242.6420298101
216.5375999263 115.1682435311 223.0765343211
231.0174923402 79.4747718242 242.6420298101
222.2828673367 70.9940777014 250.5917868274
196.7774383533 131.1879378180 240.7393735147
212.9823706269 132.7933561636 212.3849950779
213.6263364166 129.5213612974 248.7819713483
216.9972538528 101.4936996077 227.0568438737
221.8511945607 68.7617334344 250.3203998869
220.3886858783 85.7256646324 222.9186201453
215.8479218256 90.7582383858 221.4301292273
213.8332888390 62.3848307143 267.6612577930
204.1268288424 135.6782001339 214.7060815992
203.8208518203 130.8278419747 230.9186639971
219.2577419696 64.6176510194 258.8576640724
216.6401264888 131.0153699440 216.1637744045
207.4952514012 127.3592920806 246.0638957411
219.5734505744 84.5007256841 223.4885809865
222.3155803876 79.2624110276 236.4602732063
219.7325633298 123.8886886065 218.8275604351
221.8184627781 72.0665429568 226.5649630335
203.5712721183 138.6638323203 222.4484878344
229.7182173453 76.7315789985 237.4621084330
226.6453830410 68.5017664567 249.9470464867
218.0623651036 61.5735568365 265.3716349695
218.9112094146 70.4593181764 244.4615008607
226.2187220679 73.2782639657 247.1658311531
219.9465865043 146.5754001085 218.7859064959
204.8688610984 134.2558644306 231.8410596954
223.0097114896 63.6240313536 259.1276183661
201.3845485342 142.4982510222 226.0161566086
219.9945213718 114.3863784363 223.6361422325
223.5979770714 70.5101738289 226.0012891224
216.1958428129 92.6300548912 215.6049014251
202.4310496722 132.2696467758 244.9339794655
201.5701073166 135.7588729631 216.1045827902
220.7857944454 69.1360833206 260.2505141270
215.6487601178 64.6024597758 266.6982026056
206.4655921727 125.7480939359 241.6898701077
221.2052219330 115.0465456079 215.2257272581
222.2853731388 142.6313459807 215.3782240593
211.7956170211 135.3632586675 209.7704863624
226.4072626803 80.6967147408 233.8351434902
207.3271844069 139.9539667217 211.9070605174
218.8680080760 122.1190324282 217.3314308332
207.2979357767 131.9469985937 207.4671410803
224.0647941929 75.5874451638 245.0253274267
204.5999188721 141.1845754619 226.6192882911
203.4962740452 140.2986265770 222.4928671413
214.0419149166 95.5299753700 213.4989794004
213.3662500837 127.3178150796 249.4371678668
198.0851875290 134.1096080789 234.5116416330
223.0932184289 58.5937169291 260.5522381224
216.7237273686 136.6846498674 228.1770423412
211.9427782340 128.6564624880 249.9329849558
218.0468069032 126.8264078315 219.2203798661
203.5168308623 137.9505195067 211.8508654144
212.6673696811 56.3316020645 263.4633608557
219.7509984190 141.1407992064 215.9351794606
224.7951151182 60.7618997335 262.0756198312
216.3019790588 101.8407293818 219.6864250446
227.0610032398 79.4622663534 229.2232860402
198.5247343762 130.5114900127 245.0755516086
213.1044219963 104.1944518513 215.6284508708
217.3914190442 62.6072056058 267.0276457597
203.8630361858 138.4034037905 214.1434448929
203.1042870572 132.9591278092 210.7698252864
218.0519302021 63.8964322768 262.3126045394
204.5965028068 127.2796163788 242.7522148494
217.7228366567 58.1280412071 264.4877916070
228.4283869909 86.2164420820 222.6666157867
197.8194615514 130.6217600306 240.2417438215
217.8882917290 77.2723899311 238.2929199912
226.3926291259 116.2812154233 223.5617002934
197.1671230651 139.0601516081 213.5054539869
204.2607623496 128.0539844658 245.1934465874
215.5988862449 92.4482202288 214.3030159768
218.7890364851 63.4606646539 262.9797749888
219.7290951398 138.5508170269 225.5808559346
216.8075556303 92.8148745481 221.1256501865
218.9645879161 116.5894450579 224.3235031755
218.1367025419 78.7728250794 235.1094291292
214.9322337034 102.4196458706 225.0804083855
209.5200060714 137.4097660607 210.4984207088
214.7587600363 64.9019938818 266.3827796951
227.2416226817 74.6149627914 230.2683648950
205.1426515629 144.0508315807 225.8549199198
228.0480360184 78.5463205279 221.2937848920
224.8486052044 72.5867723524 250.5286561543
227.2950031937 88.4841848465 224.3631279417
226.8302689095 76.1326111787 234.0025017023
225.9275152213 80.2042682609 240.5614085088
209.5954243374 91.7103717985 217.6163173774
212.4727647212 137.0475400378 214.9801329122
204.3402766349 126.4792645817 242.0470138011
218.3885878948 129.2596816197 219.8218963519
222.1891538442 70.3852206270 246.6241736076
205.0330086953 138.5047760214 226.1719894553
205.5425906720 138.2231672646 211.6328466526
226.6029072919 117.3068067658 221.4412668057
200.2973644496 134.4499459088 224.1008824463
229.2669429055 83.7773739917 223.2754591103
219.5623885763 88.9185087990 214.9849837772
227.8105958619 78.3074392589 227.3731046793
224.3272982834 75.5902949704 231.8684143782
210.6198104681 56.5221753870 262.3965770605
222.2959165104 120.3110525651 219.0277198790
220.3815014378 70.3791747985 258.0945364859
220.8829520917 64.4529792897 253.6444092784
211.9190327561 107.8456974676 225.3084392195
227.2665361767 75.2853706886 242.5986677355
210.6376504655 131.7629692456 210.0047786968
224.3272982834 75.5902949704 231.8684143782
219.7120195440 54.1225253536 262.0017185151
217.5309450480 93.5245127075 220.4269499416
215.1215796782 105.0915845027 218.6086341406
205.3494125086 134.9651481093 214.9176578340
208.1029155392 95.4498902659 216.6642328233
209.9608563739 94.7341665725 218.8240285869
218.0092621410 84.8466302145 224.1295753487
228.5293173005 81.2933953312 224.3367781314
197.5740177330 141.2516374272 212.0184803821
218.5468260094 73.8719311596 245.9690812542
213.8640564230 109.3026835478 224.3408316768
211.8962397541 124.4954509876 223.8919255307
217.4267181297 101.8495395845 219.6803068083
228.9981762570 80.8783222762 223.5070338700
221.9802890363 80.4644679559 226.2800064734
212.7671608415 132.2188643161 222.0315862351
200.1690689588 137.8862154012 226.7442341487
221.9102115402 53.5384405261 262.6531481332
206.4311095060 132.9776825663 210.9676307627
224.3962060821 63.5291427067 262.9749542470
220.3835282745 103.6999346808 219.9647184431
201.3845485342 142.4982510222 226.0161566086
218.1046760722 86.9217924851 228.5408471314
202.3383226461 134.6907321278 229.5001330343
221.0778331382 64.5853003146 268.2203827356
219.6291508066 65.2061144509 258.2375990761
209.5253966942 128.7882763324 216.3675704395
214.5171809108 136.4280693358 214.4062518467
215.4782610863 139.3197298962 222.3293708512
206.8809172550 137.9454294231 234.9111802172
213.5607223924 85.2928708188 219.6061902145
215.9590941462 63.3093780170 267.8277824037
225.7232990571 79.2669949284 236.2466114863
207.6791421234 123.1648834751 249.8194720914
218.0519302021 63.8964322768 262.3126045394
199.4030575350 132.9724350544 228.1419898964
222.0014449889 102.5972239137 221.2643580190
221.4620453975 70.2754100426 260.6840286598
208.7212251578 97.5502400809 214.3839086886
208.7869552447 99.7290020873 214.1299115074
217.3452447439 113.1456622094 215.4111760563
199.6613698201 130.7963204430 240.0087870182
218.0827125974 125.2027781627 224.7609404567
216.0348394145 64.6902538743 263.2725490051
217.7081625569 140.9202803257 212.3110281234
217.2613539556 65.9405468805 258.2959922377
215.4370245107 63.5843869181 262.3173553874
216.8855773998 67.7576241980 265.7342304084
228.5298077559 85.9045402398 225.9537761490
216.0245538666 136.0708669116 212.4413540800
217.9024436321 140.1800489761 207.6227617418
223.8003038447 75.8667863434 226.1528321461
214.8437438816 121.3547972201 221.6408536909
213.5212149003 136.8837354492 224.0941895201
219.3145363990 103.9986172033 223.2282208413
199.2576653749 133.5000662827 238.1570192911
201.2207078425 129.5287236961 239.7086035651
213.7936247758 85.4246466515 219.0360168252
224.2873128692 85.0601745830 225.7846950289
197.6481738708 134.5441700256 230.3010281309
201.7068896275 142.2803624486 231.0852853679
223.4438799152 83.8841479526 226.9779887613
210.5434793733 136.5108427086 213.0264765005
215.5477073800 89.5566642931 212.6468068054
216.5351805669 131.9572938663 223.2498102755
211.4913128825 96.2285446710 218.4871978289
216.5818014717 127.7543157094 218.6208088037
216.6557289289 70.1391856736 265.6836613864
221.8260334264 70.8231056931 250.9407499507
220.7562821984 102.0434397782 219.4247400661
198.1747244569 136.9739712421 222.2485227417
209.7428881837 126.8058275323 244.4075445325
218.3198655277 58.3878297899 264.5129638747
224.5577921129 75.5816085252 249.6169848484
225.9212818867 118.6763170850 223.6558501315
215.4754800130 93.2130960762 221.8758229639
214.6877496218 65.9638691835 261.3386630297
208.9215724923 128.6029152501 217.1458259358
218.7669485067 53.7006459340 259.5087148078
202.8188928473 134.7085764256 219.6795269612
223.9697561392 71.1348252414 225.5427823771
206.8122626166 129.8414894501 210.5487978319
203.9331266622 131.6216959972 244.3276831857
218.8138095506 134.2209599541 209.5144877569
202.3592378820 139.9005907804 218.8381578169
226.8773819460 70.3411975053 248.8434488537
202.6325617624 129.6390635520 207.6977129960
219.8705566130 120.4362719318 217.5079840486
215.8040724660 54.3436327082 262.5387261799
225.7220708974 85.7529627882 220.5549357780
220.0399730187 140.7412651942 216.6595462405
206.3447103668 122.5678287774 245.3973608757
218.8372060817 110.8785524665 221.0435284595
202.6969645093 132.6138004960 215.1597468685
205.3329147985 127.8831721804 246.9913252160
225.0530014011 65.1148420524 267.1728657217
212.3595985416 123.3937576505 246.2492050940
229.7949463309 74.3107080334 227.1189862099
194.3649607200 135.6127724370 211.5784321088
224.5752387950 68.2014733893 246.8078396314
199.0553688558 131.5939037090 229.9504315688
212.4085136182 81.7658620738 218.3366616046
206.7915736602 126.3780108943 250.3062027424
221.9404427456 73.6181644533 249.9831209730
205.3134916242 132.5011249402 216.1650133937
212.4064994080 126.0094812111 244.0067277211
224.0908042826 72.5931352947 225.3059247268
216.3838506004 122.0363230948 218.0437260867
225.1603570955 84.0632753524 225.8316138064
213.4401490294 57.6895390741 260.2937231588
218.0575561607 90.8485976946 220.3217615707
214.0243959906 138.3277614923 216.3001932711
198.3850349742 134.0015368978 235.4170756047
199.4030575350 132.9724350544 228.1419898964
215.9272308113 138.7173024630 218.2874539225
215.5045813675 139.2642845586 219.1567046412
217.2256563495 143.0172695128 220.8977967969
201.2764080516 138.0706402289 211.0215739929
209.7028818013 101.7511602735 220.9246618084
214.6095245097 64.0685729266 267.4086996656
221.2077927234 121.9011043420 218.2870558526
203.4657558495 135.1800629237 233.2200939753
217.5400248392 102.2044344850 219.7894119660
208.9375282994 128.5130416508 241.7288238856
211.4532782271 137.8069221275 211.4474815907
213.8122324048 54.1357372447 259.6184784541
215.5157858393 112.9438635966 217.2658652641
221.5670530226 74.3564664792 236.6269005859
221.7326520625 68.7447006988 261.3747196717
211.7445987569 99.5786065163 211.6369456193
198.8068921027 145.4452152866 224.9410632624
197.2146862424 137.8591165425 214.3234284500
211.9533316191 61.3953118595 264.4952731579
217.8585309232 135.2507238209 219.8445345197
199.0917810018 136.2865320888 211.1026775921
217.9369103275 65.4414875239 265.9610232396
224.0647941929 75.5874451638 245.0253274267
221.3724184716 87.9255283628 218.5728162170
214.2282002373 65.9585468718 251.7621296339
203.1134435637 139.5582308850 215.9936262538
216.7130502819 87.4171034960 215.4449886683
208.0219019059 93.9338315195 213.9442598868
220.0108496691 93.1191733209 218.3123039451
214.9944576214 127.7194477043 222.1504047920
203.5369524348 130.5650931587 210.0314635715
221.0455935140 134.7698631957 211.7347281025
212.0005650017 139.4274503487 212.5444433053
214.4031153944 108.4516140210 220.3190382864
223.2970535521 77.5798034835 242.3307742966
216.8024264320 129.0237128280 218.1297552786
208.0265847946 128.6408552078 249.3640437603
227.5611929091 82.4809512258 241.3520691582
206.4595853483 128.4815067264 239.8916376499
216.1011816419 84.0738709087 213.6747269049
220.0977923841 60.2030863679 265.2876326889
209.0150584385 94.8102512299 213.1869805700
202.6325617624 129.6390635520 207.6977129960
220.8829520917 64.4529792897 253.6444092784
214.8687954089 107.1303806534 221.7028893403
221.2634586732 116.9197979596 222.8019692060
214.2168473916 61.3774265575 266.8199164185
219.5132591375 68.8449801707 267.2396888403
214.5453151618 124.7518991042 218.0089297564
212.0746440960 136.1749275164 210.0845015396
203.1079099269 126.7444148655 241.5507183586
202.8010417632 133.9778727372 228.3580454688
222.7182495986 87.6495491612 228.4206225846
218.7054368664 116.2571963187 223.2870619802
203.6919755139 136.7150846524 236.8723613201
216.7353080566 67.4070100781 260.1410727221
209.4069767166 130.5229119690 240.9419453058
219.7178874857 134.9276488660 208.6796033376
204.7880163384 133.8812761151 217.3176618510
218.7669485067 53.7006459340 259.5087148078
195.6447231777 134.1526559389 243.1799502531
226.9372263652 77.7184639836 235.1659564636
223.5428548426 84.3071543896 226.4557881950
217.4373909181 75.1564110231 234.6697885386
218.9593267019 112.2727336441 224.9534682169
217.5311883416 134.2935715149 210.1317755297
225.8928664381 64.0899650546 262.1440752683
220.0108496691 93.1191733209 218.3123039451
227.9149860848 82.1931568943 224.8230224881
218.2047730752 103.6560487958 220.8291868768
219.7073124250 67.0178066316 251.8455576111
228.5704788595 77.7864822919 241.1680109894
219.9167000484 107.3876379141 222.4138102079
216.5807734759 125.3817440473 226.6135268859
227.3027970020 84.5279966443 227.3145595753
213.9264896234 88.3628011347 218.5703416902
206.3447103668 122.5678287774 245.3973608757
220.9747205693 136.6633455781 211.2108323460
220.8165162084 121.8703694485 221.5517956118
212.8046786933 136.9352974041 209.6758349801
214.0806707868 104.1786862277 225.4424314933
216.1011816419 84.0738709087 213.6747269049
225.9975877415 69.5452513230 245.3612794324
221.2113673709 80.8551556231 224.7707009244
211.4353099990 128.1381660005 240.6101760589
199.6519007994 144.9604314309 220.5231520279
198.1104992974 137.1622343580 222.8243321140
213.6263364166 129.5213612974 248.7819713483
223.6075748448 66.5404401183 260.6496069322
218.8849977409 118.1121888760 224.7295294057
217.8707313231 131.9301610578 218.6086425576
211.2577456289 136.0837141355 217.3544157977
226.6702918455 88.4676191476 223.2226867745
203.3703591318 130.4420952163 206.0253489376
217.2986094178 129.0903167185 217.6823321739
223.0358756221 78.9638825118 233.4467702825
215.5193272835 122.2136394951 219.0679766189
215.7984581148 101.3563663299 224.9806149958
218.5075923987 88.5758264862 221.6331016682
208.7565713033 138.4373071398 210.6507276531
223.3062315804 63.3597766436 260.8353836616
209.7692131371 131.4000054960 244.5002331563
211.8962397541 124.4954509876 223.8919255307
223.0369573139 75.9655479554 240.4382337206
221.4251024461 78.1639106552 225.5119064127
199.6889477021 135.3360965822 225.0880985853
196.4410366822 135.4136969860 209.1225314849
216.0216032786 136.2868466634 213.6252772223
221.0074531219 69.7054614246 244.3929485136
209.9151665132 136.4781418385 212.8758224288
220.8719099312 64.5654018665 265.6702613155
220.2169774419 136.8530949658 219.2862303995
208.3758746368 127.7300650755 244.3907795694
198.3985183887 145.2470021255 223.3316343580
202.4696184974 136.3431359764 237.7412642598
202.6039221956 136.6324533955 218.0267606124
210.9924868477 137.4464265736 216.7470098203
226.8885151213 79.1849897480 219.7272591518
215.1963494778 83.3406965993 220.2777217113
219.5371338577 73.6962349055 244.8550053468
226.7783497589 79.9138136271 228.8298540642
208.3135085138 134.3702249694 212.9339552042
201.1089689438 134.1886636105 212.6856002030
221.3477056318 66.5830413715 265.9508723520
220.8763433687 100.9598253318 219.0222669236
200.4687235096 134.3406472301 208.0112024957
222.5287835023 113.3377554832 217.6846720395
226.2790473008 74.9354460981 239.5005136407
230.1260580721 68.2696730590 250.0711218232
221.4308375026 66.0470902719 266.3326425616
222.9331352447 67.7825793076 255.9831671215
195.3321504464 141.5075192436 222.9245779368
212.8811922126 139.7982221817 210.8713207262
216.7632546736 91.6593568233 211.5354907741
221.6286910651 104.2537188162 221.8043363959
218.6961602869 89.8621741299 220.1573972421
197.7692840397 135.7037973585 215.8680734304
224.7714255700 74.7660593538 225.7032811136
220.9632984878 86.7043797842 222.4174064901
226.3605144175 71.4790853029 225.7546930020
223.5713913010 146.5802777795 218.5369994675
215.9479355312 115.2638722100 222.5548849538
217.4401700682 87.5876117444 213.8325569666
204.8932765424 137.3233901828 231.2443658488
216.8689447881 75.2451860167 235.8013218919
203.6333812374 125.3642648525 240.3980763087
212.5258987181 92.9529719341 217.7683418110
222.0914062068 103.5408605877 220.6622552377
208.1029155392 95.4498902659 216.6642328233
229.8204390948 65.5350940685 249.5481535904
207.6412905964 97.4419071439 214.3815933076
207.9778158983 130.9467053160 209.9165289231
202.7278528004 127.1470340704 238.8223315327
204.0203706975 137.0960160211 214.9375086763
209.0059395787 99.8842253774 216.4903723567
199.8282748025 135.2903766383 212.0773466996
202.6474130419 129.9973013758 209.2900221713
221.2077927234 121.9011043420 218.2870558526
208.7138270611 92.9306285786 214.7460034104
225.3005014564 70.0314751637 242.5732727152
219.0437772226 65.0308346299 257.9403912116
218.8868969683 55.2375599072 258.5213375413
225.5278677288 77.2496797713 247.1054180129
217.1174069482 139.8047349425 227.1566658286
215.3040024594 86.1563240003 214.6490217390
203.8678563656 131.6846996240 244.8936544830
218.8138095506 134.2209599541 209.5144877569
225.2541958394 72.2777173206 252.9168286355
219.7754517775 139.9132266883 211.6551598870
213.1646421382 106.5227296504 222.8894802411
211.0235709223 103.7355742238 220.0013305589
200.8437242195 136.5075881679 221.1495902553
217.6580217535 55.0876797215 259.2242290127
222.6254735353 80.1271737031 221.4242992079
221.7749148729 56.1271186278 263.3433952787
220.5417299004 84.5954320234 217.9091511275
202.4192337976 135.9835399219 205.5682016783
228.8047244954 84.3490362546 225.4619649351
203.8401416926 131.3330667461 238.2054334727
214.4475097510 135.1685270659 220.0624001879
222.5312584964 116.7178251394 224.9279353372
218.8051543059 71.6117151733 246.6396032212
211.6838799254 123.8357766590 222.6176309227
215.1653540064 86.4283078819 215.5428615263
211.6838799254 123.8357766590 222.6176309227
204.6347987203 132.2453271357 241.9064816704
219.7997532404 66.0285129108 265.4253894982
228.3983676424 76.9376827480 237.3451457006
223.4949234013 79.4300763609 233.6070399014
225.0811757106 74.3900285904 231.3282002454
205.4567944013 143.0779515016 226.0321897504
221.2113673709 80.8551556231 224.7707009244
222.5117533349 87.4998820154 221.3587665962
212.9941047652 103.7880226033 224.5654308485
215.2822637193 137.9216918753 208.8486819678
204.7449627553 129.5613194025 209.6058793944
211.1547080810 95.0299976621 217.4663933648
207.6068049889 127.6029510046 249.7362483085
217.0164881789 63.0066276827 251.0938144074
216.9926521015 136.8862477274 206.2580353792
231.1718529972 80.8305330439 242.1228088196
218.1619274157 68.0076754996 257.4306161731
222.0700070224 118.6951624039 226.6598966568
213.4499633498 56.2069271895 264.7756830522
216.0216032786 136.2868466634 213.6252772223
221.8920850035 64.6288292485 268.7924657728
202.0442426253 134.9071015546 209.2828575003
215.8068522507 140.1051179222 226.4202096134
212.4350592067 126.0833158678 246.4218175311
214.4735709307 105.4915637612 218.6051464793
215.7683316505 92.2809822040 221.8361554574
199.8269798258 139.5703019621 226.9295300822
215.7105201781 139.2841763500 221.7068278651
201.7189645509 137.4683965778 226.7273956097
211.9350539882 130.3514675270 245.4691482501
218.9058090524 139.3960078242 208.0552582566
199.0886254719 138.7914787055 224.4823784497
215.1653540064 86.4283078819 215.5428615263
223.3816896509 78.9049154385 229.1679317632
209.2225586892 128.8981971659 219.0952990219
193.2693284981 142.0557894096 221.2326633285
219.6696829773 63.8314266591 261.3066752393
197.0997415158 140.6550113892 218.3813126868
212.5511421200 122.6622461280 221.0942447444
226.7333068554 72.8057800401 247.4211871180
215.9479355312 115.2638722100 222.5548849538
222.6030063172 85.5175562336 225.0199238648
214.9030561236 59.0169457953 259.8177240098
196.6193288481 141.0680297500 222.4820750716
215.8982146468 82.0188387479 219.8702140129
217.2256563495 143.0172695128 220.8977967969
214.3897035891 138.8881360480 221.5141998211
215.4592436051 120.5853156500 223.0606889557
226.8525940189 78.4337609261 233.7461834394
213.4328978534 139.4819876115 209.6949846542
217.7329633872 88.0647612870 226.5585179665
220.4335205390 73.4671743987 234.3107025209
201.1791305689 136.4382529374 234.4566630627
216.4205598911 108.5774276405 226.4485045048
204.5778502630 135.8698305086 236.3366000549
225.6410966845 80.8341439006 227.2576894666
219.2211912633 68.4683462921 253.9523683989
202.6381754306 132.3344404503 243.8827956138
218.1387511633 118.1446870589 224.7705503437
220.5620259014 112.2342549023 218.5178956709
217.3873815630 143.1844453369 221.0873367482
218.7719828573 103.8848914391 221.8762972016
224.8619398199 62.7691155885 262.4065674539
198.5247343762 130.5114900127 245.0755516086
217.2605554689 75.5533517026 235.6452126651
202.3592378820 139.9005907804 218.8381578169
203.1042870572 132.9591278092 210.7698252864
215.5626589847 140.3979770624 206.6671367224
228.1932842658 75.5386619086 238.9501159562
200.3759986360 140.5422944842 232.1903860399
223.8229136452 76.3316202209 239.9095261874
198.8325031170 136.4832278601 234.7783505790
205.3670244274 134.5925891726 245.7923333771
228.4283869909 86.2164420820 222.6666157867
198.6961726998 144.3185742696 220.9748541819
223.3071397968 65.5242838001 258.4499709446
216.7632546736 91.6593568233 211.5354907741
198.4058878699 136.6215508333 229.0986943052
214.8690300433 127.3283909860 221.8116161297
216.2503754443 125.5030045307 217.3282405551
198.7272587114 144.3195399203 224.6849530713
211.1619679234 131.6030215114 211.0062542943
203.3703591318 130.4420952163 206.0253489376
214.4391630298 135.3602329333 209.5558146656
196.9504366190 134.2903903729 232.6087799208
223.7198858294 66.8384024188 253.2812822165
210.7964030480 133.3793619964 208.7650844289
200.8846461999 134.8672642131 215.7569627360
218.5114009406 112.0135820156 215.8821504709
227.2950031937 88.4841848465 224.3631279417
223.5972701950 79.5114730371 238.9318334390
210.3918451227 101.9666361516 215.5214351728
221.5871087622 59.8526113062 259.1783349170
218.5849736566 80.9295549297 225.9226653146
223.9313969568 79.0008763507 237.6955399588
202.0780913683 133.7594589379 246.9243135710
216.7186271105 94.9231749371 212.5519468638
212.9351969429 130.1235679180 246.5493459831
200.6864446872 135.4645857702 244.2074425944
225.2466159333 81.8857228025 227.0085269129
218.4557099906 75.0406668571 233.3606797054
217.7081625569 140.9202803257 212.3110281234
212.7206894136 100.6478183996 212.2056155103
209.9136263786 129.0146912706 241.3892612139
227.2794201559 80.2200521959 225.8531381817
200.3400846069 129.1579507011 241.3817197367
226.3247789067 77.0743942837 225.0260402122
218.0827125974 125.2027781627 224.7609404567
217.8950002471 95.3666258730 216.6463742328
217.2013950642 135.0784740975 211.0587434324
229.2690475849 82.3218881224 242.0495895308
202.5058127592 131.4649760696 243.9125418083
214.9362860725 104.7787055327 217.4630653210
222.4224059997 76.7224461733 238.3590616207
220.8314201325 58.0034890695 258.3511303039
197.6850284432 143.0555573803 223.4887872957
224.7610896214 66.0180049469 246.8947721410
202.7278528004 127.1470340704 238.8223315327
202.8933226969 134.9843990481 246.3543591370
220.1763311008 71.1633976140 252.6271163809
215.6142921217 126.0325291625 218.2662680668
229.6837712398 77.5072711285 244.8988176679
193.4347056273 143.0624924068 219.6800168639
217.7547469004 85.8363283979 222.0887938810
210.2783684273 122.7379114921 246.8476382057
216.5671658263 107.5984099113 225.9891435966
215.3670948444 140.7718139921 224.2047458054
217.7174860116 68.9914190942 260.0654080749
212.0062799702 131.7241442803 211.8163251869
217.5995988728 64.0244702553 266.7445034677
216.4708121563 136.3454329621 210.4261239900
200.7180304140 135.6056075629 211.4884995344
212.7544007960 84.8907543074 219.7465220962
202.7997295326 137.3998149961 229.0702863123
207.4005360369 95.5658261307 215.3072399380
212.2532806338 127.3786512228 244.0335486021
205.4479662489 130.9593883457 211.3242278211
214.3301022801 87.2849435968 222.6541834504
215.4301652317 98.1810068326 219.2881034189
214.3972228335 110.3453567042 222.1894385794
212.1313816702 132.4866647245 216.5256921066
225.9688790981 81.2943230189 241.0871145979
211.0625140563 125.4677712702 223.9806109738
217.4551804531 104.8108758902 222.6793682377
217.9369103275 65.4414875239 265.9610232396
224.3385990968 79.2187705760 243.6882248217
213.7859909728 96.2619197195 220.7736861707
220.6755549807 92.0479180862 217.7879746825
211.1547080810 95.0299976621 217.4663933648
198.7945582992 141.0137217448 230.8571689645
218.5462493190 63.4686197607 251.6073494616
227.5121716311 78.5997614663 231.3499673737
229.0737098990 69.8556192744 253.5779290360
214.4475097510 135.1685270659 220.0624001879
215.8212889450 140.1010564866 220.0745710110
225.9952401615 86.5063692050 225.6678043477
215.3106658311 89.6181824906 222.4303647810
226.9440038735 75.3445431323 236.4978391008
219.9848425362 89.1411598666 216.0536273776
202.6463824669 137.0728701988 216.3547748790
213.4278611198 89.6724272357 219.6640893216
211.6678347743 84.5000906830 218.8695214514
207.4005360369 95.5658261307 215.3072399380
221.0201471522 69.6191265058 266.2094603388
209.9912082891 100.2832481440 219.3967455771
213.4184705590 139.2588722083 209.6123836349
205.7027858320 122.8990916870 246.5547684165
214.7963811935 121.7688456547 222.3326498528
219.4539252477 57.0690662516 264.0920153640
207.8664863614 134.3504044412 246.6886324753
217.3820782364 137.3314405627 216.4393450202
226.8707020369 78.8788729183 229.9064317235
228.4182033963 68.4287361624 249.3736014507
223.2970535521 77.5798034835 242.3307742966
201.1696781583 132.4758842763 231.2430062378
225.6036817779 78.4012830868 237.4310600479
214.4759431603 141.1264169841 213.5054324497
205.4897493485 127.5219662294 242.5874174789
195.3961523743 134.8803377936 213.3631621544
219.5132591375 68.8449801707 267.2396888403
225.0438248742 61.9051402047 261.5890760757
216.3398708162 120.9560874830 221.3875663767
199.5906258094 128.3292719937 242.2309491424
202.7278528004 127.1470340704 238.8223315327
197.8194615514 130.6217600306 240.2417438215
223.0358756221 78.9638825118 233.4467702825
217.9224201249 98.7399555295 219.1172305715
218.3543734733 125.4457267007 218.6971002765
221.4906513921 118.0783980273 220.3751881658
202.7180303617 140.2286999597 233.7882973528
214.6077809220 137.2743990736 224.9711901649
226.1401921502 118.0196649945 222.5833479639
212.7679851261 96.2128895331 219.5250986793
224.7193746699 65.0826203620 263.0416588296
195.0187831310 130.9157458666 242.7864439632
198.5361397687 132.5003177343 235.0684226837
216.4382556643 135.4113480861 218.9236930854
215.5995727398 126.8875243789 226.1697510856
218.8527410026 83.6613848909 216.7202591579
220.4000179427 137.5171792474 223.9248287224
219.5532611389 106.3178396517 220.2669905171
214.8712770900 84.9924878390 220.3426464295
222.1871999949 66.0567175424 256.9079453484
227.7144319673 72.2329343799 244.1087998081
215.9986892550 111.4167912930 224.3028262671
217.3403605228 73.3639763592 248.2612589505
195.6447231777 134.1526559389 243.1799502531
199.0258258528 134.8453445602 237.4715357354
196.7737005673 140.2698644227 211.4073603736
220.6047731565 70.7792478178 247.5904694783
211.2577456289 136.0837141355 217.3544157977
212.5258987181 92.9529719341 217.7683418110
207.7216895078 128.6891875060 245.3505743663
202.1813474534 138.7797891718 218.1111798189
195.9523129209 133.4195936984 212.1432108486
226.2691804626 79.8055845682 231.3911457203
222.9500168750 76.6725711714 228.8965448226
218.2134716484 77.9035032576 238.2249792518
218.7054368664 116.2571963187 223.2870619802
215.4592436051 120.5853156500 223.0606889557
196.1881121890 139.1692266530 212.9874175660
213.9811893004 138.6894032179 225.1736829893
231.1718529972 80.8305330439 242.1228088196
200.4045158620 143.8942529881 225.5862998411
211.7322621843 127.5754018112 221.9424685510
206.3249548175 123.3401365622 245.2122906508
211.0000803537 95.2680589165 218.1135233159
222.1891538442 70.3852206270 246.6241736076
204.3487550481 137.5954763023 208.9814428197
213.0698221142 130.0125473781 221.5475456821
215.8478470225 90.3169927213 215.6481488402
221.9642470600 100.8360808182 224.3160986516
209.7031226520 132.7519541261 217.8476669461
222.9987455042 80.4076217296 223.6651488811
219.3651629444 61.5572144479 263.9921533993
208.0856549545 130.5351066865 245.6512467639
210.2369826001 96.0378031335 212.0342942804
221.7579954015 88.3303604450 227.0583888273
227.8553881016 86.9315698556 225.6710852849
211.7379936016 104.1101096349 215.0145169195
220.4390997005 65.7895206552 251.9744245147
217.5061888043 59.9454561118 260.4435669014
198.2941906709 129.7768106010 234.4634338714
212.0815438913 126.9129701569 249.8065716258
206.2494696842 135.2542643224 207.3277311491
218.4266055429 143.7183376810 220.3768314773
218.9406093916 106.3184260308 221.8451403168
221.4308375026 66.0470902719 266.3326425616
202.7545651380 128.4107219850 235.5425155470
215.9707998785 65.1155744983 263.9592670954
215.5876231693 125.7034211438 217.5670983677
220.4027828540 90.3173218536 216.5149047843
201.3186333460 140.8606179345 217.3906719116
215.1061217945 131.0726425852 246.3845751091
214.3234371314 106.9927069367 220.6598984868
220.4474174475 88.6307544145 226.3219161900
215.2822637193 137.9216918753 208.8486819678
211.4337688648 95.8059467834 219.1031272104
212.5006837637 103.6110737829 214.9272017881
201.1089689438 134.1886636105 212.6856002030
217.2814214412 60.1091818199 261.9736272110
223.6687617781 60.9187040049 267.2592142616
217.5950458210 140.2611580756 225.4567408354
220.4000179427 137.5171792474 223.9248287224
227.5372064166 76.5479873417 245.2625167998
202.6969645093 132.6138004960 215.1597468685
211.4353099990 128.1381660005 240.6101760589
213.8640564230 109.3026835478 224.3408316768
223.0060612212 67.4671494443 262.1343081142
220.0158439694 121.0344846084 220.6369212369
222.6157540226 61.5017736092 260.9122611703
215.4177773534 114.2664311087 226.6540681057
221.1574156604 63.0625608294 267.8143418870
216.1121789585 117.4075025603 219.8818282227
216.9184761410 131.6114074931 222.7916706191
