202.5997619629 222.8800048828 218.5500030518
159.4617614746 253.2068023682 205.8510131836
159.8140716553 253.7728424072 213.7999877930
210.2440643311 220.2928466797 254.2599945068
198.6939544678 230.4900054932 203.2938079834
173.2367706299 229.2520141602 264.3746032715
208.6527862549 224.0890045166 219.8061981201
202.7816925049 231.5273742676 269.8699951172
211.6320648193 209.5380401611 245.9320068359
199.0646667480 228.0023498535 264.6500244141
176.1382751465 221.1233825684 267.0260009766
174.9163055420 221.7187042236 263.6749877930
173.4597625732 228.1300048828 204.8400115967
164.2755737305 244.1359100342 215.2089996338
167.8692169189 243.0775909424 206.8081970215
205.1688232422 230.6440277100 264.2300109863
179.2867126465 226.5297393799 270.5400085449
205.8497924805 223.8157043457 260.7717895508
177.4940643311 233.0928497314 206.1899871826
171.4117584229 207.2868041992 267.0310058594
212.3108673096 209.7029724121 239.9499969482
207.2152862549 229.6369323730 262.3640136719
216.3840789795 209.7328491211 230.7599945068
159.0625915527 251.3000030518 205.4580078125
171.6286163330 237.8917694092 201.4160003662
169.9097900391 232.8057098389 208.2118072510
202.2327270508 242.3200988770 209.3389892578
173.9389343262 225.4958343506 208.2319946289
164.5879211426 242.8276214600 216.1269989014
187.1891326904 233.8558654785 270.5939941406
174.3172302246 227.1853485107 199.9800109863
177.4167175293 229.6597290039 206.2299957275
159.4617614746 253.2068023682 205.8510131836
208.5046539307 219.3123474121 253.1399993896
190.7733917236 236.3398590088 267.2025756836
208.3631896973 216.5345916748 220.2279968262
183.9767150879 232.5597381592 197.8000030518
209.5637969971 236.0771942139 266.4011840820
167.8936309814 207.7169799805 266.6795959473
164.6421356201 254.5569305420 207.8531951904
197.7446594238 231.4123535156 261.8300170898
200.7646636963 209.6823425293 224.7500000000
172.0908660889 225.4529724121 208.1499938965
184.7716674805 237.2793579102 273.3804016113
181.3616638184 228.9893493652 205.1304016113
211.6574249268 210.0498657227 237.0299987793
210.5021972656 224.1898651123 250.1999969482
173.0634002686 228.2698669434 266.2926025391
183.4052886963 220.4469299316 207.3740081787
193.6746673584 233.8723449707 203.7599945068
164.8589477539 254.3381805420 206.6470031738
203.3097534180 219.1199951172 216.8200073242
192.1659698486 236.5787963867 269.2268066406
207.4267120361 239.0797271729 263.5500183105
206.2036285400 229.9869842529 259.4496154785
165.2397613525 234.6600036621 204.4000091553
209.5637969971 236.0771942139 266.4011840820
203.1174163818 235.8598632812 217.3699951172
188.7621307373 229.6969299316 271.9231872559
206.8813934326 211.8200073242 241.3088073730
213.5967102051 210.6497344971 239.3899993896
168.7692108154 241.9575805664 208.9181976318
183.3697509766 222.9100036621 201.1200103760
205.1557617188 227.4259033203 259.2330017090
185.8840789795 231.9728546143 198.9199981689
160.1421966553 249.6498718262 210.0999908447
204.5486145020 229.1656188965 257.5776062012
165.1751403809 232.0299987793 204.6529998779
204.6840667725 220.1928558350 221.8899993896
189.0916900635 231.4873657227 272.6399841309
162.1208648682 241.5229644775 210.6900024414
213.0567169189 229.0697326660 255.9900054932
207.2732849121 227.2481079102 254.9539947510
185.6608734131 231.1029663086 201.6399993896
168.0916900635 250.2273712158 210.9100036621
213.8864746094 209.1112365723 246.6600036621
185.3349914551 223.6669158936 273.3753967285
172.9182739258 230.1533813477 203.6360015869
207.3889465332 205.8181762695 224.3369903564
178.6840667725 223.4428558350 272.1199951172
183.0543060303 225.9940643311 268.8124084473
202.7751464844 205.6900024414 223.9629974365
216.2189483643 206.3181762695 229.4169921875
183.3279113770 224.7076110840 207.8069915771
211.7836456299 222.8778228760 246.8040008545
205.3687438965 231.3959960938 257.9685974121
202.2866821289 223.1999969482 212.3719940186
203.4308624268 205.4729766846 227.2200012207
179.0343017578 217.0340728760 266.5124206543
181.7140655518 224.9628448486 208.8499908447
201.6955718994 226.8359069824 214.0789947510
179.4608612061 228.2629699707 205.4499969482
167.8999938965 243.2152252197 207.7673950195
209.1739501953 230.8800048828 249.7238006592
205.0838012695 206.8871917725 226.9411926270
206.8527832031 219.3190002441 223.1862030029
196.6455841064 236.2959136963 209.7989959717
206.6408691406 205.3829650879 234.9899902344
187.3822021484 226.1998748779 200.6399993896
215.8055725098 214.4659118652 248.8190002441
210.0443115234 234.3940734863 262.3324279785
186.2989501953 222.0481719971 274.6770019531
181.5713958740 225.5299987793 201.7187957764
164.9913940430 248.9799957275 210.3488006592
202.0236511230 224.5778198242 213.4639892578
210.9746551514 205.3423461914 225.8399963379
196.6527862549 238.0890045166 210.5661926270
208.0136566162 207.3778228760 232.5240020752
207.1667633057 212.2620086670 229.1146087646
207.3640747070 232.0428466797 265.6600036621
192.0782775879 227.5533752441 198.5359954834
199.8819274902 236.2289886475 205.8080139160
206.5827331543 226.4300994873 222.3489990234
182.3218688965 216.9675292969 267.7420043945
210.4866790771 228.7400054932 249.3919982910
211.3546600342 208.1123504639 244.9100036621
213.5336303711 209.4869842529 229.3195953369
194.4240722656 233.4428558350 270.9100036621
199.8216552734 235.3493499756 264.2103881836
166.1116943359 242.7173767090 204.4300079346
202.6899871826 222.0852355957 213.1174011230
173.5940704346 225.3428497314 208.4299926758
207.5121917725 210.7198638916 221.8999938965
210.5021972656 224.1898651123 250.1999969482
165.2397613525 234.6600036621 204.4000091553
175.0046539307 233.2923431396 205.7700042725
175.8340759277 226.8028564453 271.3000183105
181.5713958740 225.5299987793 201.7187957764
203.4346618652 230.9723510742 263.6700134277
207.9439544678 228.6699981689 249.7537994385
160.0636291504 254.5069732666 206.1696014404
177.5974273682 216.9298553467 272.4399719238
192.2074279785 240.3398590088 267.4199829102
204.4440765381 211.2328491211 227.4299926758
164.5016937256 250.4973754883 210.3899993896
160.9486083984 242.8056182861 215.8775939941
163.5472259521 256.5053710938 207.5900115967
211.3682708740 204.0133819580 227.3959960938
173.0479125977 251.6076202393 215.2269897461
192.4807281494 233.8999938965 199.2226104736
216.6299896240 218.4452362061 244.5873870850
164.9043121338 240.1040649414 204.8524017334
164.2919158936 233.1389923096 206.8480072021
175.3097534180 223.8399963379 263.0399780273
215.8384704590 225.3662872314 247.4697875977
205.1886138916 232.7156219482 264.9575805664
193.3227386475 230.1501007080 270.9890136719
190.4514007568 233.1799926758 200.8688049316
178.0807189941 229.2366485596 204.0260009766
190.7733917236 236.3398590088 267.2025756836
182.2574310303 224.3198547363 277.1999816895
207.5897521973 215.6799926758 242.9199981689
207.7808685303 214.5429687500 251.6399993896
160.7308654785 238.9229736328 207.8499908447
203.4974212646 235.1198577881 210.8500061035
208.7089691162 234.3192596436 261.7890014648
205.3736267090 235.9369812012 213.1396026611
173.6167602539 222.0420074463 270.5646057129
202.2866821289 223.1999969482 212.3719940186
175.7516632080 207.6493530273 268.8003845215
211.8867034912 200.5197296143 237.0500030518
173.2088165283 221.4340209961 202.3000030518
195.2042999268 239.4440765381 268.7624206543
187.0752868652 225.5669250488 199.7839965820
168.0136260986 209.1869812012 267.2096252441
204.7147827148 209.9153289795 215.8009948730
163.1540679932 253.5928497314 212.9599914551
212.4316558838 229.1293487549 253.3704071045
202.9021301270 229.4269409180 267.2431945801
198.1074218750 233.2198638916 261.2699890137
213.4740753174 215.1428527832 248.4599914551
165.0040740967 239.1728515625 210.6899871826
205.6246643066 231.0623474121 264.5400085449
174.7716827393 209.5273742676 270.8899841309
162.2327270508 242.5200958252 207.4789886475
194.4227752686 227.9089965820 275.1361999512
168.5121917725 201.9598693848 266.6900024414
173.8052825928 232.9369201660 206.6840057373
206.8813934326 211.8200073242 241.3088073730
202.9707183838 235.1766510010 211.1160125732
180.1234741211 224.5830535889 208.7059936523
218.4589538574 207.7281799316 234.4669952393
206.7621307373 221.1869354248 216.6531982422
160.0917663574 243.0868072510 201.9610137939
173.3726348877 233.2967987061 209.1829986572
169.6246643066 203.0823516846 269.4200134277
213.2472229004 215.4953613281 243.6200103760
161.2151489258 239.0000000000 211.4329986572
176.3843078613 206.6540679932 266.5324096680
206.2036285400 229.9869842529 259.4496154785
208.1439514160 225.3300018311 212.3338012695
204.3482818604 229.1433868408 212.6759948730
184.0957641602 226.6259155273 197.5930023193
183.0746612549 221.2523498535 277.2900085449
183.4259643555 227.7488098145 197.2968139648
159.0506896973 256.4710388184 214.0302124023
210.8891296387 208.1758575439 241.4840087891
202.1716918945 232.1173706055 264.6299743652
202.6286163330 225.1217803955 219.6660003662
177.0838012695 228.2171936035 207.5612030029
207.0882720947 209.2733764648 222.5459899902
208.5519256592 219.0089874268 252.6080017090
204.6567077637 235.3497314453 211.6900024414
181.1208648682 222.3329772949 272.8900146484
200.6357574463 207.2959136963 224.9430084229
202.2386016846 227.4856109619 215.5776062012
209.9899902344 226.2552337646 212.7173919678
181.1534729004 224.7730560303 276.9359741211
201.9586029053 233.9756164551 213.1475982666
213.9721374512 214.5869293213 245.1331939697
182.7257537842 231.4359130859 272.6730041504
208.9036254883 218.2969818115 245.3695983887
211.4167175293 222.4297332764 253.2099914551
197.1064758301 232.3812408447 270.3099975586
172.5567169189 236.8097381592 205.8600006104
213.0451354980 207.1600036621 224.2530059814
212.9518585205 212.9075317383 241.5919952393
159.7551422119 251.6699981689 204.6330108643
176.5282745361 232.4933776855 202.7160034180
192.0016632080 234.8593597412 205.0803985596
173.3657684326 222.3859100342 264.8930053711
199.5757598877 235.5759124756 206.6730041504
207.8472290039 207.4753570557 222.6100006104
199.5321350098 233.0969390869 203.9832000732
197.2946624756 237.1323547363 209.8099975586
163.6472320557 253.0153503418 203.8600006104
162.6959686279 241.9788055420 211.6868133545
203.6708679199 232.0629730225 264.5100097656
189.5759582520 226.8988037109 202.1068115234
183.0886230469 232.9917755127 197.3560028076
216.2483825684 223.6679534912 247.5859985352
176.2243041992 237.4140777588 201.1524047852
205.3920593262 230.1080474854 262.6719970703
170.8043060303 237.1540679932 205.7023925781
193.1916961670 230.9873657227 274.4799804688
182.4046630859 229.8623504639 273.0600280762
200.6972351074 234.7153472900 262.2399902344
179.4379119873 215.3776092529 274.1470031738
215.7621307373 209.6469268799 243.0531921387
208.9572296143 231.7553558350 254.1500091553
193.8346557617 234.2523498535 209.3999938965
183.0746612549 221.2523498535 277.2900085449
172.1443023682 213.3840637207 265.0524291992
160.7697601318 239.2500000000 211.3300018311
172.9140777588 206.6728515625 270.9100036621
181.5713958740 225.5299987793 201.7187957764
194.4884643555 234.9062805176 199.6398010254
167.2266845703 237.8899993896 207.1219940186
188.9546661377 230.3123474121 204.8399963379
210.0051422119 211.9900054932 240.1529998779
174.7986145020 237.3156127930 204.8475952148
169.6372222900 237.4153594971 205.8500061035
163.6888275146 249.6640319824 211.2299957275
202.7989654541 241.4292602539 207.3089904785
203.7189483643 240.0981750488 208.5269927979
184.5513916016 227.8000030518 200.7687988281
159.9198150635 249.2467498779 206.4100036621
180.0636444092 226.5278167725 268.6640014648
187.3807067871 234.0566558838 271.5859985352
181.3855743408 221.2159118652 269.6590270996
161.5484619141 256.9662780762 211.1098022461
192.1492156982 226.4075927734 200.0782012939
171.1574249268 234.5098571777 201.3600006104
211.8272247314 202.4253540039 233.6500091553
167.5574188232 208.8498535156 267.8799743652
181.9321441650 214.6769409180 271.3831787109
184.0037994385 223.5872039795 207.5811920166
205.1416931152 231.1873626709 210.6300048828
168.5421447754 232.7069396973 206.9231872559
207.0502929688 210.0398406982 219.5050048828
199.8216552734 235.3493499756 264.2103881836
209.6855773926 212.6859130859 222.8889923096
172.9519195557 225.0489959717 269.2780151367
205.4740753174 233.6828460693 264.6900024414
179.5143127441 225.8640747070 267.7624206543
204.0239562988 211.5700073242 215.0337982178
168.6218566895 233.9975280762 206.3719940186
215.7638092041 208.1472015381 232.0411987305
211.9416656494 209.2993621826 230.1004028320
164.2313995361 244.3099975586 208.6188049316
209.5836486816 227.1378173828 250.5639953613
170.0320587158 232.8580474854 203.9520111084
174.3288269043 211.4640197754 272.2200012207
184.2304687500 229.1769409180 205.7673950195
198.2217559814 238.7667999268 207.3610076904
210.3989715576 235.4792633057 262.9790039062
210.4336242676 228.1669769287 255.8195953369
176.6416931152 226.3273773193 269.8999938965
162.3655853271 255.4059143066 213.3690032959
178.9274291992 219.0198669434 266.6899719238
190.7874298096 232.8398590088 200.8800048828
172.3659667969 223.1287994385 265.4568176270
210.7816925049 228.3373718262 259.6799926758
175.0039978027 216.0922088623 266.3799743652
213.0814056396 220.8600006104 245.5688018799
210.8713989258 226.2299957275 248.4888000488
200.6357574463 207.2959136963 224.9430084229
211.8097534180 209.8300018311 232.4500122070
199.6336212158 241.1869812012 207.6396026611
206.0139923096 218.8622131348 216.2500000000
212.7867126465 226.5497283936 258.4300231934
200.3067169189 235.3297271729 263.6400146484
205.4552917480 211.0369262695 221.2640075684
209.3647766113 220.2453155518 246.2510070801
208.0051422119 221.9400024414 247.5429992676
216.7921447754 221.1369323730 248.7031860352
214.4694061279 210.6825408936 236.0839996338
173.4682617188 225.5173034668 270.0309753418
208.8172302246 211.1853485107 222.7600097656
172.1013946533 232.3600006104 201.1688079834
201.9357604980 212.5459136963 220.9629974365
187.8752899170 226.6169281006 203.8540039062
169.4297485352 235.4299926758 205.2400054932
189.2921447754 229.5069274902 202.3331909180
207.7784576416 219.4262847900 218.7697906494
179.5107116699 226.2266540527 268.6959838867
203.2888183594 212.6940307617 223.3799896240
177.6138000488 234.8271942139 205.8912048340
180.3639984131 222.0622100830 270.2200012207
208.3040008545 205.4322052002 227.5700073242
172.6472320557 210.4553527832 262.8399963379
211.3374176025 207.1498565674 225.2799987793
179.2416839600 235.7573699951 204.2500000000
173.7916870117 221.9073638916 203.1999969482
206.4636535645 212.3078155518 226.7740020752
163.2646636963 238.1923522949 209.5699920654
203.1216888428 232.3473663330 207.6199951172
178.4288177490 234.9240264893 205.0899963379
209.2782745361 205.0033874512 227.1360015869
158.4597930908 254.4957122803 214.1217956543
159.8862915039 239.2987060547 204.4649963379
208.1282806396 207.7933807373 241.3860015869
169.1172332764 206.6453552246 265.6699829102
173.4286041260 229.2856140137 207.4376068115
161.1320648193 238.2280426025 208.7020111084
206.3697509766 211.3200073242 216.6100006104
179.5516815186 221.8273773193 268.3699951172
163.0316619873 244.3393554688 214.9703979492
211.3316650391 205.9293518066 235.6903991699
162.1172332764 239.9253540039 211.6100006104
202.6334686279 234.4430541992 218.9860076904
200.3774261475 234.6898651123 267.9700012207
181.7814025879 220.8399963379 203.7388000488
180.1234741211 224.5830535889 208.7059936523
191.4997558594 237.8000030518 266.9199829102
189.9282836914 228.6733856201 268.5060119629
202.2386016846 227.4856109619 215.5776062012
170.1597595215 210.3200073242 266.9700012207
169.4547882080 205.7153167725 270.1409912109
165.8639984131 230.0722045898 206.4499969482
206.4982604980 201.0773010254 238.8610076904
160.3840026855 239.7022094727 201.8899993896
160.4859619141 238.1287994385 207.3768005371
211.8597564697 208.9900054932 236.1900024414
184.7097625732 231.7400054932 196.4000091553
206.4186096191 216.2056121826 251.1676025391
170.6786041260 233.9556121826 206.5675964355
208.8340759277 227.1428527832 262.6900024414
213.7707214355 217.0599975586 245.0926055908
209.4316864014 208.4573669434 242.3600006104
204.7983856201 232.8879547119 259.8960266113
160.7639617920 256.8800048828 210.6838073730
207.8686065674 205.1156158447 236.6576080322
173.5686187744 228.1217803955 268.3260192871
189.9682769775 230.2133789062 266.8160095215
165.7321929932 237.0198669434 206.6699981689
200.7419281006 212.6689910889 220.0180053711
174.1851501465 223.4700012207 262.8630065918
174.0899963379 209.4608459473 266.5100097656
174.8249969482 229.5669250488 265.5254211426
170.6940002441 202.6222076416 268.5799865723
164.5921325684 253.2169342041 206.0331878662
202.3474273682 226.5098571777 212.1500091553
206.7397613525 230.0299987793 252.2300109863
172.6967163086 207.7297363281 270.0700073242
163.6143035889 256.0440673828 206.4924011230
208.6440734863 210.7428436279 225.0000000000
199.7586059570 230.7156219482 270.3275756836
175.3099975586 204.2008514404 270.3600158691
212.4759674072 207.9387969971 234.5268096924
202.6508636475 233.7029724121 215.7799987793
205.3442993164 213.7540740967 217.2324066162
184.5699920654 228.5552368164 268.6174011230
177.5992126465 230.4375915527 202.7781982422
214.6499938965 225.4352264404 246.6273956299
205.0472259521 234.7353515625 210.2900085449
203.1151428223 209.8300018311 222.6230010986
196.7549896240 240.3569183350 205.0753936768
171.6216583252 252.8993530273 213.8104095459
207.5636291504 214.0969848633 241.8595886230
209.6289672852 230.0192565918 258.7090148926
214.3372344971 211.7853546143 233.1200103760
183.0621337891 216.4069366455 269.6231994629
181.9657592773 221.7159118652 277.1530151367
176.1947784424 211.2053222656 267.5709838867
169.8567047119 209.3697357178 267.4300231934
183.8527374268 237.9701080322 273.6190185547
198.1838073730 236.3071899414 206.3112030029
161.7083892822 255.5379638672 210.4059906006
173.7174224854 226.7998657227 263.3499755859
188.8236236572 233.8869781494 267.2696228027
194.5792083740 233.1675872803 264.9281921387
202.9389495850 228.4881744385 266.2969970703
171.8742980957 238.0040740967 206.3724060059
204.4440765381 211.2328491211 227.4299926758
208.4613952637 206.9600067139 226.2288055420
163.2836303711 244.9069824219 210.7796020508
196.3639984131 231.2922058105 267.1099853516
208.9127349854 226.5001068115 216.7189941406
211.4255828857 204.8659057617 242.7590026855
175.0739898682 221.4922027588 264.6399841309
198.5340728760 234.9028472900 207.1699981689
212.3333892822 212.5798645020 248.9126129150
212.9116821289 198.9873657227 236.4900054932
205.9272308350 216.1053466797 219.1100006104
184.2857666016 227.1659088135 199.8829956055
175.2431945801 234.3545837402 206.6779937744
158.6474304199 251.4998626709 207.2799987793
203.9097595215 217.0099945068 219.2200012207
181.0247802734 222.6853179932 265.8709716797
199.5067596436 234.3120117188 211.4446105957
206.6608734131 201.3329772949 239.3099975586
201.3588256836 231.2840270996 265.4700012207
171.5836181641 236.3969726562 204.8695983887
212.4316558838 229.1293487549 253.3704071045
209.5121307373 225.4869384766 259.7331848145
183.0719299316 227.9889831543 199.7280120850
188.9739990234 229.0622100830 269.0999755859
215.2565917969 226.2816925049 249.5557861328
172.8386077881 227.2856140137 267.1375732422
202.9913940430 231.9799957275 209.6488037109
167.5786132812 205.3056182861 269.8675842285
201.0534667969 210.2130584717 226.1660003662
168.1238098145 234.1671905518 211.1611938477
209.5967102051 225.3697357178 216.5800018311
215.9716949463 209.7673645020 243.3999938965
193.7559661865 234.6488037109 207.6068115234
210.9374237061 227.5098571777 249.0400085449
206.6449890137 203.3469238281 236.8954010010
214.8564758301 223.4412384033 251.3000030518
207.9231872559 221.1445922852 218.3179931641
160.4859619141 238.1287994385 207.3768005371
203.2440032959 232.0622100830 216.3500061035
188.9016876221 227.7973632812 203.4600067139
202.2327270508 242.3200988770 209.3389892578
207.6267089844 213.7597351074 225.8899993896
180.7913970947 226.7299957275 201.2588043213
168.3416900635 239.5873718262 212.4700012207
187.3816833496 226.8373718262 196.4900054932
201.9266815186 230.0500030518 210.8320007324
209.4497528076 202.5500030518 232.1399993896
164.1089630127 254.2692565918 203.7489929199
180.5436248779 226.6169738770 269.7196044922
173.9289703369 225.7092590332 200.2589874268
209.0527801514 211.1289978027 231.4161987305
164.6934661865 234.9930572510 208.2760009766
182.9689483643 217.3381805420 268.5769958496
217.3549957275 208.7269287109 237.1253967285
180.7913970947 226.7299957275 201.2588043213
201.4592590332 234.7091979980 260.6042175293
173.7731933594 236.0745849609 207.5879974365
200.3497619629 231.0800018311 260.1499938965
177.3989715576 205.9792633057 266.9590148926
166.6439971924 230.6822052002 205.0500030518
209.3949890137 215.9269256592 222.5053863525
178.7567138672 217.1597290039 273.2799987793
178.0516815186 204.2673645020 267.4299926758
194.3918609619 228.5575256348 269.3219909668
179.4517669678 217.4868011475 271.4309997559
203.3186035156 214.3256225586 224.6175994873
165.8447875977 241.7553253174 206.0410003662
177.0121917725 215.1798706055 266.2300109863
206.2582550049 211.0173034668 244.7810058594
182.6508636475 230.3729705811 271.6600036621
161.9851379395 254.6900024414 205.0230102539
203.3536224365 212.3669738770 224.8195953369
213.0292053223 206.7775878906 232.2281951904
190.9897613525 231.7799987793 200.0400085449
177.8316955566 204.4473724365 269.1899719238
175.8340759277 226.8028564453 271.3000183105
205.8398132324 224.0467529297 255.4299926758
209.7267150879 230.2197265625 255.8099975586
167.9234008789 210.1098632812 271.3925781250
165.2416839600 253.5873718262 204.8899993896
209.3588256836 226.8640289307 254.7899932861
204.0986022949 210.4256134033 227.9875946045
214.4452819824 208.2969207764 244.4140014648
199.3333892822 233.3298645020 213.3626098633
207.6816864014 220.7573699951 220.3000030518
202.1852874756 228.4169311523 269.8739929199
210.3908691406 217.3329772949 248.8799896240
165.1816864014 239.2473754883 205.3300018311
158.5208740234 250.7829742432 208.6799926758
172.5151367188 234.8399963379 200.6930084229
203.3482666016 226.2572937012 224.2610015869
192.6127319336 232.4900970459 199.6189880371
171.7108612061 213.8629760742 271.5599975586
186.7121429443 224.6769409180 270.5032043457
205.4982604980 229.0072937012 260.4509887695
174.3288269043 211.4640197754 272.2200012207
212.2864685059 211.1712493896 247.2300109863
211.4327850342 206.6589965820 243.5261993408
215.6021423340 205.8369293213 238.3731994629
209.0772247314 230.5553588867 258.6299743652
212.8382720947 203.5333862305 236.1860046387
202.5616912842 233.3873748779 268.2500000000
214.7616882324 205.2473754883 239.2500000000
163.5533905029 251.9198608398 215.8126068115
206.2582550049 211.0173034668 244.7810058594
194.4884643555 234.9062805176 199.6398010254
176.3739624023 225.9600067139 199.7938079834
195.2042999268 239.4440765381 268.7624206543
185.3279113770 234.8676147461 275.5969848633
201.8967132568 242.0697326660 210.0800018311
207.8333892822 214.0598602295 225.7526092529
212.1588287354 204.0240325928 229.8899993896
172.1936187744 207.3069763184 265.9096069336
198.8017578125 240.7167968750 208.5709991455
170.9486083984 210.5156250000 272.0875854492
185.7232818604 232.3381042480 196.4040069580
164.5921325684 253.2169342041 206.0331878662
182.4766845703 223.0399932861 269.0320129395
208.1388244629 211.0040283203 245.9499969482
206.4738006592 221.8171997070 221.8311920166
211.1921386719 228.5869293213 254.1531982422
169.4908599854 211.0429687500 264.8399963379
170.9326477051 206.8768005371 271.3129882812
168.9783935547 238.7679595947 207.4859924316
179.0962982178 214.5487060547 267.3849792480
164.9652862549 239.2569274902 210.4440002441
210.5199890137 222.8252258301 245.8674011230
171.5413970947 224.0500030518 200.7388000488
173.5059661865 222.5787963867 269.4268188477
172.1936187744 207.3069763184 265.9096069336
184.8140716553 222.2328491211 278.4100036621
201.3792572021 223.6891937256 214.5142059326
161.6752929688 250.4369201660 213.0839996338
175.5543060303 227.8240661621 263.9624023438
172.4559631348 225.5187988281 265.7767944336
160.3682556152 241.1472930908 208.2910003662
178.6792144775 237.5475921631 203.1082000732
207.5204620361 218.7669372559 222.1073913574
169.8692169189 239.5875854492 207.2982025146
208.5188293457 211.7640228271 221.4400024414
178.0008697510 225.5829772949 271.1000061035
187.8752899170 226.6169281006 203.8540039062
170.0052947998 203.0069274902 269.4140014648
206.5616912842 215.1873626709 219.9499969482
183.7955780029 226.5959167480 273.3590087891
209.7236480713 217.2978210449 244.3639984131
170.2959594727 232.1887969971 205.2068023682
203.7122039795 219.6398773193 214.7799987793
172.6472320557 210.4553527832 262.8399963379
179.8064727783 224.1912384033 204.0200042725
201.5852813721 228.0769348145 268.6040039062
214.8947753906 214.2853240967 246.9010009766
213.5939941406 225.4022064209 255.6599884033
212.0097808838 211.0857086182 247.7618103027
209.6821441650 231.5569305420 260.1431884766
213.4688262939 213.8340301514 247.8999938965
185.3133087158 229.1426849365 204.4779968262
215.4621429443 208.5969390869 241.9731903076
211.3040771484 197.9928436279 237.2999877930
177.6399993896 231.8652343750 204.0074005127
164.9989471436 242.0781707764 203.3670043945
198.3097534180 232.1600036621 260.4299926758
185.9127807617 232.9689941406 276.4161987305
181.4133911133 230.5898590088 205.2126007080
169.4297485352 235.4299926758 205.2400054932
205.1743011475 233.0740661621 210.1024017334
171.4134674072 236.6730499268 203.7960052490
169.2546539307 209.9523468018 264.0000000000
160.8686065674 239.8956146240 208.7375946045
182.9851379395 221.9499969482 200.8529968262
201.6165924072 234.7116851807 211.2557983398
208.6782836914 231.3433837891 262.7860107422
208.3321380615 206.6869354248 223.6531982422
190.7482604980 231.1172943115 200.4309997559
214.5216827393 227.6073760986 251.0599975586
190.9317626953 232.1567993164 198.4010009766
210.1816558838 210.2693481445 228.0004119873
213.7088165283 226.7740325928 251.8999938965
167.5974273682 206.0298614502 268.6699829102
203.6186065674 216.4656219482 223.7875976562
201.8552856445 237.7269287109 209.4540100098
177.3499908447 213.7852325439 267.1874084473
201.8638000488 239.8471984863 210.3612060547
162.4786071777 240.1756134033 210.2875976562
184.1967163086 236.4897308350 270.9500122070
209.7455749512 223.8559112549 215.0189971924
182.3094024658 226.1925354004 207.7539978027
206.9697570801 205.0399932861 232.7500000000
205.9417572021 236.2667999268 214.4010009766
215.5372314453 221.7053527832 245.8300018311
208.9127349854 226.5001068115 216.7189941406
172.0908660889 225.4529724121 208.1499938965
204.1659698486 227.3988037109 256.2167968750
211.1486053467 210.4756164551 246.1376037598
206.1588287354 224.8040313721 223.9799957275
175.0697479248 225.3200073242 202.1399993896
190.7216644287 234.1993560791 205.6704101562
171.9836273193 227.6869812012 201.1696014404
183.4052886963 220.4469299316 207.3740081787
211.6916656494 218.2493591309 247.9104003906
171.0852813721 235.2469329834 210.5440063477
158.0859680176 252.2588043213 211.9668121338
204.1420593262 217.5280456543 219.1320037842
215.8040771484 221.0428466797 250.6599884033
214.2852935791 204.4869232178 239.7340087891
209.2782745361 205.0033874512 227.1360015869
206.9446563721 221.8023529053 249.2599945068
206.8739929199 210.1122131348 217.1699981689
180.9933929443 217.8498687744 273.0825805664
201.6125793457 209.6300048828 222.3580017090
202.1938018799 230.5372009277 270.7811889648
167.0000000000 244.3352355957 205.6573944092
195.4998016357 232.7067413330 207.2399902344
210.5820617676 206.7580413818 240.3920135498
198.8139953613 230.9522094727 260.9899902344
209.4774169922 218.7198638916 245.4799957275
159.5657653809 240.4659118652 202.7730102539
198.8708648682 235.1929779053 209.0899963379
161.0488281250 239.8340301514 203.2899932861
212.8904724121 207.1169433594 243.4073944092
208.5246582031 226.1723480225 252.6699981689
160.3957672119 237.9159088135 213.4629974365
172.8298034668 234.0367431641 200.9400024414
203.6982727051 222.3833770752 213.1959991455
177.9508666992 226.5629730225 206.0699920654
183.4052886963 220.4469299316 207.3740081787
170.7772216797 236.1053466797 205.5200042725
207.5321350098 223.4369354248 213.9931945801
172.3217620850 228.1268005371 202.3810119629
189.6997528076 231.5200042725 272.5699768066
208.1213989258 202.3699951172 233.3688049316
208.9488220215 230.5140228271 261.5100097656
172.1443023682 213.3840637207 265.0524291992
200.5667572021 222.6120147705 213.8846130371
168.4649963379 241.6869201660 208.0653991699
209.2202911377 223.0698394775 217.1250000000
211.3189544678 234.1481781006 264.1969909668
174.1600036621 209.6808471680 267.8500061035
207.2338104248 225.6671905518 219.0912017822
202.0119171143 222.0489959717 220.6180114746
201.8967132568 242.0697326660 210.0800018311
192.1667175293 232.5197296143 275.0400085449
167.6543121338 245.5640716553 209.9824066162
212.4689483643 222.8081817627 254.2269897461
184.9316864014 225.2773742676 203.1900024414
198.3167114258 235.9597320557 206.3300018311
209.3647766113 220.2453155518 246.2510070801
206.8979187012 224.8976135254 223.5670013428
164.6866760254 244.2500000000 207.6219940186
169.0459594727 211.0787963867 266.8668212891
187.0449981689 234.2669219971 204.5354003906
209.7589569092 226.6681823730 260.3670043945
173.9640655518 210.0028533936 272.2900085449
206.8979187012 224.8976135254 223.5670013428
206.7216644287 216.8893585205 248.8704071045
175.6167144775 227.8597412109 270.4600219727
187.3372344971 231.4353485107 199.6800079346
202.3474273682 226.5098571777 212.1500091553
158.9886169434 242.5417785645 205.9960021973
184.5872344971 235.8753509521 269.5499877930
198.7420654297 232.8580474854 209.9320068359
173.5686187744 228.1217803955 268.3260192871
209.5359649658 222.8488006592 256.9168090820
207.3588256836 230.7340240479 265.1000061035
205.1497497559 236.6900024414 261.3899841309
176.7674255371 226.5898590088 268.6699829102
190.5614013672 232.5299987793 265.4988098145
187.3816833496 226.8373718262 196.4900054932
183.2899932861 218.3052368164 270.3973999023
203.9046630859 211.9623565674 223.0800018311
206.1272277832 233.9753570557 260.0399780273
196.8736419678 235.1878204346 262.9340209961
173.7766876221 229.5800018311 203.1719970703
167.1289672852 233.0092620850 205.0589904785
176.2388153076 224.2440338135 204.0999908447
177.6288299561 224.2140197754 205.1799926758
179.1227264404 216.9100952148 272.9290161133
200.0731811523 232.1545867920 203.9779968262
207.6246643066 227.1923522949 254.2299957275
203.5336303711 226.6869812012 221.1495971680
214.0138092041 208.9472045898 240.2711944580
173.2547760010 233.3353271484 208.3710021973
164.2727355957 244.3601074219 214.9089965820
212.0438079834 216.5372009277 249.2711944580
164.4897613525 248.6799926758 210.5600128174
163.2589569092 241.1981811523 202.3670043945
181.3855743408 221.2159118652 269.6590270996
207.1697845459 227.6457061768 251.6717987061
174.2716827393 250.6173706055 212.6199951172
173.8939971924 209.7322082520 264.0799865723
167.0152893066 243.3769226074 214.0240020752
209.3927307129 223.8101043701 249.9789886475
201.2686157227 211.4317779541 223.7859954834
202.6899871826 222.0852355957 213.1174011230
213.9189453125 224.9181823730 256.9370117188
183.4138031006 222.5671997070 208.2812042236
177.0838012695 228.2171936035 207.5612030029
165.1716918945 237.6873626709 206.1800079346
187.1547851562 229.5253143311 267.9009704590
214.1938018799 221.9671936035 251.7312011719
207.1965789795 220.3416900635 220.8557891846
181.8939971924 223.4322052002 202.7700042725
181.5707092285 226.8266448975 269.7559814453
210.5697784424 201.9957122803 238.7317962646
211.1991271973 208.3458557129 243.8639984131
207.1182708740 223.9233856201 258.8259887695
215.3933105469 207.1326904297 240.0679931641
162.9367065430 254.6497344971 212.1199951172
212.7867126465 226.5497283936 258.4300231934
198.5416564941 236.7993621826 205.5004119873
204.2799987793 235.3552246094 260.2673950195
162.2474212646 242.2398529053 209.2900085449
184.4189758301 237.0792694092 271.5890197754
209.3314056396 202.5000000000 232.4188079834
167.5143127441 234.1940765381 205.5623931885
206.1436309814 233.6669769287 259.6896057129
170.2846679688 203.3823547363 267.1000061035
199.7272338867 235.4253540039 203.4400024414
196.9759674072 230.1088104248 265.0068054199
207.0759582520 198.5588073730 237.6368103027
174.5847778320 218.9353179932 270.1809997559
175.3939971924 223.5322113037 205.2600097656
172.7882537842 224.5473022461 267.9209899902
194.0282745361 232.1233825684 267.9559936523
193.8659667969 235.5588073730 271.1867980957
195.9207305908 233.9700012207 262.8125915527
198.1585998535 231.2056121826 268.6275939941
171.9652862549 249.0669250488 214.2640075684
175.6982574463 236.2472991943 205.2710113525
174.3321380615 211.0569305420 270.4331970215
201.7602844238 227.2798309326 267.5150146484
212.8974304199 211.3298645020 232.1399993896
207.7159576416 206.9687957764 227.5468139648
163.5533905029 251.9198608398 215.8126068115
205.4940643311 230.3228454590 214.9700012207
162.4318695068 250.8875274658 207.3619995117
202.7997589111 220.9600067139 218.1000061035
214.8552856445 204.9169311523 229.4239959717
204.5146636963 225.0123443604 255.7899932861
213.0814056396 220.8600006104 245.5688018799
209.3733978271 206.8098602295 243.1426086426
214.2588195801 225.5340270996 257.0599975586
171.5940704346 237.3928527832 211.3399963379
172.5151367188 234.8399963379 200.6930084229
185.4038085938 225.4472045898 272.7712097168
166.8283843994 239.4679565430 206.3059997559
214.5155792236 211.3759155273 246.0890045166
206.6297912598 221.0357055664 251.7017974854
172.3139953613 220.9421997070 202.6399993896
172.1716918945 203.5873718262 269.1399841309
216.2289581299 207.9581756592 230.8069915771
209.5825805664 213.3200073242 239.6880035400
176.0586090088 224.1156158447 271.5675964355
207.7446594238 207.3323516846 226.6300048828
159.5407257080 255.9600067139 210.6926116943
181.7457580566 219.7159118652 204.7730102539
189.1921386719 227.9669342041 202.4931945801
159.6774291992 241.9698638916 202.1699981689
174.1708679199 217.6429748535 268.0599975586
164.8519287109 234.1089935303 207.6280059814
203.4088287354 204.9440307617 226.9899902344
165.3059692383 232.5787963867 209.3468017578
205.1886138916 232.7156219482 264.9575805664
167.4708709717 205.3129730225 270.0700073242
207.4567108154 208.0897369385 224.0099945068
212.0167083740 209.4197387695 229.3399963379
171.3540039062 202.9222106934 266.2599792480
175.2688293457 205.1440277100 270.8700256348
205.4382629395 215.4373016357 250.8310089111
169.3721313477 247.5169372559 214.0231933594
201.8638000488 239.8471984863 210.3612060547
196.8055725098 231.2559051514 265.6990051270
158.8697509766 253.3399963379 209.5200042725
166.1033935547 234.0498657227 211.6626129150
206.8813934326 211.8200073242 241.3088073730
199.2136535645 235.2078247070 209.2039947510
194.4884643555 234.9062805176 199.6398010254
202.3316955566 230.8373718262 261.2699890137
189.3607177734 234.3866577148 205.2360076904
163.4688262939 251.2640228271 205.5399932861
204.5257568359 226.3459014893 257.1029968262
193.7136535645 235.8878173828 201.0540008545
163.0316619873 244.3393554688 214.9703979492
193.6216888428 232.0873718262 268.2199707031
172.1013946533 232.3600006104 201.1688079834
202.6899871826 222.0852355957 213.1174011230
160.0846557617 249.4223480225 209.7299957275
203.1074218750 220.1798553467 217.6600036621
214.3927764893 212.4290008545 249.2962036133
163.1391296387 242.5758666992 209.7640075684
160.1898040771 238.6867523193 205.5200042725
194.6521301270 228.7069396973 201.6231994629
163.3188171387 237.1940307617 213.7200012207
210.1402893066 232.9398345947 265.4150085449
192.4886016846 238.9056243896 271.9375915527
183.3697509766 222.9100036621 201.1200103760
206.1688232422 207.7140197754 226.9700012207
177.6399993896 231.8652343750 204.0074005127
163.3864746094 237.8012390137 209.4300079346
184.9239959717 224.3722076416 269.2299804688
193.8046569824 237.4923553467 272.2800292969
199.6433868408 228.7798614502 214.4626007080
212.9518585205 212.9075317383 241.5919952393
175.0492095947 205.2375946045 265.2182006836
205.8699951172 212.4952392578 215.4173889160
202.7962951660 211.6087036133 217.6150054932
205.1613922119 224.9600067139 211.6188049316
158.7186279297 253.1017761230 206.8860015869
203.0540008545 224.2422027588 211.8700103760
158.6987457275 254.8460083008 212.7786102295
177.0752868652 226.0969238281 206.6540069580
178.2200012207 226.8852386475 200.1773986816
178.8816680908 226.8593597412 270.0303955078
218.4589538574 207.7281799316 234.4669952393
210.7340698242 234.6928558350 266.2100219727
169.6308746338 205.8829650879 270.5299987793
180.4772338867 218.6353607178 266.1299743652
212.9443054199 216.0740661621 243.7723999023
181.7916564941 225.9893493652 272.0603942871
168.6008605957 239.3829650879 210.5299987793
211.8140716553 219.6828460693 253.6299896240
185.1908721924 230.7129669189 203.8099975586
213.9016876221 208.6173706055 244.6300048828
203.3372344971 241.2653503418 207.2400054932
208.9536437988 230.8778228760 252.9539947510
165.9821319580 242.1369323730 204.4331970215
209.7767028809 206.7297363281 236.1199951172
170.5436248779 213.1969757080 264.0496215820
197.2640686035 234.9328460693 210.0899963379
202.2649841309 234.7769165039 260.6253967285
168.6116943359 244.7773742676 210.9100036621
167.5340728760 240.0628509521 213.8699951172
206.7936553955 233.0578155518 255.9739837646
201.6955718994 226.8359069824 214.0789947510
184.0988159180 225.0740203857 206.2799987793
207.9316864014 231.4673767090 213.3899993896
209.2116546631 237.7893524170 265.0403747559
212.0466766357 221.5000000000 245.7120056152
176.6092071533 220.2575836182 270.9482116699
186.7808685303 232.0729675293 273.7600097656
162.3389739990 242.5292663574 201.1490020752
201.7874298096 241.6498565674 207.8000030518
168.9783935547 238.7679595947 207.4859924316
198.5783843994 234.9179534912 264.8160095215
184.1616668701 225.2293548584 276.3804016113
173.3713989258 226.7299957275 263.5087890625
178.5883941650 228.4379577637 202.2059936523
205.2440032959 221.7722015381 212.8500061035
202.0686035156 208.3056182861 226.1275939941
196.3067169189 240.3897399902 207.2500000000
211.8597564697 208.9900054932 236.1900024414
182.4046630859 229.8623504639 273.0600280762
214.9989624023 208.1392669678 224.6589965820
190.8808746338 231.5729675293 275.6000061035
181.9539947510 220.7822113037 271.2099914551
172.7272338867 236.9853515625 200.8600006104
192.8839569092 232.5299987793 198.9138031006
209.2116546631 237.7893524170 265.0403747559
163.4352874756 249.8969268799 211.5339965820
213.5392150879 222.7675933838 257.2182006836
194.0834655762 235.3430480957 210.0959930420
176.8513946533 215.9400024414 266.0588073730
200.1322021484 232.2598724365 208.8399963379
181.1372222900 228.5953521729 203.4900054932
210.9839935303 200.5422058105 233.9300079346
186.4639587402 231.1799926758 267.1337890625
165.3088226318 239.8440246582 210.8399963379
184.2304687500 229.1769409180 205.7673950195
194.0708618164 235.3429718018 210.2399902344
216.2921447754 220.4669342041 247.3831939697
200.7127380371 235.2700958252 269.0790100098
203.1946563721 204.3823547363 226.3800048828
183.4052886963 220.4469299316 207.3740081787
189.3899993896 233.7252349854 200.8773956299
194.8997802734 235.3557128906 272.0418090820
190.1872253418 233.0553588867 266.1600036621
170.5436248779 213.1969757080 264.0496215820
184.1346588135 226.4123535156 202.0899963379
163.6472320557 253.0153503418 203.8600006104
206.6608734131 201.3329772949 239.3099975586
194.9489593506 229.3581848145 200.5469970703
201.3588256836 231.2840270996 265.4700012207
173.0420684814 228.6080474854 204.9920043945
218.7592163086 206.6275939941 236.3582000732
195.7474212646 236.4998626709 266.6999816895
183.2186126709 233.7556152344 275.2475891113
206.2152862549 222.0869293213 215.3540039062
179.1216888428 214.6473693848 267.6799926758
202.7037963867 235.8372039795 210.6911926270
183.4539947510 224.3122100830 202.6300048828
174.3140716553 210.4628448486 270.1100158691
190.5614013672 232.5299987793 265.4988098145
169.9097900391 232.8057098389 208.2118072510
202.9467163086 241.8797302246 208.6399993896
209.8449859619 201.0369262695 239.0354003906
210.7827758789 231.1990051270 253.1761932373
209.7192077637 233.4475860596 257.8081970215
173.7916870117 251.1973724365 214.2400054932
182.6908721924 231.6129760742 198.3600006104
208.2189483643 227.0781707764 256.6969909668
166.8639984131 238.6222076416 211.9100036621
208.7408599854 220.4029693604 253.9799957275
176.2238006592 226.0971984863 207.5711975098
178.9221343994 234.0569305420 203.6231994629
181.0667114258 225.6997375488 272.6200256348
181.0582733154 221.9433746338 270.2460021973
195.4998016357 232.7067413330 207.2399902344
208.9488220215 230.5140228271 261.5100097656
191.0262908936 226.0487060547 202.1950073242
203.5336303711 226.6869812012 221.1495971680
172.9967041016 214.8097381592 271.0000000000
173.4951477051 225.6000061035 262.9230041504
214.7427368164 210.1800994873 231.6189880371
181.9906921387 229.3410339355 205.3502044678
173.4682617188 225.5173034668 270.0309753418
192.0039978027 236.5922088623 267.4799804688
204.6788177490 218.8840332031 221.3300018311
196.3727264404 239.9801025391 207.2489929199
201.7908630371 214.1129760742 223.6599884033
201.8559570312 225.7187957764 214.2168121338
189.0659637451 226.4788055420 200.8168029785
192.3452911377 231.0269317627 205.5339965820
211.6916656494 218.2493591309 247.9104003906
195.8947753906 231.0753173828 263.7809753418
167.2252960205 231.3569335938 208.2839965820
212.0439910889 204.8822021484 225.0000000000
164.9052886963 237.8769226074 209.8339996338
212.4089508057 224.8581848145 253.2969970703
175.2688293457 205.1440277100 270.8700256348
177.0274200439 215.7198638916 271.3899841309
207.7333068848 214.9526824951 225.1280059814
183.7099914551 231.0452270508 202.5273895264
165.9307098389 245.9266510010 209.8059997559
209.4316864014 208.4573669434 242.3600006104
206.6774291992 234.0898590088 260.0199890137
168.0421447754 241.9369354248 211.6731872559
160.4862976074 249.9187011719 205.4450073242
172.5089721680 211.6492614746 262.3990173340
177.8072357178 229.0453491211 204.8300018311
173.5993957520 238.2825317383 202.8440093994
211.5540008545 218.2722015381 249.4199981689
203.6936187744 213.6269836426 217.2495880127
173.4682617188 225.5173034668 270.0309753418
203.5808715820 217.3529663086 221.4599914551
216.6543121338 209.5540771484 226.1824035645
160.3682556152 241.1472930908 208.2910003662
163.0786132812 243.7456207275 213.0476074219
170.9389343262 251.3958282471 216.1620025635
203.3482666016 226.2572937012 224.2610015869
207.5449981689 236.6369171143 217.8153991699
195.2039489746 232.7299957275 263.0137939453
184.3672332764 231.9453582764 196.4000091553
209.9192047119 218.4675903320 219.6082000732
188.4536285400 234.6869812012 268.5296020508
202.8808746338 222.3129730225 218.5699920654
190.1636199951 229.8269805908 201.1996002197
161.4813995361 242.2500000000 212.2487945557
198.8017578125 240.7167968750 208.5709991455
206.7874298096 202.0498657227 237.9100036621
170.2346649170 232.3923492432 205.8199920654
210.8243103027 212.5340728760 240.3123931885
210.5697784424 201.9957122803 238.7317962646
195.4998016357 232.7067413330 207.2399902344
214.0888214111 206.6640319824 232.1399993896
200.7847747803 226.6553192139 212.1609954834
174.3140716553 210.4628448486 270.1100158691
201.8020629883 226.9080505371 213.2620086670
199.3847808838 228.8353271484 204.0610046387
204.0427856445 234.7489929199 263.3361816406
165.4772338867 243.6353607178 203.5900115967
208.8916931152 213.2473754883 219.1999969482
202.8808746338 222.3129730225 218.5699920654
206.2713928223 211.2299957275 221.6387939453
204.8083953857 222.0879669189 214.4160003662
177.3938293457 213.1884765625 269.1814270020
199.3333892822 233.3298645020 213.3626098633
168.6218566895 233.9975280762 206.3719940186
171.1340789795 205.7728424072 270.8099975586
207.1267700195 223.5120086670 250.9346008301
207.2491302490 204.0458679199 236.8040008545
171.0152893066 247.2569274902 213.2440032959
209.8586120605 211.0256195068 245.5876007080
202.6459655762 211.5688018799 220.3568115234
207.2374267578 236.1798553467 214.6100006104
171.0082550049 223.2673034668 203.9609985352
182.7257537842 231.4359130859 272.6730041504
209.8855743408 212.1159057617 225.3690032959
190.9467620850 237.3220062256 265.2845764160
182.6908721924 231.6129760742 198.3600006104
209.3031921387 210.6145782471 227.1380004883
208.3967590332 223.3520050049 246.6346130371
181.1340026855 225.2522125244 201.6900024414
205.8455810547 212.7459106445 249.1889953613
207.3074188232 223.6098632812 248.6999969482
159.0014038086 253.4700012207 209.6988067627
189.2659606934 228.1488037109 271.7368164062
202.2459564209 211.4488067627 219.0468139648
189.9813995361 227.6900024414 198.5487976074
207.6621398926 220.1869354248 217.4031982422
191.0919189453 236.9289855957 268.1580200195
190.3739929199 230.0722045898 201.8399963379
208.6188201904 207.6240234375 243.1999969482
171.2416534424 238.9993591309 208.6404113770
190.2336273193 234.2469787598 266.8596191406
208.1297912598 202.6557006836 238.2218017578
206.5216674805 216.7493591309 223.2004089355
206.1436309814 233.6669769287 259.6896057129
203.4783935547 234.3779602051 209.2960052490
183.0059661865 228.5388031006 198.4568023682
173.3367614746 222.4220123291 268.0646057129
202.7440032959 204.8122100830 225.5899963379
175.0046539307 233.2923431396 205.7700042725
214.6940002441 219.8222045898 246.1100006104
183.9767150879 232.5597381592 197.8000030518
207.4708709717 206.9829711914 229.2500000000
205.9567718506 236.3220062256 216.6646118164
167.2447814941 231.9253234863 209.3610076904
178.5731811523 220.9045867920 269.6179809570
178.3016815186 232.6173706055 204.7899932861
206.2582550049 211.0173034668 244.7810058594
209.3040008545 227.3722076416 259.1199951172
174.9163055420 221.7187042236 263.6749877930
161.0064697266 249.8212432861 211.9199981689
211.2331848145 209.1245880127 227.7679901123
193.3227386475 230.1501007080 270.9890136719
216.6299896240 218.4452362061 244.5873870850
207.5321350098 215.9069366455 220.5031890869
208.4636230469 223.3469848633 247.6895904541
208.7837982178 212.1972045898 245.3912048340
171.5597839355 204.5457153320 265.6018066406
167.6886138916 206.5556182861 268.9475708008
216.3855743408 216.0459136963 246.8889923096
206.5536193848 213.5369873047 242.6696014404
184.7016601562 224.6493530273 274.2303771973
182.1216888428 215.8573760986 272.8899841309
209.6279144287 215.5076141357 252.2369995117
168.7567138672 206.2597351074 269.5100097656
198.3807067871 235.4866485596 264.0260009766
183.7740783691 236.2428436279 275.2700195312
215.3439483643 209.2299957275 225.4138031006
205.1497497559 236.6900024414 261.3899841309
205.9351501465 215.1600036621 243.8529968262
174.0027313232 228.4600982666 203.5989990234
204.3682708740 219.6233825684 215.7460021973
200.3616943359 234.5073699951 204.2799987793
162.9816589355 257.0393676758 208.7604064941
210.7433013916 229.8026885986 255.1380004883
206.2179107666 206.5076141357 226.3669891357
168.1555786133 232.1059112549 211.2790069580
195.2042999268 239.4440765381 268.7624206543
206.6297912598 221.0357055664 251.7017974854
173.7766876221 229.5800018311 203.1719970703
185.3343048096 223.6540679932 271.9624023438
211.6355743408 203.1359100342 232.9290008545
202.2116851807 232.5573730469 205.2799987793
175.5267028809 230.6197357178 207.1499938965
200.7374267578 241.8398590088 209.2400054932
183.1025848389 233.2799987793 269.1979980469
183.6083831787 228.6579589844 201.6559906006
213.9455718994 204.3559112549 242.5489959717
205.3920593262 230.1080474854 262.6719970703
161.8708648682 256.1729736328 209.5500030518
