193.9580889926 140.9947307909 235.6133185409
220.9442166455 136.4569098543 224.3676018620
226.4921908011 86.5432658032 261.5912725431
218.8159177356 76.6240637995 239.0318290568
226.2460008923 137.8735925465 217.9368751668
218.7421949399 142.2121801167 227.2361784834
210.6194734472 140.9277637361 234.1735568208
210.7334906398 110.9073330807 210.2537258940
218.5795313908 135.1158897527 223.7236480975
202.0181178153 135.3389512353 246.2782061162
218.6658952329 88.2454615285 265.6887506200
207.0797895703 143.9579984558 238.7411666077
219.7250570466 131.4661861760 214.2713635247
210.1378795523 105.3185061083 199.9822704606
212.7801307965 80.5425626126 266.1306893745
215.4993358649 95.6076788121 212.0613004635
218.5481822061 115.0201326016 205.4302235990
210.0424024825 78.0679218638 245.7225802984
228.7213172591 135.0818416717 223.9070428611
222.2552566829 76.0618130294 254.2875170341
222.2264875883 139.4318527879 225.9792694465
216.0251606308 139.0082854387 224.8186892120
210.7586261792 115.0096569096 211.6705234769
225.6895698775 75.7623910634 240.7144122220
211.6979913983 103.7869973873 201.4434794449
212.3041159793 94.5017148914 206.9909262115
203.8185458460 136.2341143509 245.3755332152
226.4974940746 87.8509610099 268.2860581248
215.6608829627 104.7433249736 204.6604004991
184.3813265427 136.7677737881 240.4666587156
222.3234478639 80.2292043586 274.5284559772
217.8122969378 83.8296132205 258.3452209682
192.0230738320 141.3525085224 232.1217753574
209.6239714067 116.3750011811 212.1973711068
199.0443964563 139.9402038925 243.9568782196
214.1385116958 108.5763213312 204.4767446318
214.2545517835 73.9824318328 254.7319268009
217.5378813819 76.5239801478 256.2904787974
226.4937464623 89.9255272554 269.8954788778
209.9757852247 82.2531288936 258.2358473956
224.3695297354 137.1300061252 222.2701404628
226.0220996434 85.9831300053 273.1856099707
217.3724269259 115.8274757554 205.8218697814
196.5457852620 139.7782334875 237.3975477849
221.3127884236 67.7651620288 239.4769444249
220.8830555429 139.8371824432 224.2391650678
227.2767459056 123.8679277626 216.1500233000
222.5271299150 90.4787899250 222.5011738800
225.2739912334 127.2246840383 221.9737536099
218.5181605509 130.1963362641 218.7130070335
203.7536142408 103.4098649007 207.5929691438
188.9827006952 139.0835384103 235.1582765025
212.0596939062 116.0728298658 210.5714160227
229.0743491088 83.1341743782 225.2654183247
208.7928530216 95.2708644723 212.9336693634
226.1145475407 132.6393036921 221.8105210235
218.9911641655 73.7288334664 255.5702273884
214.3637586361 84.7318643693 264.4236123533
194.3322883281 141.9742568386 233.8906578282
213.9769638571 73.4475871152 253.2049781890
196.1024052548 136.6969410933 240.0159123585
211.7382604617 145.2526394404 234.7622952935
226.5937371559 72.4068516772 236.6590215563
219.6470010641 87.1008939724 217.3429594922
214.1491442803 76.9193846932 244.6085554934
213.5506767674 144.9855189598 242.4933472046
198.7511155616 138.5649694024 234.0495720937
227.6872774141 77.2340333739 236.6819038849
217.4558526547 115.8056138790 211.9544580949
210.7098471640 105.2202514098 204.3352730537
185.4695251042 132.8854695505 239.7889637100
219.1170217527 70.1260249354 236.4244407350
211.1478422033 74.2987776047 235.6294597752
228.3697610288 79.3980734706 228.8661642507
214.5828047836 143.4427053445 234.4012675783
219.5074750735 87.9107240903 220.4531726248
209.8959612501 107.9298681756 205.3471848608
216.0437012825 83.3089393329 255.3494083214
208.4352180120 94.9426201516 211.4700802983
220.9250117187 86.2188221749 270.2959950767
182.5067720601 134.7990769069 239.7802109523
211.6119081921 77.7346837106 245.5435790009
225.3664402497 90.5515027079 265.4644102131
231.8675692872 83.7047943554 230.8813978648
209.7660686941 79.6407347773 259.2933211384
210.5086484107 103.6007016469 203.0918615464
217.1558576128 92.7670006346 209.7848445004
214.0889032877 139.7564106322 236.3053784584
222.2350958773 74.8357486045 252.0230573135
218.0970417463 82.3969691665 257.5057209743
231.2928809341 81.8220915101 237.9048659472
222.3406693397 136.5430413166 220.7044501252
225.8258733102 133.5810685400 222.9048457897
200.8281743359 148.0729505064 234.8296356123
234.9033986182 85.8711288351 226.2987232852
212.0804401593 72.2012803919 244.3866893337
220.1172540066 132.0463150236 225.3877194885
196.6998897631 134.7295144218 235.3546652504
224.4980602638 89.6882819479 216.8728081541
223.9729192091 94.4796792495 218.1483377544
226.1972820291 86.4953649898 267.7350773591
227.1398986947 77.7070385957 234.0190207605
205.9456449657 73.3751488830 249.3381971876
225.6587486525 85.4453487879 264.8619609542
209.4030684366 77.3564848137 245.0830654118
217.7349613204 73.2936675763 256.3336219668
213.8722605649 80.5547639943 260.5989566595
229.2863495675 73.1576425631 236.0897776592
227.6074764677 88.5314387321 266.9170153285
197.8489305808 140.3549039700 230.2918423147
226.2408353041 89.8960665220 266.2864089664
210.2306944636 111.4460495592 205.3476010297
223.0027471005 136.2028601235 227.5416288745
227.1324174744 78.9409858496 229.1626340617
219.8415068469 67.0117172282 241.8788036147
212.1941988290 144.0425137757 234.1184924463
201.9305407105 133.0202644783 243.4475322714
212.0064607929 92.2565571693 216.8995128053
212.8146301945 94.5671400305 208.5263157225
229.7756957705 88.9347344783 225.6776051344
212.7400103478 73.6178696532 240.3296170729
217.0554670077 135.4734956371 228.8389289832
202.6192508535 144.3556777014 231.0739045609
217.4044728971 137.4236382167 228.0539828706
230.4328161032 91.5977386463 224.6120131230
233.1587087273 78.7693086309 235.0298441425
212.6719490530 91.1059043343 212.1492398311
220.2273615736 132.3085830146 226.0122580597
227.9151711379 75.2055152234 238.9094243984
214.2655540100 72.1457473126 237.6252639387
213.1299453108 142.9769938668 237.9800302180
229.6770778954 135.0126676548 222.9507689973
227.6171617224 84.9124714094 230.1404609400
221.7767324326 133.2874569392 226.2197586325
209.9458568522 70.8122058199 249.8876605529
216.3299385212 142.5404935912 232.2187639374
225.1685806783 89.5487337380 276.8249828108
207.8745288880 111.2849234524 209.0594220269
233.4875649548 78.0130509715 238.4305868310
212.8515816597 144.0805358750 243.3848088411
223.8804587603 131.7609572450 215.6127064552
215.8439215989 83.1148258625 254.5756591530
209.4724614674 113.5304738924 211.1611822001
222.7278026553 88.5827915799 276.0405409099
219.5920067418 139.5589019046 235.9989837558
216.0515015647 142.0740573893 230.2086431961
206.8724637129 104.7560242697 206.3511725832
211.7118688960 89.4097271166 217.5668188610
229.5003809097 89.1678919105 226.4731030432
222.9573639591 131.2005503745 220.5212586010
211.7562975492 115.6564026320 213.3135703172
215.2104639556 85.4642392825 267.0539766539
212.9454428620 106.0855136503 205.9129676898
217.1743889243 96.1732321676 200.6388836879
230.9587522292 82.5283419396 232.0402942424
234.1934705558 92.4280145424 224.2111120699
212.0197370403 115.4664167258 206.0404706413
219.0690510169 93.4403498265 217.7818783220
226.9060478002 136.6321223409 224.7383036114
216.7841682733 73.7212174800 249.2674161837
213.6445428268 106.9904666765 205.0215081044
217.0764891060 123.7858852506 209.5835950777
226.2232862794 87.2620331212 227.1302600452
215.1961960708 77.1356856818 264.6399739704
224.8809890790 123.0212919933 219.4053022325
213.8884992204 96.3186772557 209.1882044309
228.1958182800 84.0538629406 272.4531969018
210.8122280725 140.0694779485 230.8701416867
212.7571481525 117.2768878044 214.4447389383
207.3502157558 140.5864537287 235.0240584525
225.7822254719 89.1400812333 273.7281411922
215.4079244633 112.6612873318 205.4510961974
212.8448338905 80.1676736247 255.1007412658
218.1668896829 118.6433990650 207.9632408805
230.2459141879 77.0388139437 230.9582083356
197.8489305808 140.3549039700 230.2918423147
214.2655540100 72.1457473126 237.6252639387
212.1171608811 146.9466473872 230.8677804752
213.2698536891 84.9732081432 261.5343243718
213.1971452603 140.2695840991 239.7658473318
200.1133917478 145.8172907874 232.0481160273
213.0676315730 104.1477672210 205.4954800242
226.6407919602 86.6822986209 216.6227255781
203.5967962790 137.8258690202 235.6831082496
213.8255319121 107.0429610294 199.3187452665
214.2588547385 108.1077303908 204.4603936424
221.5176937430 137.2337898640 228.6692170972
218.1668896829 118.6433990650 207.9632408805
224.6684639191 86.5351989398 218.5274306461
178.6412000622 132.0180642301 236.7155194606
230.5756935733 85.5432915470 223.1815923744
198.1344039359 135.1480875989 240.2483507114
234.5946645061 83.1543307362 230.7234409180
222.4697817779 69.8223487943 236.4610912118
211.5901592562 102.7338841173 202.4089326498
224.8814608296 121.0675854044 208.4136055823
219.3049230870 81.4809346423 261.2266986695
232.2797970259 83.6212857722 231.8357191389
218.4028606650 143.4604378166 232.5073404128
222.5482414379 126.3523106173 215.9359536697
229.0416672409 89.3524047974 261.6554993820
231.9717123030 83.9412501932 232.9990417326
196.5457852620 139.7782334875 237.3975477849
216.2064261443 139.7012291771 230.6878320884
216.6319024387 138.7033441559 221.6180125069
210.4494951084 113.4351747480 207.4779010751
211.9823443206 146.8951046587 229.6017222837
191.5128028388 138.1496049471 238.3923301151
213.0018511348 81.3228238686 268.7081630812
221.6701139632 140.9899523154 231.2346047224
224.1025469997 131.3046898944 223.1953928360
201.0189499030 137.2609740004 240.5195243885
230.1780533620 90.1743031893 225.1849702873
222.9888992524 88.3954861888 222.9050820127
222.6620955360 130.2318992758 221.1893491661
213.0588086654 98.6542406382 207.4667060480
217.5498269557 124.5788257592 213.0007969589
208.8324123702 109.8632072289 208.3752467765
203.7398657027 142.2964011968 237.1729875962
210.4813987720 92.2289888431 207.7104193652
212.6447846699 78.5246890185 264.1669753504
200.2340624074 142.3954688313 233.0690186174
198.7458180037 137.0578004455 244.7400320328
220.1572616498 80.2835444193 266.0731995364
231.9397397092 81.0872004338 234.0517572747
215.0708922226 73.8008287150 245.8826517161
233.2310741243 92.0071644387 226.0298082048
213.6362748420 80.1193824195 262.0081407782
214.4666849782 99.7543481988 210.1758478634
218.5294157351 122.6414984544 209.1607599938
220.3070437530 70.2671567659 236.1864244639
216.6992084958 73.9392710015 251.5838295835
219.9226123587 88.9946643315 220.5777561907
220.3460492109 75.9863297409 241.5539665457
228.0875397714 86.4031647954 220.4880311550
226.0500093160 90.8756244595 264.3999726363
226.4659007044 79.1792752412 237.2530744197
236.3308077745 84.9920688288 234.0587946375
215.0554969236 72.6517257108 243.1721445450
197.2519732962 134.3452287794 242.6536753104
227.9346350086 76.2782625601 231.6923678888
204.3095541341 142.9865065181 238.0307732622
214.7581528859 98.4581327985 204.5622466326
210.6620957782 105.4363890690 204.6519335925
226.4974940746 87.8509610099 268.2860581248
221.8312636385 140.3616168376 226.8376572423
222.8369072960 118.7664101606 211.8031662486
211.2939782017 72.0420166194 237.1011426724
215.7768571305 94.8390442451 202.4851128844
216.1033555784 135.4520448173 223.2057826510
229.4176137918 76.5222185498 237.0016921347
217.4534631760 119.1102182002 214.0148308161
200.5692968146 141.6602735028 237.7447088693
199.5420071954 146.5937825186 234.3202933098
216.2726994318 137.3372028183 226.1346710677
225.4228006408 93.2294202835 218.2017101339
220.0314474484 93.8611999302 215.9631821871
217.7556278876 142.1660905579 228.1173105811
219.4428133044 87.2912743172 262.5422897039
227.5181148318 89.0298386454 276.0717682968
215.0084229425 141.9131493086 231.5110878650
221.8604974107 87.6812406514 271.3693890289
231.8632733024 80.1098741098 232.1136290887
205.4300516115 101.6192909857 200.1561667200
217.1477550033 97.8649998277 203.1436362129
227.0360911766 135.4281011887 217.9834656542
208.4352180120 94.9426201516 211.4700802983
192.2733859467 137.3323326084 232.2776744729
207.6798147825 76.4047737225 250.0413815063
219.3296167616 125.6286232921 218.9034512459
228.5244157813 80.2602140699 233.4895004626
222.2751983334 74.8751356752 232.9912421297
223.5091338614 82.7816723066 271.5435613371
209.5866081028 95.5979680752 209.8517609683
211.5325177554 114.8357952575 203.5857280459
213.6072625371 90.7007565188 218.5778706888
210.6303294605 72.6207947807 246.4576202570
179.1662171098 133.6464105793 234.1312260140
207.9743553891 99.0221687672 206.6872516475
221.7656251965 129.8803175389 211.1673750587
223.3192829245 124.3631321409 211.7406880626
209.1392275596 117.5665631501 213.6850375185
221.2103758677 125.2992931987 218.4017945411
224.4409508039 84.4392760404 270.3291950929
216.3008282824 71.8331714918 244.6147163227
214.1012838225 137.4409651376 231.9492806780
216.4523989158 77.5708515719 263.8765793920
217.5951830790 71.4333537729 242.0790899789
223.9908862307 95.5497947079 219.5224993090
181.9294613978 132.3005591708 237.4135640424
221.8539323332 137.4727196517 225.8101229386
202.6908017536 135.1162390584 237.9374077356
201.6701240011 143.6039766382 236.9902799059
226.2917812137 84.7321860999 217.4076696395
220.8218609069 76.5396287357 236.3204578742
202.9514934374 145.7024410967 237.1835996376
182.3070106829 134.8905690582 231.1343287257
218.2474981778 77.6219031447 241.3692000179
234.3561001385 86.7335823202 227.0663693857
217.2421051410 90.3568901863 212.3856901303
216.3259092159 77.0738160751 246.9511079970
223.4118504530 70.7511035372 242.8267523872
220.0223214995 68.7977095236 243.0565084670
225.7634239610 78.8720803800 238.5805936732
216.9789142219 118.5840578779 204.1222559820
215.6217050721 138.2053876037 231.2194250076
216.8943058858 85.8392261965 259.8850128393
212.3845785921 73.3177316248 247.9493242175
215.3628069216 140.0016238141 235.7480774533
183.5831659381 133.6156369209 239.0812167501
210.7106018337 115.8768393512 213.7384296313
194.7132697199 141.5238823856 234.3034358741
219.1541942340 85.5695211033 267.1256564901
219.9911702135 74.0303143426 252.3772458372
227.2074841958 87.6502975570 216.2544818612
222.9492498018 137.0967274889 219.0456039532
224.7339935237 80.4506392877 270.8456368148
222.1049891188 93.7251609618 223.4346836822
209.9729821531 118.3251137019 211.4124270454
215.5160157237 112.7762132515 209.9592428504
214.7136175625 76.4623249449 246.6909489007
220.1580978710 90.9900926313 221.7375159224
224.0747338782 86.5232057872 261.5793552742
211.8787822626 91.4695257821 211.0243887775
214.2664344872 73.2795760254 237.3757780095
211.8929858848 113.1541797097 202.1321274316
220.0025140685 141.8715389649 223.0121915275
220.4693244839 75.0379413875 250.3891160709
219.2091467577 75.7993771402 266.2185123789
229.6527837621 88.0084478485 227.3023228640
216.0220874421 72.9088743143 242.4021002096
226.4253914918 79.8524803389 232.8925662533
211.7953472905 115.6234073401 207.4825659227
229.6179590701 83.0521099918 235.8087284903
223.3141668351 132.1403038401 223.5364958690
236.0325074508 84.5429291691 232.3312404571
196.4964433833 141.8967700006 233.2606530270
228.2248067345 85.6044416215 219.9053312582
219.5278374978 88.4392713628 219.9200432875
215.5980683312 142.6903872353 233.1725845610
230.5124122584 75.6316987142 235.9458645766
232.7338636364 83.7832851809 231.7063146360
217.9173189858 140.0526782943 234.3161920571
207.9204573381 94.7319320788 213.6392883705
193.8116311016 134.3492345228 238.4241452553
227.8281652364 88.3334325886 261.2017613271
210.5516040555 114.0621641944 202.9031265582
214.2082547734 83.2173690568 263.8586893741
207.6438107838 95.1743241397 212.1124097074
223.9055868943 83.1964458463 275.2397872784
228.5878314170 80.7448852110 231.9020311860
229.9848684710 87.2872978972 262.7988103759
202.1282417616 137.9886879403 245.8462331212
214.0844260398 78.2485259596 243.3505984420
228.7435640157 83.7075461777 234.9867297370
223.2825190084 131.3160621201 221.4917159094
228.7844127016 74.2400548411 232.7307541967
219.2298234876 66.7179051027 240.4768450070
209.4948988368 113.7041122942 210.4091641961
209.4555467386 101.0729123561 207.7610261538
227.8544780214 78.0799437691 234.3694839949
199.9241725744 141.8198876535 238.3386274333
221.7767324326 133.2874569392 226.2197586325
207.7742589376 94.8254399878 214.8585835907
236.0523708180 84.5256326270 232.0486738962
200.9097119313 140.8888152927 241.3155407766
211.4818984467 91.9681334881 213.7066311434
230.5790629899 83.3713847665 231.8496453952
218.4069357213 78.0630463888 253.6663273072
227.4863144762 130.2782016856 222.5763444679
214.8123495957 115.3094709923 203.3350043200
210.7467621570 108.8494070819 208.4313158465
213.9296169595 94.7599473662 215.7041561976
211.9340865867 117.8179597001 210.3909736917
223.1461773362 68.9849454661 242.5095443221
215.9426955796 75.6094517039 265.9479242893
216.5879768092 74.5270383087 256.2946599211
202.1084851855 106.9495610345 202.9853514847
211.3776052039 114.6199240274 207.3710824100
223.7328933998 130.2267901575 218.1325931395
213.3937598501 144.6190970154 243.2829185315
221.3329935132 132.7121711006 220.9591648982
229.0182452831 77.9590471200 228.9288394162
212.9813891420 77.5722757813 260.9581345797
211.6785435479 76.3890185907 250.3932790111
212.3012746413 81.2773265853 265.3556750103
228.9034773267 81.2578455967 236.9932557045
229.1638220526 137.6425596982 222.8918340799
221.9515655029 116.4231756367 209.3172307071
201.1971091815 141.3584137629 242.5171733445
217.1743889243 96.1732321676 200.6388836879
232.6250632087 85.6148359893 223.5430488496
215.5197815823 116.3881822539 204.6009619526
218.2106916861 76.6517610267 239.4276823715
214.7153036161 73.8585732591 238.7332599931
234.8814208364 77.2728935846 231.3446174527
229.0591994857 88.1067570507 264.9181925238
208.4799039823 78.1615517602 258.7839798616
220.6623421799 122.2231458503 209.1379551905
225.6322860568 88.9650798286 277.2257033929
213.6340447333 140.1989840307 229.1503876101
203.8185458460 136.2341143509 245.3755332152
225.8553759284 135.0316614989 225.2655589994
220.9750686277 80.8473607091 272.6161973642
214.6167245242 99.5685564502 205.0804344577
180.9965020409 138.5080563615 235.5330236154
220.3218354323 127.6165480051 221.1366674018
215.5686763028 92.1522697181 209.7927839493
217.1919092771 86.5577936644 266.5025345854
214.9517547972 113.7061909612 212.7086793688
216.2533398806 79.3784697056 259.3021506718
223.3192829245 124.3631321409 211.7406880626
217.9417278205 117.0721080773 210.7598645114
214.2588547385 108.1077303908 204.4603936424
212.7393036697 99.3919378809 206.9466842898
207.1861309572 143.5469674572 238.6137056344
232.2762804722 90.4172671699 223.4198572317
222.5963766147 131.3661793888 219.9706780571
215.7709661142 84.2982863369 266.0298532488
216.5780808217 117.0588082299 211.5685190097
212.8279199575 121.4155728594 209.3086813866
226.5571997006 86.8309290364 265.7299816802
207.0519721360 140.2069376474 238.5212501302
224.4050343130 85.1713318746 269.8050556834
217.5914256673 143.5852381318 229.6636254182
228.0624726679 88.7772482426 218.6636548326
219.2298234876 66.7179051027 240.4768450070
213.9433496953 112.0865620593 201.8779425732
209.3086959738 74.9558086063 238.2605967784
227.0259000337 78.3381979014 227.9310072198
206.8306705944 99.8091053675 205.9304653646
205.9169874373 94.9066493954 208.8567778949
220.9749422977 117.2557980535 207.2275062925
211.1910043818 83.6507049108 258.7170900883
227.0360911766 135.4281011887 217.9834656542
213.2235672670 77.8134026188 262.9363288643
229.2178937493 88.2919776320 261.2163899404
215.9273190275 89.6125661223 265.4093204561
186.6823987682 137.5155469371 234.0941868484
215.7140568206 88.3272483046 214.1809433475
208.3844243322 108.6372437203 202.6737264442
222.5468049704 85.6241877373 219.7825746719
225.7533254608 83.9470869232 224.3198862498
202.6073417517 140.8303959407 238.6171557481
225.0960326222 127.8668968665 210.8229248132
225.6587486525 85.4453487879 264.8619609542
206.9178108424 73.5129891935 246.1818352840
218.1549526194 116.7105669052 211.0629985095
224.1005448904 88.9203922891 273.8509149929
201.9112464271 136.2080876806 238.2453728621
220.5303818552 89.3649151944 266.7075384710
228.7925625738 88.9892491302 275.5895232531
217.8463946529 136.9143309606 231.0121393524
210.5860753022 145.6047524854 232.9531846161
181.3354805231 131.8449162765 235.5823355410
213.6340447333 140.1989840307 229.1503876101
221.7951755581 136.1516041069 220.8720639093
220.9644236734 74.1020318935 236.7635718951
220.1112431146 68.9807468713 237.9852946461
187.7170373297 139.7425814598 235.3151729574
189.9104481710 131.4726913496 236.3767000040
222.5599387072 120.1117711139 212.9815413752
234.4434398023 83.2896503611 231.2254478376
219.0092276107 142.4870541770 222.8420038617
231.2828577200 82.7559339752 225.8893659160
208.5303993030 107.6667212803 202.3440251518
227.2425087099 85.6472723998 272.8992700428
200.0029046379 140.8361697050 244.7739815922
215.6037345368 83.7962505510 262.6397101057
220.9749422977 117.2557980535 207.2275062925
216.6992084958 73.9392710015 251.5838295835
218.6322156567 124.4064675325 214.5770502418
220.5507765553 88.3473559008 216.2997824370
207.1826459457 94.2476364045 208.6998793887
182.6374183755 136.7119540684 230.6046926722
211.5569969275 117.2472567027 214.6950327254
211.6788400670 100.1745432847 206.6494686008
219.1031189109 73.1675631023 242.6762609705
218.7530531255 124.4611336515 212.3845812522
225.4605703381 91.4006242393 217.3370732573
225.6476701328 94.4597511772 221.4900632490
201.4951234889 138.7057559915 245.4300795469
216.7994691378 104.0365875121 202.7601818486
215.3628069216 140.0016238141 235.7480774533
225.8461949850 95.6679895851 221.0270995501
204.3240507382 138.9539129342 233.8284015256
211.5975329664 95.0297313037 214.9140400194
219.4136104840 77.9965058107 263.9948899925
219.6309177327 126.8457227328 214.2889977505
231.1028094145 75.9163518075 232.7261405981
226.3325782629 75.2605993850 233.8528218722
219.9911702135 74.0303143426 252.3772458372
214.8002359001 94.7027257860 212.9527600489
208.1388004400 106.8088464314 204.4560524032
219.8663335487 127.6753309068 220.4464405234
225.7822254719 89.1400812333 273.7281411922
218.0503933325 67.4279558378 238.8117181054
213.8884992204 96.3186772557 209.1882044309
193.2775969475 137.9165029116 239.1295458207
223.8009383789 76.5763867292 233.9261752859
212.2372468570 144.1094255269 226.3944608937
227.4339323912 81.6959899935 271.5435335021
229.6046173180 72.8994428401 236.4383352101
226.8838396567 87.9627960917 268.7453653261
217.0505716706 76.1245665767 248.4462148479
222.3406693397 136.5430413166 220.7044501252
220.5507765553 88.3473559008 216.2997824370
200.4244378353 147.3966413381 231.9149687108
215.0184091679 81.3228685428 252.4330136404
230.0728822214 89.4189283177 263.6255629118
219.9995395520 83.9501529011 267.2869653445
211.0867875511 144.3136379104 242.6475931355
231.4137298030 92.3713697094 225.2946146108
219.0092276107 142.4870541770 222.8420038617
226.1682206317 137.3489947702 224.1953701170
221.4441060409 132.1578339454 222.2432469228
216.6742415370 136.5530611973 227.3240109660
216.7075020088 84.1710905360 256.4255869817
215.2732682286 95.4742546810 212.2718402603
226.7506455129 77.7466311872 236.4135744258
213.5425731950 109.7594713239 202.5457022783
217.8401513691 71.2112554508 237.4114321787
227.4963379875 89.0324748148 225.1250717214
217.2474325342 135.1440538842 225.5648854806
219.9484875166 73.8082324931 235.9169903637
204.4117962887 135.7124233455 236.8915544542
213.5603188244 94.9368807815 206.2275316331
212.9113367104 93.4447836002 203.9011865623
220.8218609069 76.5396287357 236.3204578742
200.1915575329 140.1013950192 234.1550121742
210.4605290718 81.0615669246 256.7481809838
221.4170375282 122.0530437799 213.2372117735
192.4375868650 136.6292083702 233.5612974571
221.3371430540 89.5602231228 215.5510672713
232.1616972963 78.3775936519 229.9902583056
221.4196394084 76.7847947326 238.9412557587
211.0867875511 144.3136379104 242.6475931355
213.0425995410 93.7398249921 215.3528816284
198.1664443830 137.1168921796 237.7060021828
198.6631018113 136.4333389818 233.2228195578
218.3691587802 79.0063302954 254.4800712799
222.0374508783 66.8159125305 240.9720512756
213.4511953912 145.0074603045 229.9523950973
196.6084933364 141.9751840144 231.7843353362
187.1326500674 131.0970740624 239.8454621439
215.3543555493 103.1688822343 198.8285668088
224.3641243772 84.7644405226 268.5990597067
189.3573331229 130.9472341038 237.5977770249
212.0871379256 91.8479229509 216.7187945831
215.0554969236 72.6517257108 243.1721445450
220.5858196067 126.0637891822 218.1400566675
219.1763244597 89.8525973328 266.5149548837
192.6305545878 135.3126368351 238.0802977082
219.9496338947 128.5644352441 215.5708287030
223.6209339508 129.9985124162 212.6719752998
207.7315986757 76.3827858638 238.3757140929
212.8850897061 99.7326956578 200.6806291943
225.3112025795 120.1365212723 208.5942895625
216.1451596283 117.8255073260 206.3948664552
225.7080386020 88.8502345571 222.7641344229
212.8232288464 87.7667271158 211.4197154194
217.7832845601 118.8616997320 213.1895718774
227.2849103998 88.5019932324 222.2586139228
226.7506455129 77.7466311872 236.4135744258
185.8796372107 135.8648017410 230.9106646435
226.5333505224 84.6711006941 262.8595056042
225.0960326222 127.8668968665 210.8229248132
217.2308342082 91.8319015173 217.6528071302
203.0279510695 140.8070429265 239.6535777176
222.3406693397 136.5430413166 220.7044501252
227.8942028324 83.5441377498 229.8629724955
212.8695980934 97.0291240319 200.9713654803
215.6536278944 117.7637552067 205.2613215209
221.3207373583 120.5847373771 212.8788733506
184.2215640430 133.0505040553 237.6195705630
213.7044214354 143.6811892918 231.9363652017
226.1603587449 122.9298277258 212.2295747246
215.8686491524 74.4455488947 238.8014909709
209.1392275596 117.5665631501 213.6850375185
217.0764891060 123.7858852506 209.5835950777
209.0089438316 106.9097458014 204.9959102915
219.2981798642 86.2254109233 222.4103536133
209.0089438316 106.9097458014 204.9959102915
205.2980488599 101.0596431711 204.8423493216
213.5921325310 91.1585205584 210.7415878767
233.5793451787 81.3171261465 237.1718616138
198.7511155616 138.5649694024 234.0495720937
223.8469245276 88.0287433408 276.3015795705
216.0418911239 122.8446164298 212.4036259673
221.8015101125 139.1480807330 226.8294794899
215.7599709575 93.9235766149 215.9555242898
214.9124994670 118.0019978790 207.2552362262
217.9875920274 82.2692240084 260.0586793069
218.3083232943 136.4782310179 235.3466820158
216.0563475269 74.2722108832 244.3033131661
197.8489305808 140.3549039700 230.2918423147
218.3527660607 74.2939663319 257.0318735756
225.7850506635 83.4901324534 220.0599892946
222.3674185703 73.0181826554 237.5604028763
201.0172696406 133.7184510335 245.1470385206
221.9228871225 90.7570206545 222.4747295769
227.3160594359 78.1674321612 238.1108406266
180.4632679467 134.7399643082 232.8318867237
220.9749422977 117.2557980535 207.2275062925
214.7049211670 83.3936834916 259.3150735777
220.5441976432 74.3570954005 236.8009536215
215.0146511165 87.1398019057 210.5229786307
182.5291000525 137.2857314645 235.2525381923
217.8745674422 121.1030894940 209.1451749395
227.7038048719 83.3263759413 271.5392925649
206.6629741156 104.7950574050 200.9862076382
214.6167245242 99.5685564502 205.0804344577
221.4535820571 84.8115629604 262.6246905189
204.9439293831 100.7753473512 202.1515512812
222.7872153115 72.1124075354 240.4499034060
211.2868124401 74.8018555328 239.8634417534
189.2071605447 132.9355175417 238.6731810729
218.9702646383 133.2797158148 225.3487553916
218.2090673357 70.2722712540 242.5236806184
210.3349234927 78.6730215053 238.2010856465
224.3529674472 132.2431837940 216.9034064718
197.0757768750 137.0980097586 238.9703545281
219.3349638521 133.4289173397 215.4214770764
217.0089944856 121.8770759882 209.8906156642
216.0220874421 72.9088743143 242.4021002096
222.4103064320 134.2111101518 218.7412670921
211.8208992114 89.6203556039 215.3545095147
219.2981798642 86.2254109233 222.4103536133
212.0346783374 146.0692816863 228.6207394559
204.7037573897 142.5183990990 233.0907813200
218.4658121328 133.5424481999 227.0907171988
217.4558526547 115.8056138790 211.9544580949
221.6690913970 85.4397206744 266.1718555959
219.5694240724 72.7154311167 233.8604218780
231.5653806956 84.5452304677 229.6331527743
227.1322223581 125.5451047097 217.2624305539
211.6575510208 74.8896770183 242.0400742727
222.0708908663 127.6017142727 210.4815351875
218.0990626637 72.4757369597 240.6764852545
223.4044908905 75.7190894305 232.8951011702
190.9776755400 138.1917798821 234.0858114472
182.6455427529 138.6534171221 238.6506023669
223.1461773362 68.9849454661 242.5095443221
214.8123495957 115.3094709923 203.3350043200
213.6785884841 80.9262241766 252.8281307927
213.6779215313 78.3062583798 253.1041492988
201.1539038501 134.4044613163 245.4705715806
219.8798432914 91.1976701071 213.4019888382
199.6550753612 137.1582521437 235.8137084636
224.8207087406 83.0782380976 223.4667671446
209.2791078234 74.5815293250 246.5308064512
225.5400188046 89.3016866127 223.1421189418
188.7284406259 140.4010603381 236.3030789488
218.6500656647 89.6924657138 219.5341042023
228.1938665787 85.4589488754 219.8640349180
218.8131486373 129.7261347853 219.2200231896
221.8539323332 137.4727196517 225.8101229386
219.3349638521 133.4289173397 215.4214770764
215.7753825791 75.7422549712 245.2294808185
227.6092274808 80.1356007815 273.2569918409
217.8205984917 78.6144921906 240.5777959232
216.8817672682 91.7186572091 217.7066060742
181.8576023266 131.7197914611 232.2567706956
217.8252713419 83.2797828613 261.2816670614
226.7962660342 126.3873185372 217.4589227426
232.2995546823 81.7336047153 237.9588914235
233.5793451787 81.3171261465 237.1718616138
221.7271483557 129.9209807390 214.0714305522
232.7308677955 84.3769125191 235.0921093357
215.3091347469 117.4939081822 205.7738128811
201.4923529778 140.0542350929 241.7800575179
209.4030684366 77.3564848137 245.0830654118
219.1170217527 70.1260249354 236.4244407350
222.1901179396 72.8112374465 241.6962051730
229.9269455023 81.3749102305 227.6978213651
223.2751486767 120.0549682357 213.3003470194
223.6150680247 88.3676975114 263.3009340950
216.4910012863 141.2916883898 233.1756510791
214.6167245242 99.5685564502 205.0804344577
221.9515655029 116.4231756367 209.3172307071
225.6419149099 89.8689419957 262.8437134414
227.2096518055 77.2094591067 233.8997067654
210.4528808808 102.3887587809 206.2542633435
216.3259092159 77.0738160751 246.9511079970
229.5144623317 137.9196199675 219.1562504814
225.9112673034 120.7937417566 213.5162536280
222.6463439095 85.7911670549 269.3947814536
216.2136129942 138.6921508285 226.1371413448
214.6498388603 73.8677265592 251.2223731084
220.6582265755 145.8830964327 233.9064869272
223.4785723927 132.8986199798 216.0814077184
226.6068939972 85.2305953630 264.1057372982
228.5878314170 80.7448852110 231.9020311860
229.4845166779 76.4860928084 229.2111575498
189.7071107005 139.5108941287 234.0663269090
215.7858716027 99.3360163752 203.6800905321
221.7808223179 138.4795805450 227.1990109190
218.7450796405 67.9094670717 241.9645114187
191.5128028388 138.1496049471 238.3923301151
233.8764264801 81.3853633905 237.4533709233
222.6463649139 141.7592574568 235.5098604696
227.8256560840 79.2173610181 272.0984475086
209.1018071927 74.3745841162 250.6666087479
210.7467621570 108.8494070819 208.4313158465
213.6065117304 110.0136001100 210.2394043410
217.7630482463 88.6723433396 219.1828296330
214.1322276576 78.3012708876 260.2866441359
217.9822067358 97.2380063052 202.9151347331
223.8157437713 73.7463667338 238.1542443489
230.0941673791 74.2224167007 238.3660287043
218.6000530362 141.6462035836 234.6148515120
230.4328161032 91.5977386463 224.6120131230
216.7176925882 115.4902252277 205.7270994460
197.8489305808 140.3549039700 230.2918423147
220.8745988387 86.7842681639 274.0567026004
222.5303587462 141.2665999225 225.9461956058
202.9514934374 145.7024410967 237.1835996376
197.4376649788 134.9345277363 242.0422423353
221.0318635197 79.5092963256 264.0707441865
209.7823030232 140.1929225172 238.1676648956
212.7001514505 82.1726193990 259.5435752836
213.0853992203 75.3112571642 251.4427135620
220.3218354323 127.6165480051 221.1366674018
191.6651287857 140.5232069680 233.0910816746
233.5263982655 78.3214786217 232.1701275226
226.3684431161 86.8994109525 269.6831367875
223.8473974169 75.6254852047 242.0464461211
210.4813987720 92.2289888431 207.7104193652
218.5265964899 81.2464868061 255.9055356192
211.1806536105 106.3185856271 205.1757540353
186.3115047635 139.5516791714 234.8042976432
195.4522957935 140.0384672719 238.0277305032
216.8234338082 85.4592667836 259.8706340594
221.5719520300 84.2740840170 221.6267282605
193.7827890459 142.5551500617 233.8998581509
228.1810182358 77.5158520676 236.5240248667
235.7542078170 89.3630222927 225.3999765065
209.1392275596 117.5665631501 213.6850375185
206.0468479595 100.4313396757 204.9134766115
221.0196580808 68.8391476094 238.8741699391
228.7213172591 135.0818416717 223.9070428611
226.6957993558 81.0979616416 275.0970730119
221.4559068179 135.6596692507 229.3475912330
209.5596668295 110.9912511429 206.5205400527
216.2146422347 79.4793926951 268.6181345486
213.2450216060 79.4951709277 262.0296659969
187.4923842833 130.8594891075 239.7077864188
217.1493578719 74.9220413737 249.8035567529
216.4993461276 72.8979042847 242.8669909316
214.3301295427 100.6479250306 205.7015855762
223.4675770718 133.8382977787 216.8299695328
219.0967947371 129.6006398570 219.6973646129
213.6750550758 81.3274973979 262.4215257971
225.7533254608 83.9470869232 224.3198862498
209.1246822118 79.0825629159 247.7080626505
201.1975217126 147.0657124851 235.3135895231
210.1484471569 94.5840209521 206.1304575952
216.8966817392 93.0715108803 217.0241484256
222.0440621530 130.3467537409 213.1774957999
232.7205636637 84.5314796417 228.7759750447
222.5593476865 77.6119913626 236.4799648766
229.1420936483 81.7187855320 231.2805687699
213.6340447333 140.1989840307 229.1503876101
234.9758545588 79.1427429685 233.3965737520
221.5594689305 139.4610482448 228.7157364198
217.8383081768 81.9570483182 256.2838219606
201.0553383061 143.1629865376 236.4832153105
224.5443653638 95.1834961303 218.9885871814
215.2168340578 93.6879579993 202.9130757610
213.4511953912 145.0074603045 229.9523950973
220.2838879860 81.4276777683 262.5618173914
223.3578619891 73.8233669246 233.1510689589
179.2263144566 136.3537006641 237.7467406675
227.9330147403 137.1158927347 224.9325858227
221.2455566752 132.1629140020 219.9464795712
226.7836091543 80.4727982225 274.0086296467
213.1635426598 116.4915572413 203.7831875297
208.9196108551 142.8534176835 240.2473009386
210.8300410120 114.5286003963 204.9132472994
181.9635547464 137.0870952649 239.4566624831
221.7262201978 77.6323693255 236.5790311780
189.3054886384 135.3170397254 239.5968829553
232.7038561134 79.3788037443 232.2791943364
219.5694240724 72.7154311167 233.8604218780
213.4385707685 144.3507060342 238.1695183827
205.4999713582 143.7574277238 234.6633322508
188.3206083683 139.4119777703 238.8606974258
227.9151711379 75.2055152234 238.9094243984
209.2257000152 92.6708738721 207.6851118179
194.7818933494 135.2316603899 233.2691662410
210.4813987720 92.2289888431 207.7104193652
215.9998871210 138.8549378360 235.0869431295
215.6849012081 94.4439367653 213.0137140620
221.6186451750 77.2031591769 239.8724616221
225.9817483903 128.4830535775 221.4146295329
194.6571841003 141.8997138758 234.7218569043
224.5448296821 135.5695868544 223.9836008528
222.5468049704 85.6241877373 219.7825746719
221.4170375282 122.0530437799 213.2372117735
208.2638959951 100.8912473651 202.7371105993
237.2085796074 83.7388744780 234.4447337227
203.6095865735 143.3159529554 232.8577016431
191.9535199531 136.3473100670 238.3610100094
185.8448493820 133.3935773619 231.3283954322
208.5724452775 112.1167003355 208.6875593001
204.5308356232 102.7971828502 198.3009335385
221.9133195829 70.8822620653 238.0314085089
216.4620425853 89.1577090498 263.2799543983
189.2071605447 132.9355175417 238.6731810729
217.2702451623 120.1228431923 214.7641087364
220.4181292634 75.8632895088 233.4057930240
220.7474104063 69.0211756641 238.9251795828
216.5780808217 117.0588082299 211.5685190097
229.0591994857 88.1067570507 264.9181925238
215.7158940181 141.3827644741 232.3111193362
217.4402195672 89.7507661562 212.8388066115
224.6970648489 85.0540146126 269.4595507031
210.4913585237 92.0118608813 207.5282133118
197.2113518813 134.9931961574 243.8569460261
214.9734195899 78.6156971351 249.9199176836
201.3543169055 137.8911075349 241.2054323933
236.1303408040 84.4725602516 234.1957862548
232.8496095607 91.3681389734 223.2759550389
212.6515009197 101.8803451800 202.4739190484
213.7707500594 84.4621441143 265.2821554360
218.0514018380 143.6636389401 232.2886404241
222.9479635583 122.1490364717 216.9076406138
230.3826111317 82.6340228703 234.2687563582
226.7529456455 132.0741708264 220.3488748364
220.9778268855 145.6106891121 230.9258194610
215.1130401532 120.9710728515 210.7888985765
183.7181840686 135.2954966879 238.4726903481
229.5115616550 74.0112135417 234.8146959555
212.4912232818 83.2440202869 257.1387027821
209.5194086664 101.6751195254 203.0684810565
199.7605499423 145.4131282800 234.7445118721
195.7637616719 140.3423558185 230.7484794977
209.9025912092 140.9692465902 238.6960362625
224.0291194157 85.3049036530 262.7736454875
191.4410673185 138.6080235047 233.8513714138
211.7615764983 86.6921209266 263.0687043725
231.0542312237 80.6134250218 227.3192780758
228.8239881959 76.3819676392 237.7505280208
212.8934782114 93.2766795434 217.2507873745
211.9603401876 109.9626677054 206.5176097918
212.9201409755 79.8599180545 240.9177110787
212.7612500597 80.1466395552 263.9440270839
207.3502157558 140.5864537287 235.0240584525
222.0157749839 90.1909419088 266.8115091501
200.4244378353 147.3966413381 231.9149687108
211.5109491890 94.8653363392 205.8660751580
218.5565866955 67.6007854592 240.0565428835
215.1474734979 99.9011492408 205.1417367193
225.9996520323 79.7916262969 270.6887383086
211.9123137619 76.3131124752 241.4671171084
189.0112346113 132.6505681847 234.5214678480
204.0467719026 105.2326917737 199.7280563243
226.8999870986 80.0368201717 274.2178296565
218.3874582764 87.7790253266 263.6786298787
199.8811710750 132.9487200360 243.0860757963
199.0214937181 133.1949519433 240.8447912340
220.1580978710 90.9900926313 221.7375159224
229.7756957705 88.9347344783 225.6776051344
215.3017239500 118.8347051903 208.4788318040
217.5730960876 79.2200881934 267.9780227640
217.9066420280 67.8723364432 239.0435938153
225.9213379560 138.3400668216 217.6384733807
182.2703099014 134.0257712618 231.3285826095
226.1518755642 74.1763448044 234.1773779290
229.7929608859 81.8568150023 232.6072576110
218.7893859219 92.7002626440 212.0208479209
218.8971929525 116.9702451225 204.6452795377
198.1664443830 137.1168921796 237.7060021828
186.5962544292 138.1190050589 233.9647997005
222.2414885080 124.8265846975 219.8641017541
208.7928530216 95.2708644723 212.9336693634
203.1336019092 100.4481204546 201.8811811154
222.3334191140 77.2173008469 252.9467571447
211.5597685055 115.1113892237 205.9588615050
216.6299034755 116.6339453570 204.9072000435
230.3640342266 77.1858596734 230.2028775362
222.2217433426 94.9609722581 222.5219413183
225.8506635325 89.4378930755 216.1869597055
183.7181840686 135.2954966879 238.4726903481
179.2263144566 136.3537006641 237.7467406675
213.8873576188 145.9046300908 233.4433357956
217.7677357464 124.7457841516 211.5988094027
208.2611826499 99.1055517120 204.3289053462
223.8835311455 88.3672307434 262.9289994840
224.3896643325 84.0433416897 225.8025474234
213.4840577177 79.5937961702 248.4775886457
219.1541942340 85.5695211033 267.1256564901
220.1247297420 92.7272637256 215.1758511062
201.2531764244 103.2403352135 202.8139383233
216.3871166689 89.2299395006 209.9765171589
218.9461322910 124.0500162044 213.8445906235
220.3164539146 66.2197432728 242.0179035314
223.4169546611 79.1581981975 239.5871927064
210.2133020475 112.5126061163 204.8906531981
215.3290178115 110.7501612112 204.7098550637
216.2344501630 141.9811096996 235.2516111297
183.4412258831 136.8107792213 230.8937015883
201.8263674215 101.8313279004 201.0548128379
183.1638445515 133.1641760850 229.2925790680
228.9188591054 82.1471569656 236.7001880757
209.4423802017 107.8933386690 200.4701730216
209.6944157660 144.8750790904 234.0868476730
219.9171381677 120.0189899088 206.9001232904
188.0284737534 132.5475009077 240.8579312908
228.2258708381 80.1385197005 229.2888792910
225.7850506635 83.4901324534 220.0599892946
189.0163100354 134.0100424268 234.4950903321
211.8187307806 99.0619003901 200.7999341424
232.2723253667 86.0333330017 222.7270180889
212.5722724826 77.2676260179 245.1140759936
221.3441323382 84.6838178022 265.1776488515
211.8929858848 113.1541797097 202.1321274316
230.6372065032 74.5701455338 234.7813820740
228.1092407626 79.5033792261 233.7965268306
218.5542358131 115.2856783745 207.4978997913
219.0346284838 127.7723594356 213.4230336173
208.3326187142 101.4627566171 207.8669059639
221.7808223179 138.4795805450 227.1990109190
217.1905892990 99.3580713921 203.0575367684
213.7834256553 77.7081140229 263.7274742147
183.5382740420 138.6699749044 237.5943181398
235.9960640904 87.7199973509 224.0933087679
214.9924270329 142.1547242819 235.5349038859
214.6916398887 107.6046409357 203.0558626082
215.3135016290 83.9473696638 257.6562274056
218.7062305650 90.6862390081 211.2397037266
204.1340132174 144.2758576876 236.8360339750
226.7946025073 89.7276380908 217.4717449388
203.9219457653 144.3035276822 233.8698334291
222.0153054306 88.7526006677 273.9671817146
221.6673339428 142.6912712937 236.0782662935
177.8755429435 134.5040796202 237.0977655389
221.0035390488 123.9479196905 215.6502370127
234.8814208364 77.2728935846 231.3446174527
190.3172750004 135.6368097778 236.2396991709
223.4495650591 88.9345194594 272.4751816485
218.9424414222 132.8976512456 224.1899973285
227.5027152546 86.6810372376 265.1182054196
214.2588547385 108.1077303908 204.4603936424
205.4999713582 143.7574277238 234.6633322508
223.9040640865 89.4714155318 264.0912232190
215.8465734626 100.8061022670 204.2502771339
224.4792307827 79.0272038307 271.4185939790
237.5984457615 81.0707447024 232.3759978266
217.1705027992 118.9737318147 210.4055043373
225.7854058278 122.6713393254 211.6682506257
232.8633424108 83.3752255227 236.7956130921
211.7572492202 79.7947852166 239.1908362694
210.3037150788 91.5733248256 213.8501054416
225.6856780110 128.6441347932 212.4844215093
220.3735650909 82.3259484969 274.4622186279
208.5079599667 96.8145396450 207.5180570371
201.4342223823 143.1226120695 238.0822961355
230.1780533620 90.1743031893 225.1849702873
219.9593895348 130.6837460143 219.4371372686
222.0119862594 86.1171961776 263.3259100372
227.5027152546 86.6810372376 265.1182054196
219.1084037271 117.3607989028 210.0020943769
211.4640840541 73.3793453326 244.1850097840
220.8177909932 141.0841285740 224.0547686889
215.0823895738 105.0011075269 203.9757119965
205.2980488599 101.0596431711 204.8423493216
213.9846773237 109.7119341248 207.7591920776
216.8699017814 82.0206740915 266.5080637064
214.6498388603 73.8677265592 251.2223731084
229.8063866062 76.9266538145 230.5549145351
228.3609114889 129.5039836505 220.5738870668
215.6755216404 79.9539001761 251.8383076323
199.9748204307 142.0049138581 233.6396323309
209.6695380739 144.2537305697 228.8820278875
217.9581128844 93.0389881571 210.5914344932
215.5018520416 136.9306326051 225.0518039147
209.8132871412 141.8248158789 233.8416855081
217.1417343610 89.4651641024 217.3942935506
237.1489348880 84.9179847360 232.2708720274
226.4752693799 128.0078655798 219.5904654533
203.1506417665 136.8049564915 244.8340379642
215.0224494791 81.9860997457 253.7632878237
209.7334414665 101.6369004609 202.9298776818
211.4551835955 73.8267359487 239.1427349524
214.4741573546 100.9859744659 201.7864218138
216.7842957299 98.1359633314 201.7889972396
210.4867655857 109.5858994363 205.3901465325
219.7965523334 129.7306756936 213.0037359796
206.2288495344 100.1862791201 203.9738120125
217.1558576128 92.7670006346 209.7848445004
209.7641040645 90.8838169674 209.3829200357
216.9152052643 75.6119500263 265.6603973148
197.7582293159 138.4610359047 243.4475359171
220.3364823913 89.2357583273 265.8301889619
220.7576034055 121.5945161992 211.9893079389
214.4030292804 77.4993071296 263.5151229168
179.0639074957 134.5373010075 233.6818595193
216.5282609653 101.9029844300 203.7635330854
224.2693231872 96.0162309099 221.5326200503
192.7958765069 134.7974641526 237.7095645439
212.8265759087 121.4760382151 211.5219029099
209.9079582970 146.0441769250 236.8175351968
210.2409539713 109.0870638477 205.1578749720
222.9625480116 88.4227402281 276.0015125702
221.3641862581 122.4387941854 211.3801227565
214.5316879014 81.0747755049 260.2602044682
211.7562975492 115.6564026320 213.3135703172
222.2444400402 88.5741008876 263.6675316076
215.7599709575 93.9235766149 215.9555242898
218.1274675048 89.0593052459 215.7778945370
208.4240764094 104.1888344685 201.3818437014
208.3130308335 95.3932791679 210.2965649174
215.1761323801 112.1980188883 206.2932218728
218.2446709265 124.0741425083 210.0002599877
225.3765687403 124.1813752365 212.0432787350
224.4955500597 75.1495217235 233.1978929829
234.1528602056 82.3467229129 235.7173365773
180.1627498760 137.7494907802 237.8056351140
209.6508477086 78.5847242866 248.7183107313
225.5071522128 120.2857297171 213.9080205974
208.6174583028 104.5540836422 200.7121261310
222.8906040305 89.4113387688 216.4126012061
232.1996313495 81.5839514298 228.2064255668
218.2378654486 87.3836651385 262.8335848506
223.1461773362 68.9849454661 242.5095443221
208.6031062199 143.8542505943 239.3718240801
204.8529991241 138.2610349103 234.9197136711
213.2687739722 100.6523052251 209.0497103699
213.3295777377 78.9761116557 253.6130748540
228.6050993972 81.1037809435 272.9017156202
217.5743938911 86.0901611483 261.2823764085
221.9530374672 87.6590662010 271.7476889191
211.5325177554 114.8357952575 203.5857280459
227.9338599416 74.6995236231 239.0585873458
206.1487537674 95.4475855152 212.2030846318
226.6154150191 120.1647298097 208.1986490616
223.3524195870 71.2888523568 237.6064332820
227.0820761553 134.0162344301 222.1414512113
217.2875357379 78.4629527781 256.9342806375
215.3829545125 105.0983938646 201.4285272329
227.4876837019 89.8548476256 220.7683290966
224.4690407797 89.3472291982 267.4916613048
211.7101497845 74.0976515477 242.5685099002
217.9875920274 82.2692240084 260.0586793069
217.9351832953 76.5761237374 238.9448773296
226.1509732028 87.4879349013 272.7194719395
224.7899575528 130.7509440870 217.9552117236
221.3782006507 75.9582107409 250.2551250510
212.6131883182 101.9116518584 205.5617047020
224.8770714460 121.7092586841 215.8841236623
211.1478422033 74.2987776047 235.6294597752
223.4513949845 72.3335115995 238.8441175690
214.1834282280 143.9456224457 232.8800785630
212.9113367104 93.4447836002 203.9011865623
216.4767374966 77.5546166215 239.6426388923
227.7186771999 80.2633459396 270.7040335083
230.8486679419 74.6910671691 235.1661542315
214.2954635666 143.2282589272 239.9374496195
224.7386750788 85.9934542106 225.0176033621
219.5278374978 88.4392713628 219.9200432875
224.0789640658 124.2802913708 220.0347335987
199.9016103692 144.5084107336 233.7067405890
180.7419779515 135.0321789424 239.0429952466
212.3635844017 76.5719770255 260.2598829710
204.8625890556 93.9684024981 211.6937433550
223.2751486767 120.0549682357 213.3003470194
222.7998578939 144.1572765499 234.6340981416
226.7339002416 87.7877946870 272.2429275268
203.4444043388 104.3790532574 198.9405806909
211.8883667158 115.4858403327 202.8958283995
224.6579522573 86.2627479065 218.5171672997
221.8312636385 140.3616168376 226.8376572423
215.9277889117 75.6818733021 256.2729342834
228.8341830515 75.4255014748 232.3988640054
218.1826322505 126.8619940247 218.8644892002
222.9827609518 92.4719666108 223.8206227674
200.2266896123 140.7132781425 241.9369539728
228.8164759949 73.9318361455 234.8122600913
