210.2071999333 78.4102664420 273.7893574034
226.9697326314 59.2279537252 238.7679840809
217.9078547899 141.1081043146 235.1500236895
226.2810132768 63.2228845456 259.5036852755
209.8506433769 71.7622552762 268.9136978598
224.4355896039 51.8366994837 244.8787538727
219.0277956328 148.5769315641 211.9639028830
226.5076939970 75.6481853388 221.4199057015
211.9219845606 103.8149066630 218.9904481728
207.5295430879 137.0592417094 197.9328864787
215.1130816594 102.6224488187 219.3612688678
208.2151012759 111.8976394075 227.4387319585
226.7198290556 72.2920414246 226.7082584965
218.1352083415 66.8873650156 266.1188697042
227.2130816817 57.8657947043 241.5127936057
208.9807167641 143.0170307901 234.3654923938
213.4350468619 147.5192371372 222.3019558619
221.9863619826 64.6534117672 263.8319117097
221.3745899810 66.0638466251 256.4344038291
226.4200335653 63.7441626977 256.2205570788
219.8662137135 64.5118447744 263.6711991534
220.8879007727 55.3000108121 249.6163665692
228.5003330916 58.9650269190 227.8575299800
207.8414384571 139.6443592942 233.9597191536
223.5961228150 78.5424787151 225.0843539125
212.8129471566 146.5894986093 210.1328963631
213.8288036971 143.6993623639 205.5878561291
217.7998983739 151.4034555995 214.9442411397
228.5244741226 65.2357761152 224.4808379664
231.9989384331 54.3428261033 237.7894243047
224.6514770517 57.0263524554 255.5449974922
200.7794454207 124.9246039692 220.2886494531
209.2771207434 148.6944847840 199.6060672068
230.7923115606 68.3000330611 224.3163419626
208.3105189082 70.1374086007 273.1727731582
226.4260736048 64.8960853339 257.9431015861
225.9866340625 86.7500401684 225.8746515737
210.4283512912 70.1275385322 274.6148448160
229.6870627832 82.6324197125 229.4212233783
210.1782853103 141.5256745934 226.1539635620
201.4480280327 132.6577129188 196.0952693434
200.4867797865 125.2282321842 220.3749162550
227.9893363015 83.5776105825 230.4667394544
230.2851212904 70.1159549072 228.4737651981
206.9440960338 144.5178868818 192.7922623464
204.6859949715 112.5801090490 225.6235712012
201.0798394840 137.8519978062 237.6907793461
203.8256115372 114.9634519783 220.3994816259
230.8386774280 75.6224307070 228.4397717645
210.7098974798 71.0600241623 266.9103126439
222.0093496725 137.7990153733 225.8088586847
218.5368408487 67.4290628378 258.3297651113
201.1972885307 131.0729071271 223.2027962566
211.9952862870 147.0258422591 201.6124301722
214.9020797576 65.5178403410 265.0265969980
228.1355127776 68.1544604096 232.1406337632
225.0725259163 84.8026702866 221.6277516644
226.8229733431 57.5753924458 250.8789999218
221.0669597900 64.6538426643 261.1944983997
208.2164036978 136.2456485075 199.1094363752
213.6080779270 107.3828824147 228.5381454848
228.1918859675 77.8548365634 224.5688956481
216.0067422209 141.9164621248 222.4194247675
226.7260869247 86.8889799815 229.4045720804
210.9791589071 144.5055361347 235.7770142585
205.3322927242 135.7494638414 196.0680418262
226.5160884110 84.3053806156 224.5855850485
211.6165883708 122.6139389237 220.6868408029
201.5385126827 112.3981096547 224.2954396666
208.5798564614 125.2030450782 219.9508396939
195.6182499969 124.9152583770 221.4484373247
224.2725819919 139.4250118596 228.2194427892
235.5380137277 65.2173193116 237.6149007295
225.2006616538 59.0677720237 246.0350662793
203.9550612603 132.8251339893 196.2853050351
207.5694981287 141.2332466023 191.4924087763
212.8876026246 145.6447755829 211.8078271696
225.2483902849 77.6194102527 221.0877934363
203.1923201286 138.0022042565 199.4248239666
223.3010121504 60.4751869416 252.5174186403
202.1935684289 112.4128338370 225.3677094059
220.5082698558 85.0681930855 223.8629742383
212.8062670623 66.6558630467 258.0094564935
223.8770963509 88.4952939767 226.5791285282
210.5579500148 137.7777097987 233.9936986467
230.6830044396 59.4599649904 226.6593967188
229.1823019753 58.0790558942 255.2312373898
217.9937450005 61.0233260702 255.7962804776
203.7463652731 115.8290130149 225.9986651062
208.1504299588 139.2309215144 192.7589392973
227.0494661484 63.1188196095 227.3778124618
211.0187126690 149.5943715045 210.4343866779
230.9733008371 51.2092791359 238.6645540630
210.0386484878 147.4632535949 198.3114441775
201.8310717120 112.6676789683 221.7147082349
218.0919705459 71.4701874527 267.4372518152
213.8982499439 78.6518176231 266.1029721732
211.2089787172 67.2752728666 261.8541544752
220.6303687043 56.1806199018 254.3511431394
230.6458437167 62.7470785231 238.7993046747
226.9232209235 50.2729094877 241.6908995247
227.8203825278 86.5190899645 230.4795829268
221.4374806672 142.4440081326 235.4068217058
229.8764043461 60.9297888495 254.3618279206
227.6870908921 57.9312640939 256.1639156264
203.6028283993 136.3678900835 194.7568591581
215.3040939576 149.1438061939 216.8469889977
218.5368408487 67.4290628378 258.3297651113
215.9806637522 145.2603001684 219.0578791859
214.0758510449 155.1958816007 219.8195557652
206.9457502716 136.4492262111 237.8208217269
225.0190614143 87.4240805165 225.9393823939
230.2617962288 59.5845251346 233.9216958314
210.5695688741 147.8601038015 217.5941664841
212.7390708038 105.4360660710 225.0988214084
217.9619733245 63.4406039785 260.0162784593
227.5467712883 64.0574195895 232.7167998991
222.4620965068 77.2165988023 226.9557151313
218.7712800876 140.0301009655 233.8460300112
202.5249325626 129.1861840386 221.6151034183
204.7176397578 146.8905893191 207.5186750943
225.8655190748 63.8982712557 222.4072298888
211.7934639373 138.4269871218 235.5526817526
208.0555403435 145.0135974861 206.0749536899
225.1347987338 138.4309181245 226.9071782132
228.3588147898 86.4847733223 228.8545450663
230.1415935082 76.8603318348 229.0938869086
215.9855426932 108.9071449730 227.4569671045
196.0456545854 121.6585011793 221.8865045783
230.0450501528 57.7217063052 247.8007628498
211.1282553498 139.1486609153 230.2085408818
222.1471833749 142.1287320100 238.3682963901
200.1780690286 123.0584921177 224.3852824067
216.7202461897 152.8748363444 219.5966687738
222.3461589679 76.0332771811 221.7343511930
199.8370324263 136.3007200792 196.8764944416
206.5832061999 139.0063255884 237.7789262031
224.6066839324 59.4913298906 251.7772117869
202.4328650077 136.1748195154 190.5108648004
197.8939527288 142.3700590765 234.9773191879
232.8343155432 65.2503329307 228.4777975315
224.2533028511 137.9488758829 225.9789446776
225.6479130721 76.5518455295 228.7209752412
210.6127103733 79.5745890355 274.7519952014
228.8188754337 72.7536240287 226.0906253114
213.9472067818 69.5310034188 267.1317650791
196.9700786679 140.7502936399 234.7974150915
220.0546863274 143.4648660652 241.0858383997
208.1223168515 102.1541638018 219.9543370967
223.9380314826 141.1198695186 224.6108905688
210.1750833021 78.0020007230 270.9340943196
197.7349595637 135.4523127706 239.5695031290
227.1305523583 55.6924957091 243.7356296882
208.7508502315 108.5106670610 224.4202859789
207.6369205802 120.7730989508 221.6842475320
229.5250363586 74.0457986576 226.6404838012
201.8367349931 138.9066763258 194.8364958441
208.8935229294 139.0383375009 232.4473162301
208.0669539103 140.7816922291 197.4521591274
215.5438007375 150.4996558384 215.6800450392
206.1865672174 140.7874384819 192.2158127912
227.5772182391 70.8060892701 230.5944996738
230.5803672298 56.5100240262 247.3816866285
225.6525298281 54.4464728271 239.0141747523
209.4496544910 102.3624076182 218.3400749551
222.3531956805 59.6515812134 250.9401101296
211.1578773333 112.5971421508 226.2579761916
213.6160267145 153.6859373758 218.2467443899
230.7797878669 65.8204418143 228.1602060248
221.1353512103 57.7053591981 250.0148989917
219.9391855139 67.3648898354 264.8552989913
210.3488541783 140.7961771164 211.5916260445
234.2560713660 64.3785937894 239.5783541128
218.4373575431 62.7406130786 260.2954238621
216.5008217722 151.9513900932 215.6878922413
211.7350153348 71.6418997847 274.2971168042
227.8010686748 68.4430428103 259.8835860724
211.5053936951 142.2403679165 227.2483731169
207.1914117314 110.4164203062 220.3588030861
228.6244833367 85.2559458416 229.0524230578
223.7739743616 63.0554760861 259.3136396012
218.8625343164 152.7427302498 212.6863589115
214.3796722190 78.0024576456 273.9633067029
214.2362682474 105.8849285294 220.7029728744
225.5843171130 56.7478486739 254.7678912961
209.5901304987 145.9473589161 212.2013767385
212.0407684857 138.4234917547 230.8839087464
229.8089905440 58.3700350568 248.1944648660
225.2591078870 68.6321172986 226.5820439677
231.4276720533 64.7225856180 226.5795753598
230.4135457549 79.9784309822 226.2116726220
211.0429210547 123.0196669642 221.4411079691
217.0224760000 142.4912190867 225.4583118802
211.8355091398 143.9836279420 201.9896596730
202.8920087579 117.3242690258 222.8314509489
213.1896158995 143.4013943317 200.0806056635
224.1411067690 64.4117686644 222.2653204629
222.1933097376 139.4360611936 227.3836036914
210.1440042517 68.7292287152 273.0993387462
223.0778161949 52.6040326631 248.8951999929
205.2791940265 135.0397647540 189.2341712190
221.1511840555 60.0530348688 253.2433543024
195.6968697925 136.9168621186 230.1464771972
207.6151877640 141.0143603186 237.0483568188
222.9681943374 76.6519293253 227.2180440728
196.8059136127 132.4003501031 228.6189249098
217.6082090347 137.8279858909 232.0159622984
212.2120442709 108.0614647839 221.2579064239
226.7972442022 64.4462963082 259.9412911392
202.7022627441 137.6168074929 198.8307502156
206.9739864931 112.6033155481 219.4153106615
204.4171934706 142.0773952523 193.9719229614
209.9080434714 150.6429599867 220.5414638708
218.9973712209 72.4650544461 267.4710075044
200.2852069433 135.4923631426 234.5905372143
219.3064190150 93.0986599120 224.4332035743
192.7155955409 129.4664029825 221.9656353851
225.4054786403 67.7900907695 230.9601183833
210.0693035299 137.3536844353 237.0448041511
207.4794499453 71.8121013193 269.2893996571
210.2304781644 141.5622558777 208.0745450217
202.2782288464 134.8488996860 230.0312345125
199.9987382809 126.2883522169 224.8161916152
225.8089430655 66.3785830402 229.1659458875
204.4826104670 113.1261703715 219.1183502419
226.6473565396 60.1434703780 234.1887894260
224.6287830238 53.4871796342 241.7336205136
232.0560791875 66.4746492629 228.9950459091
225.6062598558 69.4705048900 228.3825192074
202.2756701004 115.3601914552 222.4925344613
208.9250984302 133.0964622858 231.3529446120
205.5449158303 143.4926610657 207.0485779417
226.3440998159 72.5334069686 231.0388414066
225.7819001536 64.4501023172 255.3256813941
203.9401104124 143.7464639508 196.0935006413
204.7642911058 132.6785740145 192.1018487766
227.1655176273 59.6655086732 233.4547138836
221.4654547779 145.8418341434 226.0784610115
210.8028164220 99.3519335693 222.4850759155
222.9681943374 76.6519293253 227.2180440728
202.4075128126 124.0671324034 224.2837051294
213.5393819104 108.2697086004 219.6436442823
210.0386484878 147.4632535949 198.3114441775
205.1331878871 125.5837181375 221.5231198331
207.0869112417 145.8802277580 234.3860522315
201.8683577190 122.4745675824 219.1125541288
221.7511945812 103.8400503515 221.9178207338
228.1097937659 65.7382897288 222.2483710236
218.2565570367 147.4165044526 226.6722407371
220.7130004512 141.3757385273 223.7693339722
215.9828181553 152.2479233167 212.8086733920
231.5646546563 67.3965777754 224.9924431104
228.8922471633 64.5375683369 227.7181597580
213.0904580696 103.4588136318 219.0015215806
227.4225190521 83.1222421269 229.5524765900
207.2598788073 138.5166477505 193.7103982690
213.2034405642 142.7267136322 236.7827694033
208.2164036978 136.2456485075 199.1094363752
211.1912674476 142.6085482547 201.0934034623
198.3457175005 124.3597538110 227.5826197490
216.1252253145 146.7759908922 211.9597943567
210.1295848850 146.8856162301 214.3327501903
216.9197530689 96.4442994908 223.3468536350
221.6176432985 140.3317086037 230.2117693238
219.5076970787 99.0383856007 218.5777869109
204.0805010853 117.0064335638 224.7843246221
218.5964762680 65.8087377673 265.1817959500
232.4518442240 86.1329952363 227.4596278576
229.9032062463 52.9481155458 242.9436967812
198.3319794198 121.5180550194 221.7133264405
226.9293761748 58.9968212117 253.9153498253
213.8950469801 148.2354961827 210.5698370268
202.5866558729 114.8714406240 222.5409595705
218.1597346769 145.5635651224 229.8509922866
205.9114222515 143.5760002326 192.0598764317
205.7564144233 117.8971117627 224.0950189263
214.5378347832 152.7342046829 216.5683620282
208.1223168515 102.1541638018 219.9543370967
212.0328393409 150.4141109216 212.0306865101
230.9280686553 81.1692870637 229.1098635735
220.4814193973 101.7538153082 224.3876990618
208.7334945352 147.1720167507 233.2896241561
215.5832432490 70.3927907536 264.0411027079
197.7349595637 135.4523127706 239.5695031290
208.8094915231 109.0835484038 224.1639923227
198.7778952473 123.6580437832 219.3707918652
207.4237861086 143.7636444463 194.8951773325
227.6870908921 57.9312640939 256.1639156264
220.1500683639 105.5543413507 219.5953389685
215.0917960716 153.8824374529 221.1780128803
218.4728747061 147.2935083851 212.2312937793
232.8935584262 63.0208980799 239.7599683905
210.1381577125 143.1678131678 228.6419554760
214.1994348598 145.0482434745 225.8451003818
203.3341607482 135.5540340322 232.9896262837
215.1580852222 73.4587437413 270.9661938698
222.0107519316 58.2227142900 256.3453369065
199.1814113866 137.0930920951 239.0409765313
221.1313237050 69.1467639935 259.1405092029
227.4054606489 93.3916291314 222.1430556152
213.8753060724 144.1877610055 235.7830112221
203.0420727802 119.1370766266 222.5028702812
218.2954247473 94.4167287404 220.1211852030
222.2660007051 76.2522452754 225.9105401395
203.0420727802 119.1370766266 222.5028702812
205.3206239270 121.9514031211 219.6977244003
215.5708623365 109.4096585866 225.2245001616
223.9380314826 141.1198695186 224.6108905688
214.7009442104 101.9444233523 219.4839820250
197.6692392640 129.1998789454 221.6784545360
205.3150702786 118.4372745211 224.4841212280
220.4555166425 102.7701935823 218.0547344773
207.0599673533 146.2950813638 203.0994587325
232.9132527593 62.2856498235 237.0203962452
232.3145994100 62.1190241914 238.0458712751
220.5725862982 52.2463981705 246.7211550894
214.6351016781 109.1744557484 222.9105810983
215.9206149355 151.1808679924 215.6595649452
219.6679146536 144.6311806759 231.5115667803
211.3584703398 149.2317983404 211.8993694142
218.7639444354 56.4211371519 250.3172250366
198.9879150463 124.9519503169 225.0261232642
219.3899284067 52.6885269367 254.1781896719
217.8920108571 95.1267507865 222.2234723044
207.9244610641 142.6023223430 204.9147406091
203.4445948436 121.4768915870 224.0774772560
200.8632131068 135.4198948100 198.2489980551
211.0658143882 136.1084197144 229.5045235408
228.6824236117 54.0145166479 248.6808744518
215.3851268926 73.3837423677 266.5889828794
212.4656033197 146.1495505439 233.4444149543
202.3711533217 138.7986734246 236.1809317077
205.7369442384 136.0319871203 236.3036089025
231.9632588336 57.7372055479 239.5860355330
223.4476474146 55.0789873226 242.5827133466
205.5449158303 143.4926610657 207.0485779417
223.0012439394 101.8427817400 221.2583903771
203.6875006433 118.4920069615 223.7429538051
203.4230138826 139.4023649046 232.1677574162
201.8336051449 126.1898210028 221.7325134416
211.3584703398 149.2317983404 211.8993694142
226.0855000055 141.1270992406 227.9097700544
206.7705575736 124.5920673443 217.7011776659
232.2549667835 85.5065786506 225.2362475025
212.3506017633 146.4801379756 207.9509528153
215.2122037843 153.9165172641 216.6996791242
211.8121376551 67.5906695073 257.7116400211
196.5667174282 126.9977093882 221.2353444415
232.8814869040 57.5243063912 241.4796362138
233.3549167777 63.3341982541 239.7974763913
196.5140691411 130.7581568056 227.3621742802
211.9194523756 144.5582874787 221.5271409791
232.4409790152 56.9963937934 238.8858245360
226.5990202242 61.7086823824 257.4629233065
211.0251688483 67.8890305265 268.2783667528
209.8916921512 146.9064369517 202.0868902404
221.9998861447 98.5180373623 221.1316619541
231.2259426139 78.1732458051 230.4024439764
226.6984989867 68.3876357051 228.9359915217
205.3192054984 133.9619959136 191.8344541554
201.7313938333 135.1104428989 199.0116817038
200.9644159642 130.7914088589 224.8550414545
217.7651375399 54.8645185973 252.3968936231
210.5706985833 112.1178370180 222.2030750912
209.8324940042 104.9359689694 221.4595455073
194.7746727348 126.9429810905 221.6170627708
207.4794499453 71.8121013193 269.2893996571
201.8683577190 122.4745675824 219.1125541288
211.7424070383 143.8001335871 217.5716149618
208.0809211282 144.9766607594 230.5399999914
202.4397012294 114.3146517624 226.3163931179
229.0717209475 92.4899762241 224.6300032140
206.9780065300 141.3833743259 212.1516935961
224.3481101042 143.1462383585 226.0451935060
220.0013853971 144.1209062234 225.1464766503
226.3434954720 69.3449082503 261.2989881845
203.7409586202 140.2847928652 200.6644606654
204.9674476510 112.6032680757 225.5978980739
203.9604804875 137.2473470916 189.0131299850
222.1458036290 66.3936511253 260.9695647139
218.4438457420 65.6249163311 257.4913967464
222.9454433066 139.8257373996 228.4103256943
204.6634665378 110.9720276009 219.7255694826
198.6737669427 125.9722055118 219.3662424115
220.8133085343 144.3736917453 234.2222561681
214.7009442104 101.9444233523 219.4839820250
219.5270206399 101.2419494261 224.2858174146
225.5002102668 66.9439687592 230.3432006747
205.6076792920 115.9147429017 224.0129359841
215.3661596350 143.0519404877 231.6531462800
226.0975944026 70.2038272939 259.1186859495
210.8784702321 141.5418309067 202.1601889922
218.0531027221 65.1323077366 262.1099261787
215.1767668492 107.8655745779 223.8754204476
228.6498910513 64.8650432668 227.6776487278
211.9219845606 103.8149066630 218.9904481728
195.3970589161 123.4356951424 224.9473046405
211.1943195755 114.1880808455 225.5032298408
192.5348244485 128.5485644820 227.3450808291
210.9785774949 100.8276977069 219.7201953474
212.7178795513 142.3660390242 204.0662427894
215.6533382661 70.3656069813 263.0877150766
210.3656495208 144.1472985046 212.2746343236
231.5813607785 69.3253238437 227.0819423201
203.5830400379 127.9484391919 222.5413488987
210.7098974798 71.0600241623 266.9103126439
216.3856519093 71.8863282294 269.1085248699
226.9126755733 93.0688493180 222.7456244730
206.5969995829 114.5082386008 224.1945080942
219.9797169555 60.1450012707 254.5859109296
211.7774374790 143.6209778496 201.7270137376
218.4438457420 65.6249163311 257.4913967464
228.2135565383 65.8916992007 232.7439072496
212.7938602353 101.9031865902 218.9707499110
198.2974163074 140.9585374564 233.1831529499
224.0916586960 64.6177177116 261.0068264990
211.2745676396 142.4302910508 211.4135524555
212.0850977310 144.8989513118 221.0642302207
209.1102242017 139.4125223730 200.9877674205
207.6151877640 141.0143603186 237.0483568188
218.0527959404 146.6893839584 219.4380554753
230.9943637026 64.1641083292 234.0216050566
231.5984610263 60.1699259999 245.8555565813
231.4276720533 64.7225856180 226.5795753598
222.8341627499 141.8102610841 224.2647075594
231.0628859403 54.5897732012 237.8169837421
206.3777048141 123.7223806426 217.2226083031
228.7882573869 55.4258659148 242.3325873960
231.5388267579 60.6531544909 238.4520496006
221.8356074955 85.2764369020 222.2487120967
210.3300343130 103.5695151158 225.9310512018
208.1981526599 121.9188668249 217.8563926277
211.7219224729 144.1557647806 229.6076258820
203.0379026618 139.8778499558 197.4470819010
195.8471314512 132.6317121609 229.3282838619
217.5328726679 144.1471784653 238.7576668131
204.9968320222 118.6189481144 224.1758138973
212.6544131621 145.6802853277 206.6228488045
200.4535911947 121.1841757975 218.1091811598
218.9574367839 141.4561308936 240.2597794287
215.0921214866 98.1088077999 222.4072184503
226.5441633421 74.9628194342 229.9912305662
211.9952862870 147.0258422591 201.6124301722
206.9457502716 136.4492262111 237.8208217269
224.9635680944 68.8779473812 260.9900471682
197.3568251130 128.1445200163 226.5217045801
213.0692161206 71.5959469099 274.2152736425
211.8716530723 149.6706802951 215.6813688158
214.3925750281 143.6339440312 227.1392397647
214.8750897301 145.8664166346 217.3479850723
191.4467266490 129.4820456308 225.2524140245
208.7334945352 147.1720167507 233.2896241561
226.2810132768 63.2228845456 259.5036852755
220.8832750151 140.6259358326 227.7653322633
215.9806637522 145.2603001684 219.0578791859
212.6347071746 67.6967161589 271.2949673604
227.0387857860 83.8205946975 223.8934177298
227.0702981011 78.8125527931 228.9744922773
216.0067422209 141.9164621248 222.4194247675
222.8341627499 141.8102610841 224.2647075594
226.0481261261 62.2646642369 252.4667540832
196.2227988048 126.8186401035 228.3930657988
200.5536619080 130.8836473500 231.9896717780
221.4045000680 100.8706773056 216.2799286233
198.0456220897 132.3792557967 234.8713522499
217.4668027737 150.1213413513 218.0631912342
218.9535505453 79.2171254856 268.1032419764
224.4244201053 74.6388139329 221.5725616045
203.7292840292 146.0125921129 209.6954524445
228.8256012593 85.8971161697 229.5034392572
212.3896645001 145.3307015895 231.5424306080
229.8783313813 93.4442754298 224.0726722022
204.7989681644 132.7774248747 192.7239325719
201.1587400420 129.1961994866 222.7682312097
222.4523610033 62.3836206188 258.9830397257
216.1210360632 73.8239158771 267.3355634133
196.8059136127 132.4003501031 228.6189249098
213.2700733497 141.1766661638 226.9785835259
221.1209992537 54.2738723699 249.5059532111
230.2473863735 59.2131419645 234.6210612194
206.9051537657 70.5132347927 270.8635412879
230.2270949752 60.5048157771 256.2497761827
235.2612900975 63.7566199948 238.6022104430
210.9785774949 100.8276977069 219.7201953474
219.8834360894 105.5056314854 220.4095566829
214.2904640993 70.5291103692 265.6311995270
201.1117410252 131.4683866700 228.2351601088
212.4157716569 112.2607615620 228.3248859824
207.0266122155 112.2154755095 225.4858601477
217.7897798312 94.2944107106 225.0237893782
222.9931865210 67.6308485780 256.7074359174
216.1941236470 111.0393887041 223.9075532136
217.2235968128 96.2424700335 218.3836561807
213.5669660101 153.3890879937 222.1019522566
192.0265775727 128.5430012503 221.9656407827
213.8699860012 108.6741509923 225.1443974722
209.6161450980 107.6869316463 225.6047855855
207.8612344618 113.1379431620 219.1253601990
226.5289906825 52.5546437949 242.6057922199
225.9432381088 61.2166384175 236.3189894983
193.9656434117 132.7903016213 223.9708929115
220.7075219940 141.3789882614 233.5909117870
225.7771464823 62.6713753075 233.4785264730
229.7919114751 59.3785637227 226.5967665711
230.5027412587 59.2651788518 242.5886197652
225.1082232558 51.6570105760 248.9360253052
196.4476022579 128.4688187609 222.8035486762
210.2304781644 141.5622558777 208.0745450217
210.7964797431 146.8640784827 222.0760171037
210.8319175323 152.2627254233 220.7213679672
195.2742230976 134.4457790832 230.4678331368
231.2438265166 64.2623143052 234.5178345063
216.9253265113 147.1901562964 212.1139938394
202.0354051901 115.4313156370 223.7879207024
207.8824686693 118.1809899067 221.2224333432
226.4296009995 68.4200555541 222.4702336240
205.5606409855 112.6742242385 224.6292174711
214.5257249307 64.6168563253 264.2533403091
213.5704635996 143.1096348220 215.3419128457
217.4457555718 147.9828374154 229.9211416274
215.5143879264 96.8201256828 221.0376217646
206.1590587997 134.3054110547 234.7308039439
207.9928345737 68.5751669753 271.4795862606
203.7752532777 135.8596100902 233.6962070180
208.8755759491 145.3816036027 198.1174759640
224.4919125407 58.1289008077 256.6418407884
197.3466004661 126.0606250423 219.9434642474
201.1818101729 114.6510329912 224.2494851896
220.3587873203 56.6144274166 250.8532038357
209.0986352773 140.4941003090 232.5889054611
227.8330672046 62.8499370002 231.5356952551
224.3171040002 81.9345814925 224.5180014629
199.3923725546 138.6019932071 229.6604845620
229.4523997994 56.1041634808 237.3345232978
224.4816054260 66.1703392237 230.7802080291
225.8590422188 57.9081568572 252.2507535094
224.3171040002 81.9345814925 224.5180014629
212.0204502509 148.0924165424 201.2366394271
204.7623073054 136.8949375170 236.0659520332
194.9742987396 134.1869532010 228.8339227479
200.7410078448 138.0019140071 191.5695615609
202.3483025857 113.1401629603 225.8844197532
222.3924942929 145.1837662474 228.6929079487
217.1183664634 95.4907510997 224.6435078912
209.9831539195 74.9276664564 270.3849764173
212.8369395048 149.4732410294 209.6435915464
209.2301652250 136.6373543592 228.3763544690
210.4636721394 141.4570415824 210.3028921381
233.9533433137 61.6539001774 228.1867716953
219.4607099416 146.4011594880 235.5763709059
199.7750577209 127.8874832775 221.1390296555
203.4396102255 142.0623909177 198.4353563913
212.7459956582 105.7822181857 220.5193899658
213.8791748901 71.5495440189 272.4498967798
220.6134886172 67.4365093586 264.5650294711
194.4937165746 132.3348663382 227.4621807088
195.8208830511 132.2464468077 226.8849588729
225.1843462638 140.0827175959 228.1288860752
216.7317125546 81.9302765697 266.2142510461
198.6985063812 129.8708449677 233.9185738437
229.5838397463 71.5985033744 226.7366878804
204.3946686102 140.3393842414 236.9869400297
218.8456625190 62.7743784414 255.9585871710
218.5293877792 148.3167088280 213.7960760127
215.9206149355 151.1808679924 215.6595649452
224.5773676462 61.4922904074 253.0607362879
199.8361498188 141.3956187958 234.4977873955
211.7630625527 147.1065970015 220.2332009548
209.8964287053 144.8450936272 197.2381694409
223.3337193678 92.1761916953 222.9904121147
222.4371771173 101.8125645946 217.0123164004
194.8670020880 123.5981024731 222.7489773523
211.5012108707 112.0787891176 227.1610632636
227.9888567045 54.2465712915 242.2508098657
212.6435239305 105.7538976884 220.8772389874
218.2657510710 140.7158485260 236.4962816276
199.7238319172 122.4087357099 224.2313058411
214.1189522522 103.5572552793 219.0634523953
230.3913129840 66.7068852023 239.1666142880
224.4195415956 139.9818291426 224.4439985888
226.9726874183 61.6065928047 238.5190259476
200.3195817519 134.0985846112 237.4465123916
222.8374272965 67.3664368718 223.2154506025
227.1828141615 63.5073788881 253.0434101013
214.3569221506 145.8265846559 224.9532104415
228.5054190470 88.7083000923 227.3581954012
206.5399934392 116.9565520407 220.2703199024
221.2054783415 66.6857160074 256.2081208998
211.5367649094 76.7441236290 267.8212198291
224.6472766820 64.3433891577 254.4790441070
211.4857509220 66.1142765134 263.5716446837
200.8911852779 129.4400803309 226.7996470781
207.7055559137 141.4505951306 191.8693082298
192.9178847575 129.7191012442 221.8324205228
215.1010580189 79.6709053567 273.6156990609
218.2169001326 147.6036820956 210.8532425655
229.9491777079 58.5296529292 228.6935705376
201.3075292972 134.8071560877 233.4012966264
215.0716702077 144.0822473072 232.9627558931
219.5234129118 102.2248656130 218.7518966952
212.0891881149 146.5553875826 220.5903215564
218.4750200294 98.0964983116 217.8453991338
227.7028333034 64.6656552635 226.9496238631
213.2068048873 152.7936300532 214.3451748514
225.9148592833 65.9448374769 257.6934255148
200.0281126582 132.8310029991 231.1466989955
216.4381933749 99.3804469110 218.9699646686
195.8471314512 132.6317121609 229.3282838619
213.9502292942 137.0313394515 235.0196701283
212.8510744011 144.0445245498 218.8261355143
226.6861567664 86.6220300363 224.4662279090
212.0605305789 107.2795442166 228.4208392871
226.9610164174 69.9229958159 230.0678623576
214.8409867051 153.9893560800 217.4405404216
219.0813542989 94.7079504008 223.7630318465
221.4701631919 104.9692733730 221.9683240911
213.5701048782 69.0080199791 262.5336776744
231.2182921437 66.6479135376 240.1838305088
201.4480280327 132.6577129188 196.0952693434
230.0369529537 54.4628405940 245.9622815396
199.1042374783 127.4792608943 221.6039754686
228.8011924130 71.3084358324 231.1976399526
213.5010101844 79.9362676245 266.3039932777
198.0527052354 124.5053626518 227.3399480466
198.2974163074 140.9585374564 233.1831529499
212.2085170130 144.3903118634 214.9339095984
218.8107828247 61.1453290566 260.3453954924
208.9798215761 142.6571298190 230.2185169171
226.8541432320 86.5180533064 227.3001080524
215.4724566412 147.0771813652 213.6158684240
221.2397271328 99.1688566730 225.4482383620
214.3025560314 147.2872502752 223.7274123408
197.7686067666 131.8111304229 227.2227345552
216.9236125154 142.0554882680 229.4162544808
228.2135565383 65.8916992007 232.7439072496
204.9674476510 112.6032680757 225.5978980739
224.0591769958 52.5023007165 243.8638842287
197.7615738982 136.7592502240 238.8009373311
219.3626599472 68.3343553201 257.9341750027
224.3682573953 83.2982487793 231.5853108781
207.9592475720 100.1762974051 221.1989220366
212.8496131460 105.6244959508 224.7787213046
214.7566390868 143.1614561867 220.7435508234
228.5921679625 84.7085285554 230.7104835107
222.3925855207 87.5512681855 222.5485216886
203.3004212593 109.5392696985 222.9099964975
213.3761644426 113.6354421761 222.2905261445
223.4189144705 51.1113295184 245.4444677657
232.2153776279 57.5595148473 244.8845775324
225.6854422873 76.0350053750 229.0604675944
220.0546863274 143.4648660652 241.0858383997
202.0667063346 140.6641981600 233.1987037988
208.7796795622 142.9072734327 238.2276009505
213.8753060724 144.1877610055 235.7830112221
224.8308672768 84.1969887553 225.0154784541
209.9329866439 146.7218724397 231.3008126844
224.2827159609 64.9568628983 253.8529170739
227.9092520700 65.3023497142 225.0578794409
209.9198101556 73.6727381581 270.0674117418
207.8205751583 138.9534372380 195.6449975312
224.2725819919 139.4250118596 228.2194427892
213.3190400348 154.4816778037 219.4364936509
206.0787694114 134.2315170472 232.6296381934
212.2190706017 74.7288661219 271.6356422421
216.5042221281 150.3336266119 211.0811423677
224.1736496863 98.2899209021 227.6728139571
229.0505881196 62.3692322409 225.0720955490
215.4127949370 146.8167231953 216.8479567085
206.8033061170 121.0648896692 224.7496327156
201.1424999631 119.8705012337 220.8332509207
211.2684214741 139.3269499267 230.2078134760
222.5000301996 82.8605481318 227.3029826634
223.5482438646 83.5707728974 224.5446698637
197.9851586633 126.7827758551 221.8105673516
206.7645953545 143.2330747520 206.9915562374
195.8509732136 135.7239585328 229.0046319928
225.0678546705 73.3132240922 228.2565537413
222.0397577400 56.4476262387 257.1825148577
221.2555502375 53.1048452280 246.3051301685
208.9118714084 144.4842688641 224.7310646225
217.5902805753 62.4348337995 257.5904529734
214.3134914034 112.5167518664 223.0727337593
212.0891881149 146.5553875826 220.5903215564
208.2151012759 111.8976394075 227.4387319585
208.3377630498 120.6823313276 222.9930700062
229.0605464821 60.1040101478 240.0058898337
216.8712778291 75.9866475602 268.3802825870
203.5580129794 114.2043210934 220.7995616599
228.1355127776 68.1544604096 232.1406337632
226.2680515698 56.2919553760 251.1463970760
218.3944552818 63.4710907996 260.4433126107
197.2094827975 127.3046408992 223.6072356411
222.0105932472 58.2810524956 256.4976216281
219.3556907406 59.7426351380 256.2042899827
211.4184516348 134.8447827815 229.2930679203
207.6303185806 140.9087269393 197.9491482673
210.8016931062 67.2655126117 259.1452647745
226.1874811359 67.5952891270 261.3320057894
219.6989445575 69.4034008144 264.6373540856
217.2954662981 100.9640345020 221.2847804052
226.6397600416 56.5187121387 239.2740447092
213.4020610338 144.4433074839 231.9791056836
228.9878382223 63.5458080051 254.4518931489
228.7837131995 62.1128690634 230.2851877884
225.2864431545 59.7438899325 253.4753108933
213.5837218287 146.2271819774 198.2688205424
228.3663963249 64.8915784937 240.0251065647
232.5211308130 64.6037937607 227.3678188228
195.5978558808 124.9261895275 220.7971681611
208.8188333006 144.3153233472 229.3683216696
212.2327307532 145.8680522758 235.0966601522
220.1668623165 138.5784536774 236.1570210606
201.4355407255 131.3297856889 234.0847636064
207.3572870148 138.3619129800 233.2423768430
204.5339394893 117.3957579784 218.6640857514
214.7505186964 106.6667305110 223.3677868898
226.9610164174 69.9229958159 230.0678623576
213.9211533822 142.6846478589 217.2298673655
224.3043731424 67.4592277564 257.2109650704
210.8907534043 146.2214642001 202.0112299916
226.5268892268 76.0255892007 221.4224706480
226.3786932188 58.8223192992 232.7569006842
226.5748901835 61.8465642489 236.2668749203
228.2706794860 84.6136791000 229.7708364114
196.3628476242 128.3019603923 225.4870952496
199.3523514599 121.2640102054 221.7803512412
210.7926396001 72.1174964781 270.5617709934
204.9546057811 136.3125261002 189.3109508527
195.0565033190 131.6600374162 228.7775738595
198.7720335572 133.9952325224 237.3292124517
202.1681286512 132.6017548460 192.5245105479
228.9423947432 66.0889340961 237.6721867868
232.9873712145 56.4944943029 243.1200046475
226.2680515698 56.2919553760 251.1463970760
223.4476474146 55.0789873226 242.5827133466
216.2923880653 72.8631157362 270.0413261896
207.2498874485 124.4015851611 224.6291938330
212.0850977310 144.8989513118 221.0642302207
206.0546285727 137.5942287457 237.9967958002
230.7678999724 65.6814157122 233.7746299649
195.6264763606 122.1160466446 221.1414510574
207.1563046652 140.1657425057 192.4611184295
214.2560759259 70.4811963932 264.6183308017
206.9457502716 136.4492262111 237.8208217269
224.6066839324 59.4913298906 251.7772117869
213.6086756839 105.7895616572 225.2625497036
222.5000301996 82.8605481318 227.3029826634
211.2987528234 70.1717322600 266.7990611534
213.9268235706 148.5148382832 200.0413734788
223.7729115211 66.5321902902 224.5299173418
227.2644129151 82.4879066506 229.3579332718
217.7651375399 54.8645185973 252.3968936231
206.0000182964 143.6653779527 206.5984884004
230.8640252261 80.9078623933 226.8865056152
214.3377170474 139.7779716231 225.1807748730
226.7862051188 60.6695502964 230.6216554736
230.7242568570 61.3209347652 238.2038260963
196.7628855618 130.4394692164 232.6842322242
196.5667174282 126.9977093882 221.2353444415
224.5218232731 84.2640361718 224.5546883317
204.5179148324 113.6179653835 225.6896149985
229.6101783737 63.1152269298 257.2207552317
226.3859067493 60.1364313481 258.0508925075
202.2511211651 142.3802270197 196.4824845806
201.9604626503 137.4286299817 199.0750570260
228.3424718149 64.8714275210 235.0763211116
201.1825736638 132.4328878689 193.4306474064
222.0107519316 58.2227142900 256.3453369065
225.0190614143 87.4240805165 225.9393823939
216.4185168880 141.5199743773 223.6849217951
215.0031415133 104.5929648446 220.6549333614
210.9548572416 80.1088276837 268.7665583261
207.0871792866 141.6902880921 204.2906052083
213.7748420122 68.2627720884 271.6013497500
229.0603408203 89.9917371621 227.0907982470
207.9168575521 102.9946092414 223.3527214677
223.9453098432 55.8837400371 248.3070856863
204.0330023553 139.3181931696 196.3263552133
218.2796576588 65.0028456039 261.7094653570
226.9466119939 68.4221229893 222.3368133308
226.3413035643 86.4414763501 224.2627149293
209.9136946998 141.3235205742 209.2489115529
195.3055764052 123.8987420273 225.9789421473
221.3727946678 102.8503967393 222.8397282259
202.7026886493 113.8662748428 220.5935900761
221.8082381534 138.6972800906 223.4872905440
229.2339054944 64.6595916316 241.4505630435
229.1325356759 63.0716942700 239.6034453051
220.6793623833 138.1000839192 225.6031177448
227.5467712883 64.0574195895 232.7167998991
210.5617717723 79.7548484500 268.9079518572
216.2790738685 147.5482379398 227.5322986141
215.4544577348 66.1583192499 265.7342241146
212.0986458891 79.7119587202 276.5018779591
209.0220320806 70.4519971453 266.0266107321
211.5477616009 71.2175784970 267.5800406367
208.8608566341 142.2291803076 194.5609789298
218.6296617499 152.4612319817 214.3386041094
230.0297898866 66.3613138988 236.7783620785
230.7373081234 57.6903560053 236.9708967955
222.1231265893 54.8930907145 255.7183700390
213.0879379732 111.5424310053 228.7198306719
201.7313938333 135.1104428989 199.0116817038
215.0330967190 67.5063141579 258.2965734188
212.5810402720 73.9978803527 268.1536715831
202.3711533217 138.7986734246 236.1809317077
210.8644169017 103.6527848725 219.3434523193
204.0779823485 138.3638495787 195.2030347455
220.6977744947 86.5924075135 226.2966988397
219.3626599472 68.3343553201 257.9341750027
205.0806975417 142.1658086706 200.4126294460
200.2777281292 137.2730482004 195.0540998856
211.5372613870 69.8204655638 274.5877813751
195.7094404545 128.8971984348 227.7498924475
229.9931966289 59.0522914717 256.3419039649
198.7115736127 126.1453094009 225.7358007219
228.2482647768 69.4700971174 232.3969387729
218.0236020927 60.9576849339 259.5688130036
221.3091524371 51.7916239897 247.6888657927
205.1856260515 139.5790824376 202.2926127811
224.4554194915 95.9768715864 224.6469448543
205.4859566564 136.9975904168 236.9528672322
210.4890417490 150.9187915673 219.7449639504
202.8476393984 141.8311368262 195.8807659593
216.6877648332 144.0737940626 237.5514634749
222.7139003615 63.2582100766 258.7050838768
208.2531572528 138.5214977420 232.8293854410
230.0554985148 71.3552336132 229.0406594408
214.1727195464 109.0400808323 222.9964909441
213.9347885637 74.2225851152 267.8867863375
210.2897412516 121.1708209754 221.9408817973
232.2377626442 61.3710132753 231.5003163818
219.4607099416 146.4011594880 235.5763709059
204.5888894199 143.5862555754 212.3618708875
212.6435239305 105.7538976884 220.8772389874
197.3190872799 120.7630269175 224.0240189652
223.5281131531 50.6986217986 248.1864534774
207.3326361899 145.9374505665 204.3834277695
229.2804451644 53.5880396005 246.2995365808
221.0648796759 62.1699819553 260.1672075837
224.3652439244 62.2551186194 256.4655231383
221.6724192753 143.1723004211 230.9749056799
207.4341708207 111.2669523748 223.6552558542
219.4431779421 145.8043980580 234.8822800225
229.0300006265 64.5772496239 226.3723957694
210.4231492562 150.1033673571 210.1793576341
225.4893464856 75.0706518480 228.0152926026
206.9507539704 145.4547242655 203.4552570632
226.7198290556 72.2920414246 226.7082584965
227.7812733089 83.7352929778 229.5998169356
216.2798063908 111.7314503416 223.4018873004
224.7218729975 75.9871543110 220.0139758457
218.4227382892 150.4666220694 210.9012823673
204.4062550171 133.9108343116 195.7885187382
196.9952751009 130.9319316815 231.7673626792
206.8364927186 143.9061875049 205.7878285302
195.5007192472 132.4744859231 226.8172757951
216.2111863784 146.5519964581 230.2213450215
214.0468999878 78.4057161047 272.1718225569
230.5441519446 58.9338879583 230.2265365486
216.0572995444 105.8581540967 222.0988098653
222.5427304260 95.6296384024 229.0042699938
229.1139112183 58.7429296516 236.1769697350
224.6472766820 64.3433891577 254.4790441070
198.6352184540 124.0954978713 218.9316773645
217.7077494633 141.4479355134 236.1667019512
228.6233521002 65.7033039899 239.9357462386
231.4276720533 64.7225856180 226.5795753598
218.1139640700 96.4034077978 225.6824161797
227.9854536155 61.4286779182 253.2856888423
233.3658917759 86.8399158812 226.7578545843
213.8397772082 150.2833045632 215.7265106771
196.6903268948 126.8415166521 221.0099028431
227.6414137320 76.9715684966 230.8172832793
221.8082381534 138.6972800906 223.4872905440
226.9888944711 59.0291338461 259.0146366018
227.3111734093 55.3223717497 239.6543261962
221.6067774906 88.2832831140 224.1989978675
218.9494646637 99.9783339621 224.7602067944
204.4013846997 109.6401029431 221.1775565270
215.6292906686 140.1914974224 223.9200235991
226.4200335653 63.7441626977 256.2205570788
226.6580474303 85.5536997793 226.2549330606
205.7128697163 143.1472242399 197.8350217333
221.8082381534 138.6972800906 223.4872905440
196.1156559930 132.6470705931 223.0358011371
214.3025560314 147.2872502752 223.7274123408
230.4135457549 79.9784309822 226.2116726220
207.2567317742 145.0526639067 200.1219397599
224.4195415956 139.9818291426 224.4439985888
225.1843462638 140.0827175959 228.1288860752
215.8212854769 150.7956906814 220.0298477533
222.5427304260 95.6296384024 229.0042699938
202.8476393984 141.8311368262 195.8807659593
210.0240062972 137.8604470568 237.2799174582
199.5667884751 132.3222660771 222.4712840237
228.4153213133 89.5993295202 223.3921926295
222.3773943190 51.3198186645 245.2806763910
213.5817077713 69.2988977028 264.4870074479
203.0040831025 138.6044371537 192.1302327809
209.8746533110 145.6319673436 212.9740157332
223.7196607694 145.0953467170 228.1156861127
215.7863995939 139.1294734731 233.5110768398
229.9700544017 89.9635410242 224.5010250110
222.4968441390 63.5802190142 260.2553493352
202.4721158919 126.6151158521 221.0197355591
212.9754917330 143.9827941405 207.5686484865
196.1206917229 140.8941737939 235.6361988256
196.8674562919 130.7667494182 227.4418524385
221.1392495886 140.3157621220 229.1433834772
219.2366433325 68.6096926668 263.2656117870
213.5156191165 149.1667572266 221.6641928051
226.2680515698 56.2919553760 251.1463970760
198.4235141262 138.4499874455 230.8387770791
211.9776637184 101.3872084460 219.9194473223
199.8361498188 141.3956187958 234.4977873955
208.9239454154 147.0977576827 233.2276412332
198.4578867397 121.5504282289 222.2309927306
202.2053830970 123.9476534658 222.7232816134
207.2656607658 137.6700153389 195.9123921525
224.9790448281 70.6828366634 224.7055485477
218.2860234162 142.6524712826 239.8794979417
213.6668551594 144.4163210805 215.6930778546
205.9972105924 144.8550572198 201.6537211084
198.1585677282 140.4324575380 236.7502869023
208.3780203620 133.2124227544 235.2283853708
211.6572016361 103.4811094762 225.3538231081
203.1709510183 140.7412543695 197.0034632544
210.3033214225 114.8392929387 221.6166053296
205.6046778520 135.6669210109 200.7469500158
214.7780858582 70.5385770449 272.5558380507
223.6532722454 51.6891146367 253.3698382390
225.1544642730 87.3571719281 226.4704175192
211.8218662803 103.6546037108 225.0807416800
208.9336176601 133.5841560089 229.0054528878
206.8738850665 146.3920625516 201.8244303534
196.8691003970 138.7925129439 237.7143040984
228.9418938524 77.5000793443 223.3648749005
211.1912674476 142.6085482547 201.0934034623
214.0737632248 140.8351374776 231.2151190727
217.7256389963 151.2192971094 217.0680479927
225.0190614143 87.4240805165 225.9393823939
226.2776732235 68.2741645010 228.7628006943
212.2265657537 152.5663500392 219.2237571063
211.4079852956 142.4351116110 199.5643714014
207.7784073362 144.2243762860 235.1388604269
223.0362743073 90.8278455445 224.5489861188
230.1350600827 65.7039871671 241.2314407648
221.9774385323 52.4668070832 245.0126331952
207.7784073362 144.2243762860 235.1388604269
202.3055372405 123.7645135730 219.5598731226
233.3549167777 63.3341982541 239.7974763913
202.4075128126 124.0671324034 224.2837051294
229.8870339621 71.3077127430 224.9946835477
211.5849982982 145.8277512422 204.6134426237
208.5113574824 123.9863832748 225.2966581922
218.4488864511 57.6686202461 253.3497777061
195.7642137764 128.5840464829 220.5557269415
232.3765270097 56.1664052507 239.6162717053
201.9904616522 132.6132088679 233.8173727100
202.2782288464 134.8488996860 230.0312345125
218.5964762680 65.8087377673 265.1817959500
223.0648975119 93.9070959349 221.8206060270
199.9312873071 131.9838960865 229.9444340174
204.9425638232 143.4239944710 193.2381689488
200.4570973157 124.6147040473 219.7152607696
210.3612156599 143.2388690017 234.8178626146
223.1510086310 60.2260695704 249.7974872509
223.4960177130 94.3334861419 227.6380969834
200.2718921029 133.1966966657 235.0155408807
230.9540631694 87.0597436113 228.9140727736
215.5675426658 139.7129289907 225.4012230616
224.1440654717 66.7904048575 222.0163564523
223.9587141781 82.2368288710 224.5082617374
206.4095113025 147.2705833871 206.9989692556
195.2555522504 135.9483778066 237.0117854011
230.0522495704 69.8344705299 230.1260041382
208.5814969228 138.5813666624 202.6944621821
208.8608566341 142.2291803076 194.5609789298
230.2666882673 73.8990061336 229.2749841426
225.5843171130 56.7478486739 254.7678912961
212.0986458891 79.7119587202 276.5018779591
196.5380759640 128.5009825680 223.2269578789
205.9482034441 141.9338211687 201.8380840624
232.2765035659 65.2042015943 235.2502222835
224.7201183771 138.9334317381 224.6747112703
196.0296586365 128.2329395468 227.0989264160
215.2602340633 146.6911810790 216.1444262742
213.9268235706 148.5148382832 200.0413734788
210.1130746452 110.6766299692 227.6999055218
213.1684268487 146.7307569187 222.5424390829
204.4153243542 141.4671048064 200.7957758989
207.5208736782 143.8195444828 198.8410440907
228.6369620887 63.8411345924 233.7667052407
210.1130746452 110.6766299692 227.6999055218
210.8784702321 141.5418309067 202.1601889922
218.7639444354 56.4211371519 250.3172250366
215.2655454690 147.2670985534 216.4124239508
222.4891902948 63.0707495405 254.1360763068
230.4477633326 60.0672277159 240.0802364137
215.5438007375 150.4996558384 215.6800450392
212.7236460819 70.2248911903 266.6571962696
211.5176473814 68.6209624361 259.0212558919
206.9739864931 112.6033155481 219.4153106615
209.0906053488 143.4637563016 225.5379123315
234.7656667161 66.1207774836 236.9388054591
205.2162681814 114.2128370426 224.5813513589
227.2988513890 64.8793681749 223.8652629327
218.2657510710 140.7158485260 236.4962816276
193.8914279281 127.9843963077 222.3838286392
231.3445680899 82.9304527241 227.0666669580
203.4106930052 137.8891576515 190.7012773087
210.0796342198 99.4639403370 226.0194722483
227.8844950494 56.6694543152 241.8930750928
214.8367636821 141.3303520295 222.2910792472
226.2776732235 68.2741645010 228.7628006943
223.6310499782 86.1581478513 221.1959170939
211.5053936951 142.2403679165 227.2483731169
227.2778428284 56.5361701269 249.5573801874
207.1818517798 146.3671239352 207.6750608012
195.8923516941 125.8153974469 221.1040292079
219.2366433325 68.6096926668 263.2656117870
214.8409867051 153.9893560800 217.4405404216
232.9132527593 62.2856498235 237.0203962452
204.4125258778 111.3198310059 225.8652952281
202.5643666998 116.6167007414 223.8258721007
229.7253531171 60.0639776281 257.7955027548
222.7142068828 94.3320690072 219.9326577651
214.7484106523 147.2105924246 215.7618466799
221.7271108549 88.8557193982 224.9013677678
194.2928018913 124.7586415961 224.1419588616
226.9466119939 68.4221229893 222.3368133308
205.6503613568 134.5899750886 191.2323589098
211.1983578878 148.4208259858 201.7691497132
202.8645979416 137.4437880645 199.6233975566
197.0160600007 139.3493302271 233.9388598979
230.5234859617 77.8656756205 229.6081576191
215.6346031374 143.5309509002 236.3430781987
208.1889784476 141.1076291549 193.1935043442
218.7615827021 79.2710022531 268.4563117237
224.5866812497 63.8578318303 256.8769928322
202.4328650077 136.1748195154 190.5108648004
217.1994959368 142.5077699836 236.9808805999
212.5235524336 151.7706096113 218.0340078455
213.5704635996 143.1096348220 215.3419128457
226.7697456121 67.9904224607 228.5623989951
216.3444635090 95.0234125886 222.1061661068
229.5503841567 79.3312303438 225.0872176520
206.6510209781 145.4634091072 203.7756966698
213.4127949577 76.6164611604 268.2294340438
214.3925750281 143.6339440312 227.1392397647
200.3088111282 135.5913209067 197.6141623109
205.3235795604 124.3300560914 219.4487600093
216.7387215759 64.8794941954 263.1993868908
208.2531572528 138.5214977420 232.8293854410
224.7046196208 62.0425267429 247.2337306628
204.5179148324 113.6179653835 225.6896149985
223.3796438528 102.8324353522 220.3364828850
218.5691144395 63.2398119193 256.9105469425
212.8624099204 77.9078089905 267.8770293962
210.2543380419 149.1296722348 215.0593020876
219.9548201203 64.0992445391 256.3015236773
208.7334945352 147.1720167507 233.2896241561
217.0703474663 142.8512780788 237.2303285021
215.0442819945 68.4112109841 268.5779320437
229.3399578785 90.3294071261 224.3754103001
200.9852420742 133.2351687718 234.7935226374
226.6946515366 65.2954019442 229.2596334081
208.6344824995 147.6597440711 210.8942017069
210.8824236990 141.5510901125 209.1550405225
215.2602340633 146.6911810790 216.1444262742
218.2975525203 82.5502574394 267.2054999799
212.8244632769 77.9423569840 276.2430445485
211.5133622185 114.5737109517 223.2396703890
209.5901304987 145.9473589161 212.2013767385
197.6610080711 126.6277909495 222.3103659410
