226.1334507791 82.2181065062 218.2743336707
227.1538258680 88.5830688567 226.8519250047
228.3974911266 87.9451275955 219.7417854350
224.8271306849 73.1813491098 245.7307960487
229.9691082170 80.5855920555 239.2711622941
206.8751438006 121.2619017373 216.5897937320
222.0531558041 101.0744471732 211.2259457536
199.0547299524 115.6279223015 210.9080035945
198.8194110168 128.8465290033 226.4598320731
222.9095252083 82.9516414509 245.5894372196
217.9894160116 108.0945853031 208.8570330618
222.9560489919 77.9153854141 252.4134680934
218.4526269380 60.8289985763 265.5220682814
229.4352579268 95.3417340267 211.5956100706
204.2185243897 125.6616964918 225.4608148310
233.9288763953 91.6872516767 210.5711069292
229.1554281803 87.7079910841 210.6623013590
204.7698381518 138.9327593151 227.6773244211
230.0184276247 84.3871237586 219.5594052545
226.2170348117 77.9973337618 241.5300911818
203.5534295425 124.5303596219 212.0719707722
217.8271119908 57.4852677870 268.1524932399
205.4425955037 122.6471089218 218.7710449616
214.6630272238 60.2665189629 260.7747695126
196.9299853256 114.6563238520 211.2266849413
214.7766796613 50.4866163281 273.3401544450
208.7522625769 110.9735433199 215.8046660099
210.6116213547 53.4636952544 265.7487267455
227.4379615726 82.7210413184 214.1129282304
214.6796487456 53.4232288723 278.0012693873
230.0310019913 82.9128976070 213.8298598488
225.4648910881 71.1273419393 253.5147437481
207.3218982046 113.7164240467 202.2232621716
228.0176284362 94.7376094629 212.2854879466
234.5918091702 87.9157144446 209.2543421979
201.7777844205 161.2790867516 236.6621392959
203.6035411083 116.5568943801 209.1167768067
206.1163390227 144.7834097926 240.1439777505
199.0154585541 111.3308078980 208.8224536772
201.0172706987 115.2819367877 209.7472255865
225.4068353972 97.6351345440 204.7663338829
230.7177398606 92.4207302253 225.7970211415
220.8792628005 71.9769295578 250.4075003020
223.9007284773 110.1863917410 209.6021437745
209.8599379969 149.0275796073 238.7671298102
209.9627484979 136.8665110185 238.4469189912
206.7469807072 124.3023269751 225.6314651508
226.3936932134 76.2678590156 251.9513586533
221.2578761271 68.0125615972 249.6600797073
224.7287913085 82.6091376774 246.9848504171
223.3487157540 81.6580040922 239.9766878711
229.3436159389 92.6862720497 207.9122551677
227.9862907482 90.9569976293 206.9946641139
200.7832503162 159.6558547888 236.8559435715
226.1626985343 75.4699468606 245.5981519520
206.5331700938 119.7899017711 205.2651752215
205.4390523749 128.1345737066 211.1274291481
229.2361812150 70.6007948845 252.5063420267
215.1185447018 123.9464869158 210.6275657647
202.7466331228 116.1387991799 210.6908157594
227.1701808636 72.3762895204 246.4559261796
210.8944996691 138.9416359106 239.7093304736
219.2358433868 103.5227688303 213.1637050747
229.6303365744 82.5805052504 239.9393356313
211.0274261747 169.7853611501 241.8600748110
215.1674257456 120.9068141705 213.2135458209
215.5975373355 57.1697313587 278.2001490897
205.1131416784 125.3305899721 224.4810829400
214.4758588332 115.9908680508 211.9190838011
236.2761163751 88.4988709280 216.2425919051
221.7378299190 103.0185469100 215.1935599049
198.8944707436 133.8724069234 225.8750928407
228.2950700078 72.5846044816 253.9745442916
209.3213724428 136.3319693624 228.5833162006
222.1267653190 64.9336582691 259.4706747231
226.4185536318 78.4075708665 240.9734585946
220.4388147314 101.2466514560 210.0442124733
203.5083362213 146.2159727216 240.8406351251
227.7033975958 85.0199372035 229.9562937134
233.0413353724 87.0988028650 214.8284310779
210.1090624692 140.6582248373 231.4346317914
228.4686744072 100.8669751726 202.1815054711
201.7419409708 127.7373341604 213.8480114372
205.5926728267 140.0233544649 227.7158326309
221.1473892214 64.3672553723 257.5180559470
216.2178693911 117.5850293869 211.3890009722
214.3106523003 136.8771717210 231.5257537488
218.9454620682 101.6336571236 208.3977246063
227.1493885446 79.6059809756 237.9039307331
213.2205177935 56.9345178595 265.5985804273
224.0759631024 74.8523458298 253.7434267211
234.8346253292 90.6161874904 210.6083213602
207.1179368624 140.0819845472 218.4248136614
198.7492504083 114.3138228508 212.6220950615
223.9664820051 78.3793443386 253.2317104356
211.5582969072 122.7693222322 211.6024014083
225.4648910881 71.1273419393 253.5147437481
206.1145466942 106.3998757298 213.0826288918
232.2872712264 95.0023685546 209.1413510488
216.7290088935 68.9730386985 250.3110568921
211.6352802199 128.4068727346 228.9813633694
223.6430123281 67.0733765347 251.6757268643
228.8182547983 73.3493589882 247.4963981605
218.8132381139 74.0588912368 252.7221686446
206.5331700938 119.7899017711 205.2651752215
201.3219297313 147.7143545847 228.7631959073
212.5778238181 124.5198433819 225.6203379343
212.9630028966 110.7683721444 210.7824755269
207.7697610892 120.9307952175 215.6100618410
217.6702057521 59.4188039313 260.5559028509
228.7137883987 84.1629828886 237.9709687671
229.1206395550 98.6221867457 210.5306009773
218.1267192603 67.1308390854 254.0267341176
207.5145265061 134.6252926491 224.9150904832
218.5921002031 72.5211701096 250.1315510171
218.8601228734 55.2425327533 270.0210181418
216.0965848316 66.3443969933 257.2327571930
205.5068367307 116.2357246844 213.3449108099
231.7297165319 82.6802219299 215.1695453404
231.6354347163 82.4738974825 217.4840573313
228.8182547983 73.3493589882 247.4963981605
203.8346435582 133.1976048318 225.4013723833
209.3454153054 123.0189354451 225.3742801963
214.6109708255 106.0003639065 212.2161429792
213.0811183176 169.7581035919 239.7259052673
217.9726663181 48.6802232854 276.0217206664
230.3479330925 87.7199823085 213.9484411577
197.1995425476 132.4496371540 227.4145053229
225.1649129733 72.6750095532 255.0216483346
208.9738143232 142.8354840101 237.0029614240
209.9888986088 166.6272846835 238.8671877605
228.2251850231 88.1983169245 215.2835936541
201.7569596493 148.3243425951 234.1457209925
222.6729485347 111.5712997885 213.6974507008
204.0162041201 163.0112844308 237.9838421243
217.0644123090 107.0499673206 212.9575727883
206.6189147505 116.8212125486 213.9335570709
206.4684377664 165.0636481865 234.0025965157
223.5673499009 66.9078126765 253.5330503839
225.7572235250 88.1541719915 209.9418262798
211.3857218433 136.3055203155 228.8543022103
221.5857407182 104.2765144943 210.1468009771
206.6225801543 138.3582757892 216.8049377905
225.1024517785 80.8505929669 248.0506143083
208.2766808581 112.8669572029 205.2292262907
224.0446815025 68.9205354674 254.8786575032
208.3452293599 135.7232916084 229.5169071842
199.5209469098 112.9933689356 205.4306889800
224.2223659172 110.5439979374 214.3674746155
211.3138235871 120.5931150894 215.4613745706
227.4995943603 88.0443295839 208.0595715266
199.3337818703 152.9236427063 237.3579558349
215.1148599804 51.3854747857 272.2769673391
218.0227926950 61.0028131256 253.4439272239
224.7287913085 82.6091376774 246.9848504171
221.3405568384 107.1437466564 209.3175576134
197.8418600109 132.1543830528 226.0802079981
227.1383352201 81.9326639560 230.0578841572
229.3676718832 96.4533472770 203.0013902069
203.5458252973 160.8339709580 240.2648430163
231.3761315676 82.6658887852 218.6817179337
227.7201172789 100.4192609422 210.3061416379
198.1294413092 159.3783213818 238.5546871589
198.2811335329 115.9444258635 211.3839373292
208.9013604014 105.7892333428 213.3723245692
214.0531935871 111.1202815542 210.4528244106
229.1554281803 87.7079910841 210.6623013590
205.3892808920 161.7313488796 231.6843940555
195.1186134886 158.3828184863 239.3790846380
212.2043317846 110.5637246087 207.6797220141
228.6774974559 81.9709444273 218.4828433559
223.8242673396 99.0388543703 207.3147387141
199.8709024369 150.1390396817 235.6601303771
224.0660539448 67.6190586577 252.7422981019
205.2307647116 142.2146399654 237.8202113637
232.7826086342 88.1527626742 212.3404995580
218.1712580606 70.1096933507 256.9354571173
235.0589409955 94.9362093264 211.9120359841
235.3179756081 92.7668114173 213.2011897996
218.1302649914 54.0214286125 261.6249251484
206.9040669162 123.7372165900 230.4006465798
213.5539551039 69.6660329791 262.7314481971
197.3758858041 159.2590891686 239.3488527487
206.1161003092 111.7609040025 213.9031983070
213.1575386244 167.6346782585 244.9970131605
205.4390523749 128.1345737066 211.1274291481
198.2969120907 153.2359308583 234.6082085313
223.1768002412 78.5142119754 245.6732358014
221.7525426500 110.1519948011 214.1988858632
210.0141050495 118.8335880453 214.1387045253
206.5423088847 139.9247944205 219.1992293404
222.9560489919 77.9153854141 252.4134680934
208.1207820277 132.3863678249 222.4297730455
214.0017007171 138.9621029841 229.2039297304
217.7819613578 49.9699466327 274.7625002362
231.8217263648 92.7176426247 215.8977842313
207.0208144191 149.4383635086 242.6234231065
228.1817727862 83.1833823830 225.1111281886
217.0590011752 57.1757500942 269.2993041013
218.6196912588 55.7053218340 269.6837240803
228.7579050972 81.7229218235 217.4017910474
223.8267483346 99.0215945686 210.0714224298
213.4513795152 62.2767373137 260.1452191008
204.8721673659 161.4266220020 231.8828376402
219.6365226439 100.1605288916 209.2277575253
208.0169496721 114.2289196974 209.9058945160
212.5950549609 53.4541730232 275.3531099423
217.1217203383 107.6722334223 209.0053257573
210.9652426868 52.3698520886 269.7862310175
232.2640461594 86.5570160685 220.2913535033
202.0720068874 151.8250669864 237.8655619051
205.2835571202 117.8128163007 211.3323351036
226.1622331177 84.6018588259 215.9527885679
213.4384688117 168.6335083185 242.9128124734
207.6788422586 165.4079886018 239.7804416948
202.5229645563 147.2647190545 238.9462818083
217.0590011752 57.1757500942 269.2993041013
202.9223640372 146.6227954339 238.2162196012
207.2019134016 148.7572803157 237.2455766151
200.5841080708 152.1470337122 230.2803348542
226.8568100450 76.9839059530 248.6858604582
227.5370806427 73.7968588476 253.2137888640
213.5347593934 166.4718084169 244.4724740689
221.3855896017 103.3729652012 205.7444617918
220.0676446933 53.0597161841 279.8447156961
219.3106673676 61.0578714459 255.0955983615
207.0054180341 113.8301588225 205.5683644124
208.1072465229 123.3270563155 211.2861138724
226.9608209170 76.8096558962 249.8949736925
230.9654706562 76.9791353058 229.8215580109
223.9071141478 69.0441385739 251.0973070911
199.0588610473 134.2549292564 226.0803544781
198.6581660555 129.8606651649 222.6878434685
202.6330502849 162.6659048181 235.6785202489
217.3473895685 56.2419008822 276.9083404032
212.0835204807 122.3229096791 213.7079150930
229.4084338868 88.5162799402 223.0443680425
210.7910459212 161.8351823399 238.7938457534
204.3837529094 149.9577218490 240.3495549304
209.2226948141 164.9190905833 244.3508890361
218.6382433655 60.4294959747 253.9965164183
213.8838920527 69.1809206405 260.5988713456
197.5889231010 156.4625725612 243.8389752233
212.8266473532 116.6167525830 210.7766487478
227.7033975958 85.0199372035 229.9562937134
197.7362773686 151.3846063436 231.0637610584
215.2379301611 116.5490633880 210.9921328089
209.8693573674 137.6288880473 220.8904502732
209.5590141073 51.7456665889 265.9538470709
223.8242673396 99.0388543703 207.3147387141
217.9062321112 119.9259301172 210.7830820180
205.5593817681 125.0173811294 222.7148260850
229.8971507817 81.6898960775 227.4598879695
223.2640236680 67.8587407653 251.3597637640
212.9651082927 126.8893677225 219.6444897218
219.8039697025 58.5472047818 266.4540592756
204.1946826191 140.1188733427 233.2131131257
214.8148001934 64.9481558502 258.4993854065
213.2546057177 69.5232465226 261.7455325459
215.2305807826 62.3887251415 258.5623581435
197.8476738519 148.1837256669 232.1007770136
209.9136529089 107.0333179868 205.7170354141
205.7834577535 117.0214637603 203.5052064159
224.8923413605 81.6890297454 234.1960490602
206.2820438131 159.4059742676 239.9838146864
212.2323625415 54.0200391177 270.3361820208
225.4421812840 96.2449642453 206.5188238200
227.7337917064 83.7641075101 240.1426042010
208.4515453528 114.5149674639 210.0572246196
208.5768164490 119.0447683659 212.7039804557
222.5811097516 74.5169051309 252.5102081119
206.9140314435 143.7097688424 232.4965572268
214.7663845810 52.0698032172 271.2485982507
221.6277210741 66.3766411534 254.9044465978
229.2474561398 80.9083325468 237.8196551766
213.2284526052 169.0370903596 242.9480753720
210.3480663888 105.3570453079 205.7011488544
221.7515512746 110.1461555374 214.1025111107
223.0483724504 76.4981587275 250.6172786706
215.0203015431 63.3066937315 256.2966858315
204.0814732611 141.5974889787 236.2189399803
225.3289704957 80.8885180525 247.7678764737
212.0107348788 105.4192641189 212.5881892879
218.0904603071 53.9089364300 275.4051745323
205.6642692899 164.6314182553 231.6070633210
217.5782289631 67.0883216760 249.7747892115
204.0011302155 116.9092181493 210.2545155813
214.7766796613 50.4866163281 273.3401544450
215.4242846366 59.9349097018 267.1899501599
229.5614900880 84.6425199305 214.5013871186
201.5911018672 158.3881359109 241.3246610715
224.3695253490 75.9553371267 252.7792351300
204.9330559381 126.7682449443 221.7593216924
204.0434811889 130.4695223039 221.3961547696
216.2357078172 54.4580747618 260.3133760570
216.0566376069 104.3926122992 208.7643383561
219.1213441190 55.0295580678 273.2672137662
204.1251943879 162.9384617344 230.8593098996
197.8111392144 157.4358849900 244.7770821271
199.0850247077 115.4862854831 207.2924631437
205.9620958614 104.4288865801 216.4840162187
205.2281675977 120.8375697016 214.2185480711
203.8572905438 128.5915427664 222.8138955869
208.5891467414 138.9675495999 219.0493034228
210.8636030725 141.3529597460 228.2181704850
208.3569727742 135.5368756637 220.6788757684
222.1214619272 79.6923846599 241.9379057706
229.3945589816 90.5576208366 215.2907186018
233.3242919366 94.1952695171 213.9076695925
217.9937021001 55.2283330878 276.8620516379
226.0663108580 78.6002707036 253.2496067241
202.5467543952 110.9082469691 211.9183383953
230.7878609620 97.9568222755 205.9431495418
203.5680585676 147.4334784521 239.1227109985
207.8408384961 138.7304192230 233.7792036402
218.8601228734 55.2425327533 270.0210181418
212.9538650558 107.1826190017 213.7285127410
205.8721636030 131.4147005739 222.6863160612
217.7377059698 51.1185208731 279.2590487325
202.5507924214 156.1460551166 240.8041565188
215.5311709359 51.2586896123 278.3286321360
221.5428500284 81.7944896888 240.8498866374
228.0520719523 89.9953870810 214.5802619674
221.1682140947 56.3916946399 263.8631925096
226.8251035975 89.1854114755 237.1084593344
226.9063213383 84.4424835837 223.7602960742
205.8732111090 127.7747488833 218.2666068610
219.5377134873 50.0868823056 278.1042311717
208.5237936949 137.9127810661 232.5986747252
215.7119178460 65.1494425616 264.7791995142
203.0467772125 146.6562458380 234.2059079955
209.0892838379 112.0772878261 203.2140144366
210.3685517016 116.9006020735 214.0561694729
196.7866288208 155.3764466623 243.0225126765
228.6774974559 81.9709444273 218.4828433559
215.6343673453 61.3497595196 257.9513285821
203.4781015472 138.6710617215 224.6654145890
225.6737104346 88.9589061643 236.5654675389
205.8853893604 142.5827873868 232.5838210570
226.2407436751 83.3662293629 241.8266844429
226.9311711790 70.7381872430 252.5865580195
205.8697724029 105.8461132669 218.2802056417
207.2214497114 144.4920333193 237.3099409328
206.8112246108 159.0143160102 235.6922265190
208.1956665887 138.0192090250 232.4267455120
204.8019012111 135.5316687915 229.5232137426
222.2585158059 97.7260362649 205.5053651119
209.3454153054 123.0189354451 225.3742801963
201.3841124300 133.2874273139 221.1116189554
221.7202786966 52.8668109428 274.7824516039
210.7656170347 114.2762836872 204.0066530654
201.6129587256 161.9071180623 238.8770058345
211.9052176698 64.4208467311 262.4082290726
203.3389221069 110.7026986235 208.3467646668
215.3333025117 57.5381065394 273.4326579659
230.5233498463 97.0789065862 207.1026750081
210.6856530048 139.2950995095 235.0388050083
227.5434650749 76.3763489211 249.6898753896
202.9979154809 114.9136408282 207.6415523361
213.9284283095 54.5037310218 273.6018120465
225.2429546554 88.8303887877 235.8032224587
205.3401277583 126.8718360163 230.2905336572
226.3599482713 91.3144998357 213.8350187369
227.4992505759 87.0134741810 215.4250585386
224.6390178238 83.7038124579 241.7914560089
218.3299514256 60.7974714296 262.7637759536
220.7121030090 62.2329261426 256.7150893668
211.9622922423 117.2080330734 209.3751078255
215.5097002677 61.5846285518 265.5723732540
204.7134585617 162.1395850193 240.2040292777
225.8154249373 89.1088516382 214.5847775495
232.9897175001 87.6627650953 211.5264589444
206.9362484639 125.5441420172 212.1553772246
201.7855490739 151.7355940437 229.9551652722
208.3291151714 167.1905124469 244.0073458914
205.3754646791 140.5760243309 229.1525589217
226.0992708540 77.1679439822 252.2396818120
205.8721636030 131.4147005739 222.6863160612
220.5744004841 55.1166581665 262.1105526457
222.8294256212 84.4805860483 245.2064338296
215.5220277241 53.6831785117 265.8377159751
231.1592540551 97.3004874544 209.5459496054
198.8277836473 147.7808669264 235.0671373285
214.9836923470 109.1361542589 208.4382602604
214.2570893821 58.4773998118 263.6967979910
207.5994952387 165.0696900759 240.9531440666
218.7749232554 61.6222249286 253.1902922250
216.5872405573 55.0845054536 258.7534638963
210.3200642360 141.7142540845 237.5551656427
220.2662049858 50.9783119063 276.5894509224
208.8059749934 121.4137371272 210.7631932662
204.7994420589 127.4796287651 223.7568241725
205.4396452041 117.5355502282 208.3020259738
207.7731622690 104.0852072702 216.6230327231
227.5913037286 101.8865505126 208.8384156844
217.6158725800 122.6959758809 210.8454428081
214.0498886260 54.2220584522 266.0421176066
209.6228450590 128.5782859838 228.7183217146
216.1189286643 117.3685176390 213.8178071918
204.1054518045 110.2050493188 207.1429097702
208.2490993033 165.9377752963 240.5629168319
207.5275441334 111.5024978040 213.2056689394
195.1186134886 158.3828184863 239.3790846380
231.8288154137 84.2789601543 230.6734041828
205.7682844027 127.2233261965 215.9150512572
220.7908467468 73.9219636998 252.0300340638
210.0149520163 50.9896441608 266.0027120933
229.2812624944 78.5411312815 228.8774338643
218.9454620682 101.6336571236 208.3977246063
204.3837529094 149.9577218490 240.3495549304
228.2399302512 84.2708478055 221.4942860453
199.2624302874 156.0723084034 235.4669745398
224.4709460483 84.8369212531 245.5530879929
219.9646719935 100.9336850725 211.6837669164
226.9816757052 91.1854363138 226.8199942664
200.1065507712 148.8043873708 235.9318802818
208.1774323090 164.9226688865 242.7732147111
212.0835204807 122.3229096791 213.7079150930
230.0310019913 82.9128976070 213.8298598488
205.2837564369 149.2806456587 233.3752196225
205.9601524673 134.2338051724 220.8315649329
209.9766146582 109.8557729088 209.1603764938
207.1616423673 148.6542372391 242.6870222044
211.2085122069 127.1990471994 220.6834565392
224.3215462915 98.1076332162 208.3028349334
227.6794612932 87.2469385250 227.0540089753
220.6612107927 65.5662642877 253.7875580216
208.7522625769 110.9735433199 215.8046660099
207.1185003300 162.9001022863 231.2522323665
219.6758943163 52.6700999683 280.9279237829
223.2769392214 79.3146181225 245.4759971795
205.7834577535 117.0214637603 203.5052064159
209.9717674748 164.2097078775 243.4879623357
196.9464601460 150.2859991861 233.0639563205
208.8987133951 159.6348395539 232.7342901999
219.8200160934 70.8275815010 254.6976129746
218.8000151494 60.8452898484 262.6213298178
208.4402056635 107.2506126510 209.9938817057
226.3556784768 80.7275652972 232.7459815754
209.3624629408 135.0257823499 224.6822096258
229.8260291968 78.4300241082 249.2235261133
200.3970623716 132.2202243265 229.7442170002
210.6856530048 139.2950995095 235.0388050083
227.0184038730 83.7995924855 220.9881538953
205.8721636030 131.4147005739 222.6863160612
199.4204235781 128.7114754523 224.1854754402
210.6235481275 53.5600799477 268.8824673902
216.3429032280 108.0709757516 212.9628500856
230.6000800438 72.4472121232 253.8943282987
205.0474805068 159.8315973155 234.3565126722
230.2237410493 73.6912803036 249.6095572916
227.2778286186 93.9348690645 205.2641807606
208.8295644504 150.8775498296 241.1450912970
223.0127237387 101.4558010070 204.0822395178
229.1832436987 83.2962682621 237.4133545912
233.0187441697 88.3952483456 212.2228998151
205.5926728267 140.0233544649 227.7158326309
204.2144393524 122.4936428086 212.4997499934
209.9905016172 118.3438970909 206.6077232997
218.4585018338 70.4800794321 254.6631763217
209.0822599051 141.7474630870 233.1647125243
208.8261321308 136.0528481147 230.8362563918
201.6324569871 115.0811286775 210.0225701070
208.4956343574 164.8615247147 243.2192198183
221.2578761271 68.0125615972 249.6600797073
228.3035281642 101.9367013194 204.7617644807
226.2618279788 87.8605585626 218.2647012252
206.7618133465 114.2309703834 203.7178919460
216.3221075754 107.9248571112 208.8507056462
213.2797285011 136.1987518161 231.1188004219
229.4732077676 70.0277231381 250.1473398072
206.4133929504 123.8561221111 228.6359528255
217.3279279152 53.5069956540 260.5962254725
206.4739243117 122.6652439478 222.5888789295
220.3251242821 98.8594977178 205.9080196209
223.7074219156 71.9406912350 250.7787503774
212.5017594086 126.5525179630 231.0197413134
203.3680449769 144.2910483725 235.8727009428
202.3525619352 134.5769154926 222.0714092174
221.0876241368 67.0433495638 250.2354555704
209.2226948141 164.9190905833 244.3508890361
204.9424063515 149.1446776151 233.2204678748
204.7152169284 143.7369819077 237.7847309501
215.6354172517 119.4883176278 213.2468737184
207.8979271905 159.4508934438 236.6931103929
227.9183413481 78.0863037115 230.8090413963
228.0618058150 99.2290365667 211.2099018240
211.8590466619 52.0372960820 269.8366353672
218.7021222464 56.6963783660 267.4938666593
198.4460695810 133.1843855620 226.0216821168
222.0531558041 101.0744471732 211.2259457536
207.7775355626 107.7342364193 218.7529367762
202.8128806417 145.2714491711 234.8208203622
204.5220629017 126.4866468718 218.1093544731
202.7187060541 158.4391542760 235.8496664586
223.8752303927 85.3796013542 239.3026222669
206.8707998609 139.7259652886 222.0486706864
221.3473221326 84.9268570978 237.4475745672
212.7307679839 103.1586768915 207.5749820187
202.1942246917 130.6262307160 227.3721322452
207.6682954478 145.3681960528 232.4620857589
228.9902692523 92.3439911753 227.6523047616
215.0054309727 65.8658889910 265.2955618826
223.9278147652 69.7378048184 250.8563946267
209.6876732125 126.6108563752 217.9672895409
201.1482294848 155.1241391720 241.5625162910
211.3641845892 138.0415714472 240.0664150114
216.6535860940 72.2041641383 249.2332150569
229.4181512028 88.6053509348 208.5590880646
204.4479351159 139.2570054837 232.3775754608
220.2823467666 85.1995987929 241.7110758286
202.2964815931 123.5421785672 212.9992940527
209.2357073983 121.3021894001 216.6401732485
232.2937351578 90.5609374520 227.3744782715
235.0136456945 90.5846583356 215.9815482781
210.4550700348 112.6719981214 210.7184470022
213.6967693808 50.6479625079 275.1756002884
211.9062814839 111.2734173847 213.2666155589
228.9910600359 96.8890275691 210.4207199601
232.2517839074 83.0582660188 232.6513730275
210.3808375098 164.6920400032 243.8127486485
225.9635863060 70.4860675373 251.9787706809
218.1386877748 71.9829728428 254.4248683600
226.7752149955 86.7236435197 216.8588192047
211.4432595962 161.1478328269 240.0229826531
210.9179218355 109.2524239564 214.1180419511
207.8352416927 142.9855902673 232.4760769739
204.6241284485 140.6457823681 218.4547559798
210.1894438112 123.3071970985 213.6139373618
236.0201102848 85.0777410569 211.2727083005
214.1981914736 115.9179686103 212.5323996036
217.5185023884 51.4239792474 272.1049446103
224.3349955398 72.6829467967 255.0325820165
226.0682988908 81.7413444209 244.4259306253
217.4735872911 109.3406242934 210.8564737630
230.2178484838 96.7239015025 206.1769938623
214.6796487456 53.4232288723 278.0012693873
216.6774975654 68.1623333122 255.5287623532
210.9838087091 125.0453172835 226.3280824096
206.9339060181 128.4700112585 212.3606513280
205.7476958313 129.1674521928 228.5304656475
225.4371228629 84.4655503867 234.8156323503
228.3725525098 85.6659038078 232.8455927811
230.1047460627 79.2204617165 233.0529201019
222.5531100486 82.4886499712 240.7873427323
211.2824029483 121.1174469775 222.7015611413
207.8766479852 104.8514900493 213.6841395483
207.1424288010 113.5279312297 202.3574485451
222.3309401375 74.7555150706 249.5090797240
228.1094279864 101.8683548631 203.1944883527
212.1438234926 56.1605226522 265.3591304762
214.3570643142 58.2651509852 273.9805636497
204.5418148300 151.5036314013 234.0105740633
202.4300434899 153.0920002868 232.0255567972
206.2183332963 117.8779023874 209.8843028351
205.9955692099 163.3618720985 240.3532469656
229.8812913163 94.2526604825 212.6537012300
228.6123004153 101.9374403461 206.1784672962
217.0644123090 107.0499673206 212.9575727883
215.0366796862 118.5678823022 213.9513068748
231.0776420882 85.0753309488 220.6813533096
203.6767795386 137.8037263096 226.8060776007
219.9568156118 83.4327850333 244.2313000699
216.7975197968 54.1665368636 261.0191362082
213.5013734342 119.4478184540 214.9362999991
209.6239404177 106.3549028679 213.5432962374
209.7755757992 122.7599871237 212.2227193090
221.1604100133 109.5549469115 215.2204119910
228.4387719363 81.2424948722 242.1591392023
210.1629449387 51.2837331950 268.9697723816
203.8000622472 139.2428324548 230.1489242522
227.3507669661 81.2225141120 233.6080617458
211.0536925792 66.5853844924 262.0808682972
211.8719273741 161.8524638489 241.6911579659
227.5827313629 81.6817157590 216.6871658813
215.4242846366 59.9349097018 267.1899501599
209.7141397205 117.1718640395 204.2661649161
216.0219113435 61.7056343188 265.4626712553
206.9148296062 140.2947187933 228.2606869775
229.3264493429 69.8679191841 248.6696937845
229.9225274101 95.9315642610 207.3725805545
238.4875062640 88.9757886110 211.8767847436
205.9601524673 134.2338051724 220.8315649329
220.2662049858 50.9783119063 276.5894509224
207.5569266139 114.8460732342 211.0369574973
211.7368832589 68.2363527409 261.9727511826
210.5616769055 164.2286376478 237.4041635544
230.0128225102 100.1403660559 206.4029267589
223.9947622986 81.4394938466 238.0538329939
208.0240337314 163.8043930022 232.7845075641
202.4062126657 134.0811290086 221.7861773238
207.1616423673 148.6542372391 242.6870222044
219.6767225894 83.5563459905 240.2358503713
202.1946775400 159.5458746785 240.1075956434
212.5950549609 53.4541730232 275.3531099423
214.4684116512 64.3261064801 258.2693333138
206.0769416900 112.3338869830 214.1363170976
227.7836107280 80.7582471325 243.3254638090
216.1055547805 67.4644922124 264.9123123084
215.8280643068 61.6033770772 253.3484289835
202.9992715709 129.3781741057 226.2018898994
231.1308666978 85.0998950527 219.4466435840
204.2504717753 109.5719581409 208.7054371417
220.8547316200 110.7431794326 213.2571828832
232.2640461594 86.5570160685 220.2913535033
228.5767529893 85.2210258543 236.8500271665
203.2800948735 161.4707335361 233.3657604071
214.9614813055 56.0771038839 261.8580966860
226.9229551345 95.2715445330 211.5948560823
227.9826745996 80.5465056518 247.1600191351
225.9441577265 81.9669922267 249.9744928968
212.8529083519 53.4844532050 275.6915270935
229.9746952013 81.4908337137 217.0622274217
228.9941680028 84.8797693322 236.4723675491
200.8346560905 110.6014316468 209.9328678450
208.9279462073 122.4438753713 220.9251224939
206.0769416900 112.3338869830 214.1363170976
213.3509073118 123.5498331532 209.1692992638
207.1424288010 113.5279312297 202.3574485451
207.7446145689 119.5763308547 204.5486451815
216.8237404752 110.7699731661 209.8896031781
212.7236487640 161.8500564142 240.6316672479
205.0885723220 124.9005898093 227.3541054519
215.2240750015 67.1824310889 265.3989836363
205.6965180499 135.2005565399 228.5434768366
206.8093708944 137.8528752434 239.5923755595
216.4172977838 56.7432223594 264.0854420495
227.2067757476 101.9512825025 211.5221122710
207.4786656236 122.9802661185 222.5122902832
214.0415319093 65.4907070305 258.7123749281
205.4957762419 140.1176061424 227.5358661489
204.7996496678 117.1637135499 212.5381469506
211.1267801666 170.2404427236 244.6715509653
216.9980817290 60.0650705815 253.7557412164
221.3531401088 108.4722283594 209.2986346550
216.6774975654 68.1623333122 255.5287623532
212.0877803681 137.1566668359 231.8195528649
224.2273737769 80.7021853516 237.6494949762
208.6667364486 109.8058391717 217.3219242011
224.1292564245 86.0271450666 244.6493285468
198.6630353101 156.3437036152 236.1197067356
207.6243886603 118.4031359611 211.3162614524
207.1023264476 140.6571053013 228.2964111922
198.6767684389 153.7476871011 238.2026614517
229.3210891029 79.3352081294 247.5724650141
215.8592764942 123.0056553578 211.8844096256
208.2037871964 125.4967412366 231.7233192089
202.5675564903 149.2984057258 231.1340735148
228.2950700078 72.5846044816 253.9745442916
219.7659913595 101.8010114180 209.5430912908
230.9017352373 87.7112124318 213.9054319691
204.2318550761 140.2003120168 230.0494089278
218.6695004497 68.2322060134 253.8188327751
215.8357234257 51.5341409921 266.5619736388
224.9952942752 110.2591493365 212.6216434552
204.7680195523 127.5064420407 211.4872169122
205.6686924353 128.0655808906 223.5007926677
232.2532610900 86.4577587064 214.6630625749
231.4725489909 72.2796475219 253.1921209777
208.4226902930 118.3402441917 212.4118711460
207.0844964835 115.3315142220 212.3327460014
224.0449970967 75.5863210556 245.3852710144
223.2111983668 72.2169531507 248.5498944260
202.6696750616 161.0878263740 239.1119170664
230.9864826923 71.3870617370 248.1645553957
221.8418441407 76.7273195064 248.7353863972
224.6445990700 104.2699668243 211.2621013344
217.6862901075 60.9911928174 262.3217347567
217.7816001099 69.7788556191 249.7026867394
203.1787941989 159.3143839307 240.4585171332
222.5972482871 65.3646822176 257.7388310766
205.8973147733 140.1247718103 223.7966547271
228.5283032908 88.4019635260 213.1475625247
223.2930701395 82.6427425793 236.3821967924
208.7847361596 144.4189871029 236.0619722912
205.5346753466 106.6507815451 214.1343061910
200.3072555549 154.8936790004 241.8435679872
223.6296469329 81.1211457139 245.8663005390
209.4831941916 167.9520101338 240.3224350833
227.7803790620 100.3030492552 209.7794029732
209.0892838379 112.0772878261 203.2140144366
205.3134997465 141.9657262776 229.8386276709
207.9620086709 134.8841065549 218.2638092279
205.3401277583 126.8718360163 230.2905336572
202.0162996887 147.3740313555 234.8222014650
213.3509073118 123.5498331532 209.1692992638
222.4280030644 74.2077793130 248.2487867505
226.5363459577 93.7971208876 211.3793325077
228.2200748704 92.8022114156 213.4905683457
212.6534034310 57.9820489525 267.6256493148
230.4962237496 88.7440381644 209.0173574744
204.6105731713 124.2756330012 220.5442630584
208.3592218942 115.9321941506 211.8534140425
216.5707990431 68.0541147364 257.7924958409
203.8231246682 117.7285675736 207.0662898618
210.3183469510 55.1309090820 268.3315092316
205.0904444370 142.3797050345 232.7759087991
220.3251242821 98.8594977178 205.9080196209
229.3130791084 89.5634701233 216.3080521626
204.4926749004 126.1461383356 223.7299630410
208.8011341437 106.1361501178 206.2757630488
229.6303365744 82.5805052504 239.9393356313
214.7663845810 52.0698032172 271.2485982507
200.5802384984 159.9086928467 238.7646120506
201.3775294662 148.4374746935 235.2550450499
212.9424362977 122.6365895303 222.1964227525
227.5827313629 81.6817157590 216.6871658813
226.5494003279 94.6428900416 208.3196328192
227.2151673049 101.5031465980 211.1159090633
221.6277210741 66.3766411534 254.9044465978
231.8550766738 87.4692088845 220.8572548437
217.7325941209 63.6756600244 263.2853698306
200.2604548431 151.3820640831 227.6816211075
221.3472748334 110.5577700040 209.6760575377
229.1554281803 87.7079910841 210.6623013590
203.6288182198 136.7629535732 224.8684537434
214.4644885598 59.0612180773 269.0697094979
221.2264775845 65.1623564404 256.9247146333
207.9619330483 139.9708072035 222.9488279108
216.7258881839 59.8506030409 255.3470260892
208.3533474999 123.2008258428 228.8134787905
228.4905673699 84.4390692346 213.9078088917
199.4609644910 156.7116110492 243.9431629904
198.3060956421 132.9314390955 225.9125986350
204.2989010035 137.7652352627 229.6631557104
224.9894359898 69.6243981954 250.6543534852
202.0650650975 154.3239024287 234.0976091850
206.4133929504 123.8561221111 228.6359528255
221.6281222042 78.1653935560 251.3949286815
205.3266994979 158.2391915628 238.0592621990
217.1643885205 66.8576423914 264.2330114617
235.0136456945 90.5846583356 215.9815482781
206.2799759209 110.6626971346 216.9826856359
223.6296469329 81.1211457139 245.8663005390
213.5347593934 166.4718084169 244.4724740689
222.3050906147 108.2179894533 215.5666052282
203.6624260035 159.9794514165 235.6657714531
208.6546635913 129.6592050365 220.7040061646
206.5421582847 164.1785449546 236.4072398714
227.6578553213 83.0692378852 224.8024157330
207.3430995844 124.8544656443 226.4968240922
198.2811335329 115.9444258635 211.3839373292
200.6154554829 112.5213241357 205.4932166303
215.6268691628 107.3367938474 207.7721056682
219.7753097199 52.0942598509 280.7510925383
224.9549686724 80.8255568613 245.3145207925
218.2714077911 108.7530058742 213.4326865695
234.6070869061 88.4116209704 216.6378046801
227.4773059576 83.3235213205 241.8010621877
204.7647952510 139.8605207459 236.4816481369
200.9253109637 157.5546562575 234.9129752843
228.3584034902 78.1119970311 231.4567457997
225.6890879356 99.0239541751 213.1940733078
226.3328403895 85.2733810477 227.8483567554
202.2455042111 135.3085641520 225.2078164405
214.2489802903 137.5059659443 228.7162158011
216.6681425028 67.2707379236 260.6714379793
205.3134997465 141.9657262776 229.8386276709
227.1580703168 84.5632043229 214.2143749647
213.6290441267 166.6781365734 242.1579691835
230.9244162747 84.8380514654 222.7310443754
204.0684871294 138.6946914817 223.2506202181
222.7673735330 84.2903649439 235.5785403709
210.2736385120 167.9441593985 239.4617883869
221.8737983724 73.6001644803 250.2137041186
205.8657631834 125.5357056846 230.4926176278
204.1946826191 140.1188733427 233.2131131257
203.6928889645 126.9978268235 225.2587308604
217.6422284969 65.0094911940 252.5801724942
225.3299130113 72.7249501836 255.2272346850
216.3547291500 121.2798327766 213.1948699599
200.6850933192 112.8973490634 212.8427061729
220.1818196406 50.7936321751 278.6610801727
200.8935839103 150.9699195348 237.1781810620
214.6471560865 67.1339598330 260.1876003855
211.9499212104 113.0074376962 211.9516670914
228.9910600359 96.8890275691 210.4207199601
211.5386439139 164.3784189048 244.0825505931
226.1186095131 81.3022891633 247.6302898145
212.6312400126 141.7496077766 229.6764319709
221.2697137687 104.6491502975 213.9554016792
206.2426230593 118.3247009130 209.9635554979
208.6357944126 166.6346374972 240.3207854799
209.6876732125 126.6108563752 217.9672895409
208.6477326400 124.7406959859 224.8533744709
217.7325941209 63.6756600244 263.2853698306
203.4869307225 155.4390362604 239.0332914018
206.5465697950 127.9625593795 220.6748286339
205.5679513126 149.0653838733 238.1749310756
228.2999942854 88.8079575629 207.7189239854
209.3334293240 140.6473342641 239.7409544136
207.0552446212 159.4176092180 235.7004635756
226.8568100450 76.9839059530 248.6858604582
222.8120171010 100.2455455965 208.9472926745
224.2084240646 70.0738424229 252.0627766757
209.2786632762 168.7313182031 243.0708080438
228.9902692523 92.3439911753 227.6523047616
229.0676848699 97.6555518952 211.1040902188
205.1282364108 165.1095910238 234.3593789516
209.1694724696 163.1235816038 242.6715002822
212.4379902048 52.9015628757 265.5123300412
206.5115337156 132.1120991650 224.5185111784
234.4680025285 86.1502834916 210.0187449605
206.5465697950 127.9625593795 220.6748286339
219.1545227992 82.3466620941 243.4148456152
206.9335468069 119.6862318711 208.2686798946
213.1560039556 124.2924724296 211.7883437728
208.8306036889 135.2298774781 220.5202344240
225.0685043189 89.4950926005 238.1474245545
215.6036291737 55.0549115784 275.9569534830
229.0738127224 80.7913435210 248.0601805406
206.3741642992 134.3400554314 225.5320714801
201.4890798669 124.5568140260 211.8009902709
215.2229031646 116.8557115290 212.2205851178
206.1161003092 111.7609040025 213.9031983070
208.8059749934 121.4137371272 210.7631932662
225.7569804196 94.4977471361 206.9297283110
232.6724822955 87.3090758354 210.5458909120
216.7822496283 64.0250533267 264.5020658474
232.2668545107 87.2925337071 216.6234835747
222.5416056101 101.0676934117 209.1473019578
232.6743521603 83.6823524554 217.2619638158
215.2379301611 116.5490633880 210.9921328089
229.4860862171 78.0894321975 240.2062400441
218.7164838157 52.7011071251 281.4303955929
226.9363433158 77.4328281396 240.0183394282
209.2976794257 149.2469403355 242.3832450010
222.5269862416 67.1200003519 255.4753913144
200.8463791376 152.2786828081 239.2077949071
229.2812624944 78.5411312815 228.8774338643
209.3957824830 105.9289784842 205.8795560213
214.5323717463 62.4648564238 258.9965036748
212.3425074362 69.8796055435 263.4479766399
201.4043741559 149.4250411503 239.1910962487
224.0244718001 71.9641247490 248.7625316441
208.5100153533 160.3741617662 235.1429591780
211.7787878343 140.0445403965 236.3509166584
210.4892445136 150.5849564455 240.1634464449
212.1816892069 103.6975716879 206.2661956064
227.0055788471 83.2934249618 231.4506566327
208.1065686398 137.3727645300 238.1717596254
205.8721636030 131.4147005739 222.6863160612
216.4302369259 105.6578601331 213.6115561767
213.6863085433 61.2511328345 262.6765100502
229.6255445527 79.5536743674 233.2107445240
222.3499719066 66.8208176093 258.2265466032
196.8914860010 149.4535179815 233.2460297555
217.8900350395 120.3998964374 212.2098770824
223.6233287054 77.1742642956 243.5859236589
213.4959946495 117.3780128005 209.7947531717
215.2229031646 116.8557115290 212.2205851178
204.4235777622 128.0572286040 227.0003249241
215.4407319145 50.2951700941 277.5233178356
225.7096660998 82.9268695806 240.3427935962
211.2222361386 140.1674292290 232.3013020058
232.5803305725 85.0848507843 223.9433918089
218.4234453247 56.5894015274 265.7851261062
231.6011641511 71.4154193418 247.5217230203
234.4680025285 86.1502834916 210.0187449605
199.3687951985 160.1222698697 239.4811466123
205.4957762419 140.1176061424 227.5358661489
209.0728535922 126.3855158650 232.0038832716
229.3417379555 81.1146569943 235.5051431856
206.9140314435 143.7097688424 232.4965572268
223.5812435946 100.1034960887 209.7300969450
213.2191752613 102.5503958490 208.6435519370
229.1627483224 82.2685076112 238.3416209339
205.8558293231 127.1108587844 215.6876556349
211.8359613001 115.8588702475 210.2998915604
213.1472598426 68.8184941707 264.4821044111
208.2092126217 138.5146701637 222.4611139815
206.4766586112 148.8374173821 238.1713921404
219.4166847414 103.4590833147 210.9218497450
201.2494136936 159.5783604738 240.4209006387
229.2414458335 83.4236346899 235.9846510359
207.8324977515 162.6691125000 232.2752186185
228.6253357071 78.8765335808 240.6285740909
216.5064705269 55.2693757468 275.2702674606
212.1572915778 126.7637579291 223.0038855868
223.6780396410 109.7894939725 215.6757783952
204.0893655643 135.2385825237 219.6273555921
203.9727055793 143.2957952963 232.4622987277
227.9950670688 69.9573987867 248.3281614322
217.1068786695 53.5553778199 272.1855006817
205.5197679070 115.3332226079 212.8150051022
203.1370896188 155.1046881096 238.1065493063
203.5192416517 153.1603297328 235.8797175700
214.7364046052 49.6837703547 275.7583896144
205.2380894291 105.0694243992 214.7275688560
199.4126387161 155.2247912521 242.8233048932
219.9781322108 54.9367274755 259.7910542186
227.3916359458 81.7172309825 243.7298791568
205.6423883008 117.3860658228 208.4617009686
205.6928847137 149.6883679413 241.6048765890
228.9358730321 81.3633323060 234.2745632408
209.9190990336 124.5136439482 230.6228523927
202.9649973696 149.0920008386 230.6619116992
217.6422284969 65.0094911940 252.5801724942
198.5133795132 132.9763467374 225.8736969711
206.1474975549 118.5533617709 208.5088807372
211.2222361386 140.1674292290 232.3013020058
230.9701787217 98.8839887118 208.6049623167
228.9902692523 92.3439911753 227.6523047616
215.8294558318 56.7223619160 262.8847269945
205.1750387736 139.1764926740 221.7487145168
225.3473087870 90.7394550258 213.3466193239
208.8977654215 166.3824427686 237.9670305360
221.8737983724 73.6001644803 250.2137041186
212.4177029070 166.5958868074 239.1415622180
222.7673735330 84.2903649439 235.5785403709
232.4852771894 85.2658539001 216.3209762804
219.1723303944 109.1060446570 208.6493993915
204.1763312818 132.0073745370 226.3051278010
206.1163390227 144.7834097926 240.1439777505
215.4541512626 51.4504329022 271.8339650956
228.0239286339 70.5641146346 251.7345066100
204.6923319213 160.8656390649 233.6948465460
227.7332236289 73.9614619470 248.4258159135
226.3556784768 80.7275652972 232.7459815754
207.7912130521 165.9006412016 239.4689367307
205.1742721505 119.0166692104 207.2235427430
227.4379615726 82.7210413184 214.1129282304
202.5705384311 112.7130879642 213.7032049666
211.6352802199 128.4068727346 228.9813633694
205.1504265615 135.6007054437 229.9905305797
213.9355627699 51.0054635972 274.1406872038
234.5998502530 81.4028994067 231.7282073535
226.2376050751 84.7364727139 225.5800657440
209.4067597710 107.7794036697 207.7509875193
231.7893812217 79.9816938347 233.6163288803
207.6603361064 113.2554897309 207.0037651519
232.2937351578 90.5609374520 227.3744782715
223.1081539725 99.7391139032 204.0352730642
227.6235889962 70.4855676485 247.5554837174
204.3114171290 114.6173999013 212.1283841958
207.0622370133 139.7675665138 218.1106603496
231.8550766738 87.4692088845 220.8572548437
203.2726387888 161.6145246783 237.8953609824
220.0782672484 63.9352358449 259.3248303454
203.8929194335 163.3056404789 237.4905030922
211.9219775159 103.0305065625 210.0641678710
208.5864859631 139.3175514649 232.6395866997
215.3310932752 104.1698685442 212.4930058053
202.8357041269 134.6154839163 222.3268871809
219.2445495439 102.7641804348 211.4069040904
204.6923319213 160.8656390649 233.6948465460
205.2277926613 107.0776323614 218.5650361604
224.2084240646 70.0738424229 252.0627766757
205.7772616704 137.7831525571 238.6976155736
222.1781479905 74.1315398268 249.7734885347
204.4752508025 135.6039148965 218.3223034160
203.0478136051 144.2458456288 237.3521214944
226.7568304495 81.0296443187 214.7301563146
225.7164007329 76.1330561310 252.9219908619
223.9386369181 105.5563778312 208.9593546909
205.5423287070 138.8087560993 236.1663144413
206.1474975549 118.5533617709 208.5088807372
230.0059294310 81.6978669161 228.8436959243
214.3204138618 106.5658886178 212.7694214377
223.6384575160 88.1317728708 237.9809902664
199.6006129384 158.7518416883 235.8967968703
228.0479409428 99.2044970857 212.7024131619
207.0552446212 159.4176092180 235.7004635756
228.2251850231 88.1983169245 215.2835936541
213.1326844696 62.1123545124 262.0923609866
210.0463112709 167.1232789439 239.4702011688
216.0965848316 66.3443969933 257.2327571930
205.7564001367 140.8785096337 238.0222953343
218.6765726935 49.6388469308 273.7827610868
205.2588988597 144.9256340437 241.0036911873
222.7565127322 99.1760699722 208.1911432040
214.1611998471 60.0637877565 265.6166873176
208.2766808581 112.8669572029 205.2292262907
208.9124189041 139.7736423879 240.2950690849
205.4394499167 122.4330653945 220.7040145356
220.0040688537 56.8819242074 260.9062558356
231.5704061485 96.0292278514 211.3852956878
237.6801436341 86.5968836099 210.7675699118
214.7674656315 66.6755493993 258.5709105372
206.9997904518 133.2696078495 221.4143599201
225.0947846685 81.3354717667 250.7788938537
220.4379451222 64.5290013531 255.3506595204
209.4378524935 146.0653289595 235.4147909777
208.9324362252 119.9172421902 207.3801486632
205.0435022497 125.5234798778 216.2455395830
216.6809858578 54.5578201091 263.2120919511
217.1217203383 107.6722334223 209.0053257573
204.5040644722 149.4993036605 238.7328621577
214.5477832063 67.0214205362 264.7065630104
227.1529405699 92.6581868561 209.1754033204
233.5087135803 81.1580622868 230.8280449613
208.2316057910 137.6455704830 226.0234847820
222.6729459475 73.2175784743 248.0049010383
212.0092136242 65.9002174045 262.6422488370
213.9317206862 118.4725064184 214.8041942706
217.9317198764 109.8509090572 212.5749331064
209.0751514038 136.4800097681 226.5436723859
231.3930106874 88.2701142576 213.6409004125
206.7994378082 150.1701698829 240.1029699010
208.5431239430 121.9328132553 224.5578247549
209.2226948141 164.9190905833 244.3508890361
197.3156899263 159.1617170123 243.4666339133
215.9111303676 66.1680024047 254.8799707309
214.7960940019 52.4983361428 265.9791803662
198.6630353101 156.3437036152 236.1197067356
218.8087974033 51.2838885297 279.6341978077
219.3667781791 72.1307255273 254.1862622687
202.5507924214 156.1460551166 240.8041565188
209.9970659120 141.5816687538 227.3435280362
209.9772385154 126.0715455910 231.6411095980
208.5774038540 128.1113421553 230.6934300429
205.4219789389 149.2822130554 234.6133737081
200.3057660827 148.5694829248 228.1842776411
222.8095907170 109.9415540591 208.7019821224
207.8352416927 142.9855902673 232.4760769739
217.5782289631 67.0883216760 249.7747892115
198.3590870677 114.3014443878 207.4339264308
222.5894002619 70.9491023409 250.4439487476
225.2345931224 83.7066929080 234.7667616054
218.0947175420 53.6864261501 259.5985202742
203.5458252973 160.8339709580 240.2648430163
216.9540352037 61.9914919504 253.0523922716
213.5312023352 53.0329337395 266.0646077823
210.7482798513 148.4155589113 241.4525997671
230.4312679646 82.6826876023 214.5058557124
202.0162996887 147.3740313555 234.8222014650
226.8437498078 104.6436929377 208.5534200545
201.9520576654 128.1506971731 225.0246395443
200.0242342070 159.3832702234 241.4749176416
216.8190698055 54.4578168435 280.4295132764
217.0644123090 107.0499673206 212.9575727883
200.0242342070 159.3832702234 241.4749176416
217.7010100352 107.4456345844 208.2980317349
202.9947655791 112.3592612050 206.6302846890
210.7764346504 142.5873711420 229.0922101617
212.5901128109 50.0878894776 268.8250660278
204.2144393524 122.4936428086 212.4997499934
223.3222243526 67.9861064436 249.9310611954
212.2713147085 126.7564321167 225.8526979512
223.4592612950 78.8263370278 240.9705915517
198.4872045138 152.3298293268 235.1855933445
229.2403468039 92.0776309363 224.2070706411
219.8200160934 70.8275815010 254.6976129746
208.2842291214 135.7466890937 226.5004636030
231.2315542631 81.2442473853 227.5014558167
225.1649129733 72.6750095532 255.0216483346
225.0940110665 80.7442983606 246.2346941940
229.6136639307 88.6083290216 221.1882480163
217.1643885205 66.8576423914 264.2330114617
209.8288786122 138.9215022419 241.0514026273
225.0685043189 89.4950926005 238.1474245545
216.6275082333 52.5490748366 271.3857538319
226.9608209170 76.8096558962 249.8949736925
210.9876465207 166.8732427612 238.9881505431
224.0651488858 71.8068704661 250.9589397015
226.7632405003 83.4003423822 225.7821497146
229.0062903003 81.9751546883 214.1416743346
213.7598304997 139.2194406494 231.0157199241
217.6702057521 59.4188039313 260.5559028509
199.4442076982 159.3477852247 237.9984941357
228.2016315308 87.6994713125 211.6704220421
207.6369280489 122.2348057944 221.3152269896
218.1302649914 54.0214286125 261.6249251484
218.4526269380 60.8289985763 265.5220682814
214.4095934771 137.0936892007 229.0969525441
209.5996560555 146.4915597250 233.9683605608
214.8662141941 117.6069410707 210.4945499035
231.9767961986 85.9033897217 219.2373638197
220.2690422680 58.2656189700 265.2657775653
223.8825633986 80.9578709250 246.9512226367
234.2519140247 78.2944089397 231.5850906575
214.6630272238 60.2665189629 260.7747695126
223.8752303927 85.3796013542 239.3026222669
203.7132495245 163.2753151531 236.2177413007
201.1683681921 110.0003557059 207.7058145257
209.8429437320 116.6730077151 211.6342227323
199.5545448230 149.3534911801 227.7724431489
