54.2236251831 24.1669826508 127.9796066284
60.5265922546 22.6116924286 130.2257995605
81.1322021484 3.9698688984 162.5599975586
131.9636535645 67.9678192139 154.6539916992
78.2551422119 3.2400000095 162.4830017090
101.0939636230 30.2199993134 153.9738006592
48.5259552002 17.3088016510 101.9967956543
58.3659553528 16.7688007355 106.7068023682
138.5216827393 65.8873672485 156.5099945068
50.0282821655 10.0333747864 97.9759979248
129.8199920654 55.9908447266 160.3099975586
90.0136260986 10.7569828033 164.7995910645
127.8986129761 68.1717758179 157.6759948730
131.3474273682 66.8398666382 157.1399993896
59.1082801819 12.5333747864 140.3459930420
51.9346656799 16.8023452759 141.0299987793
60.0982818604 16.0233745575 105.3460006714
117.0636215210 47.0369834900 155.0795898438
116.1140060425 36.6722068787 154.3700103760
128.0266876221 63.1699981689 154.5220031738
119.7616577148 39.0393562317 157.2304077148
54.0639991760 19.0622081757 129.8099975586
61.4042968750 18.2140769958 119.3124008179
108.3047790527 32.3653221130 150.7810058594
124.9808654785 57.3329696655 162.8699951172
78.4221343994 8.6569356918 164.1831970215
83.6788253784 4.2240271568 165.3999938965
65.2459564209 14.6188011169 160.3768005371
111.6239624023 33.9700012207 152.4438018799
57.1233863831 17.1498699188 139.5225982666
135.8851470947 67.4800033569 148.9430084229
67.2299957275 14.6852369308 133.8573913574
67.5702972412 12.2598390579 159.2149963379
132.1607208252 65.4566421509 159.1360015869
56.4297904968 13.4457149506 121.0218048096
92.9188232422 5.3740267754 165.5699920654
60.2316894531 16.8073673248 124.0699996948
49.7140007019 10.7922067642 96.3000030518
128.8783874512 59.4079589844 154.8759918213
127.1308746338 68.3929748535 162.5199890137
121.7292098999 54.6275939941 160.8481903076
112.9908676147 34.4629669189 152.4799957275
100.8986053467 23.3656101227 161.2875976562
60.5027885437 16.6689949036 146.6661987305
52.5951423645 8.4899997711 88.3129959106
59.2216644287 18.9393577576 123.8303985596
104.8192138672 19.8075923920 161.9281921387
67.5702972412 12.2598390579 159.2149963379
53.5133857727 14.6698684692 142.0526123047
78.5321350098 7.6669363976 153.1031951904
137.4127807617 63.9489936829 156.5661926270
71.2759552002 9.5988016129 157.2568054199
78.0165939331 12.8016929626 158.9357910156
58.5746650696 11.4823465347 152.1000061035
98.7367095947 22.1197261810 163.6199951172
54.0714035034 14.6700000763 123.5388031006
120.9194030762 58.8025360107 152.8240051270
46.3034744263 13.2230491638 101.3659973145
58.8540802002 21.8528442383 108.7400054932
50.5927238464 25.7601032257 99.2490005493
90.8939666748 11.8800001144 164.9838104248
64.9940032959 13.1522064209 155.9700012207
64.6997528076 16.4099998474 158.1800079346
127.6752853394 55.8469238281 160.8540039062
73.9186172485 13.1917724609 152.6159973145
62.2899932861 15.8252363205 142.1873931885
121.5588226318 54.9740257263 152.1799926758
59.1438064575 22.2172050476 156.2711944580
129.5021362305 59.4269371033 155.8531951904
104.3122024536 20.3798694611 158.3099975586
71.6116867065 15.5073680878 153.9300079346
61.9472198486 16.1253547668 149.4199981689
58.5414009094 20.2600002289 104.7888031006
63.0897560120 13.9899997711 118.4499969482
118.7220611572 55.3780479431 156.6820068359
107.8138046265 22.9772052765 164.3712005615
125.0384597778 59.3362808228 154.4697875977
108.0533828735 30.3998699188 159.5026092529
119.9474258423 59.3998641968 155.7100067139
46.8208656311 17.6329708099 113.7000045776
65.5902938843 8.3098392487 148.3049926758
104.3593978882 37.4625358582 154.2140045166
70.2867126465 17.8597259521 156.6199951172
131.7549896240 67.8669204712 161.7653961182
130.1232757568 58.9681053162 157.4539947510
118.6727218628 59.2801017761 153.4089965820
59.2297554016 17.3400001526 134.6900024414
48.9208679199 20.6829700470 108.7200012207
76.9167633057 5.7120165825 167.9446105957
52.6383895874 14.9079618454 95.5559997559
96.3986053467 17.9056110382 160.1876068115
97.2893981934 19.8225345612 158.5039978027
63.0651435852 7.6599998474 143.6430053711
133.1692047119 66.0275955200 153.0881958008
56.8533859253 17.7198696136 118.8926010132
64.0989303589 14.3558320999 122.7819976807
60.2908668518 19.2829704285 140.0000000000
106.9682846069 30.9033756256 153.4859924316
97.1740036011 14.1022071838 163.5000000000
63.0407180786 20.4666461945 137.4160003662
52.9846649170 14.5323467255 125.6399993896
46.7520637512 18.3980522156 101.9619979858
119.8267135620 59.5097274780 151.6199951172
54.5592117310 13.1475934982 94.4981994629
74.7320632935 9.4180507660 157.6220092773
96.7008666992 19.6229705811 160.3999938965
132.0527801514 66.4189910889 162.9161987305
68.0146636963 11.1623468399 154.9299926758
110.3940048218 36.7222061157 150.8000030518
58.4742965698 15.9840755463 125.2223968506
123.6757583618 57.9359016418 161.6630096436
53.6563034058 7.9086999893 87.6949996948
136.2016601562 71.1493530273 156.0204010010
64.5138015747 13.1872053146 147.5111999512
100.5346603394 22.8723468781 159.6799926758
60.9749870300 23.6369266510 129.4353942871
65.9551391602 20.9200000763 127.8729934692
57.0655860901 9.6259174347 155.1589965820
129.8199920654 55.9908447266 160.3099975586
55.5033874512 18.7098693848 125.7225952148
51.6149864197 22.8669261932 110.7954025269
46.8208656311 17.6329708099 113.7000045776
126.1440811157 60.9228401184 158.4399871826
92.9188232422 5.3740267754 165.5699920654
95.4397583008 16.7600002289 156.5900115967
110.0840072632 31.1922092438 153.7400054932
60.8116874695 18.9773674011 104.9400024414
70.4994049072 17.5425357819 158.9640045166
106.9721374512 23.5469360352 158.1331939697
54.9739646912 18.2700004578 125.4938049316
92.2540054321 5.2422065735 164.1699981689
101.4567642212 28.2520160675 158.3346099854
73.0449905396 15.7769260406 157.4253997803
88.5792617798 8.5892000198 163.6242065430
88.7227859497 14.1989946365 169.8161926270
50.0267677307 22.5520172119 109.6445999146
52.1886138916 17.6317710876 127.0760040283
85.7908706665 6.0829696655 167.7299957275
74.6167068481 13.8597259521 157.8699951172
129.1746673584 63.0623474121 160.2799987793
51.0664672852 15.8312339783 102.2100067139
67.0108642578 21.9029693604 156.2899932861
120.8372192383 39.7253532410 152.9199981689
117.0067672729 59.9020156860 154.2446136475
104.7108688354 31.3429698944 157.1900024414
105.0567092896 25.9297256470 164.2400054932
109.1682815552 30.3733768463 153.9859924316
92.5382843018 4.6933751106 168.2859954834
77.7402954102 5.0098390579 164.9349975586
127.4179153442 57.8776206970 164.2269897461
94.0736236572 15.9669828415 164.0795898438
104.3122024536 20.3798694611 158.3099975586
102.4049911499 31.9869251251 156.2753906250
73.5799942017 14.9352369308 155.5074005127
77.5508651733 4.3429698944 165.0999908447
133.8059692383 66.8488006592 151.5268096924
73.5513992310 9.3900003433 151.6587982178
61.4416885376 16.6973686218 154.0099945068
140.6689453125 68.1081848145 150.8769989014
56.7059555054 12.1188011169 150.6868133545
66.9927902222 14.0789947510 136.9261932373
60.4402923584 12.6698389053 120.3050003052
55.4540023804 18.4122085571 153.4199981689
55.5867080688 11.9597263336 93.0499954224
119.9067077637 54.2397270203 162.5000000000
69.6988220215 11.6640262604 156.9400024414
63.9246635437 13.6123466492 156.8099975586
113.8240051270 32.9122047424 150.8000030518
65.8447799683 14.2553234100 153.9010009766
112.7546615601 33.3723449707 151.6399993896
48.7991256714 20.4158592224 106.1240005493
78.5886077881 5.5256109238 169.0876007080
47.5446662903 20.1723461151 103.6800003052
64.5967102051 14.5397262573 145.1300048828
46.3533859253 20.6798686981 113.8526000977
56.5682830811 16.2833747864 108.2159957886
123.7340774536 55.6928405762 156.5599975586
50.7536239624 14.6569824219 127.9296035767
58.5416641235 20.2693576813 121.5103988647
80.0752868652 5.7269234657 160.9940032959
59.2814025879 17.9799995422 104.4388046265
115.9313964844 40.8300018311 151.6087951660
60.4074211121 22.2598667145 132.5700073242
77.4357604980 2.1559023857 164.5130004883
97.4167098999 19.1697254181 157.2200012207
52.2967071533 23.5097255707 100.0699996948
56.9782829285 12.0033750534 151.3659973145
120.1425857544 36.9000015259 152.6679992676
109.7697525024 36.2200012207 151.7100067139
77.4113998413 8.7899999619 157.6287994385
48.9117622375 25.4268054962 98.0309982300
63.2116889954 17.7073688507 138.4900054932
97.1816864014 13.1773681641 164.0599975586
95.4122085571 14.9998683929 163.1100006104
122.5188217163 55.1440277100 158.3899993896
77.2152862549 6.3169240952 154.4640045166
60.7189712524 20.1292648315 104.6389999390
60.0847816467 17.6353244781 128.2010040283
60.7882804871 11.9533748627 118.0559997559
75.0259552002 5.6488018036 160.4668121338
103.4888229370 33.5040283203 154.1399993896
56.9791259766 18.5458602905 115.6440048218
66.7839660645 19.4500007629 150.1138000488
102.0567092896 24.9097270966 159.9599914551
59.9239997864 12.5122070312 140.5899963379
76.5532760620 12.5381040573 151.6640014648
57.5040016174 12.5322065353 142.0200042725
76.9502944946 6.3298387527 153.0549926758
81.1322021484 3.9698688984 162.5599975586
58.3682823181 12.3433752060 141.6959991455
60.9655876160 9.3159170151 151.1690063477
104.2559585571 21.9488010406 163.7268066406
48.1897544861 13.1099996567 96.4000015259
137.7951354980 68.4599990845 149.2530059814
77.2238006592 8.4372053146 155.3712005615
48.4187469482 15.6959953308 99.9986038208
50.5972213745 21.0153560638 106.7599945068
69.2321395874 19.1569347382 129.5031890869
117.2267074585 48.8497276306 160.1900024414
101.9808654785 23.3429698944 162.9299926758
50.7536239624 14.6569824219 127.9296035767
138.7767028809 69.4897232056 156.3600006104
58.3052940369 13.5669240952 129.4239959717
109.1682815552 30.3733768463 153.9859924316
50.6857643127 14.3859024048 128.4329986572
140.6689453125 68.1081848145 150.8769989014
64.1174240112 21.5598659515 151.8699951172
47.8427886963 22.6189937592 102.5161972046
80.5588226318 6.2840270996 159.8699951172
61.5767059326 20.2297267914 139.4400024414
61.2307167053 22.5466461182 131.4260101318
56.4749870300 25.3069267273 152.6153869629
54.8608665466 23.3329696655 132.8000030518
51.1259536743 8.5888013840 95.2667999268
73.3308639526 12.9129695892 158.4299926758
51.1142959595 23.7640762329 97.3423995972
46.2339630127 22.2999992371 99.0638046265
116.1659545898 49.7988014221 156.7168121338
73.5799942017 14.9352369308 155.5074005127
66.2234725952 22.2130470276 155.9060058594
126.5086059570 67.2656097412 161.9076080322
53.5751419067 16.4200000763 138.7929992676
47.7646636963 19.0823459625 107.5899963379
75.4274215698 13.3398656845 156.1699981689
87.4086151123 12.1317720413 165.2460021973
96.7002944946 5.4098386765 167.9349975586
54.3367080688 12.9097261429 93.6599960327
133.0655822754 62.6959152222 155.1990051270
140.9416961670 68.1673736572 151.4199981689
77.9216918945 8.4473676682 151.4400024414
104.0147857666 31.6053218842 150.1809997559
56.2216873169 10.8473682404 95.0999984741
50.7536239624 14.6569824219 127.9296035767
83.8038177490 8.9184780121 161.4713897705
46.8779144287 10.5476217270 102.2670059204
133.5739593506 63.0999984741 154.2438049316
49.9472198486 24.8553562164 97.2699966431
54.3897552490 11.3699998856 125.9700012207
111.5621337891 31.9369373322 154.8931884766
58.4525833130 17.2900009155 107.5979995728
47.2397880554 16.1457157135 99.4318008423
66.3197555542 15.9899997711 133.3899993896
46.6986045837 22.7556114197 101.9876022339
119.6540069580 48.6722068787 159.3399963379
48.8914031982 19.2900009155 105.4188003540
59.9914016724 19.9799995422 112.0887985229
56.0855865479 15.4759178162 130.3589935303
97.2038040161 15.9072046280 166.6412048340
103.5236511230 30.9478244781 156.9039916992
115.6789703369 40.0292625427 149.3489990234
74.0288238525 9.0040264130 158.4899902344
94.1197586060 10.0900001526 163.6800079346
53.8219299316 21.7789878845 130.9780120850
102.4474258423 23.6598663330 157.1800079346
110.5342941284 33.4240760803 153.5323944092
108.5488204956 20.0040264130 163.9199981689
56.0582809448 19.9633750916 125.4759979248
54.6208686829 18.7529697418 112.0800018311
62.5532760620 16.3681049347 119.5940017700
54.8882827759 12.7133750916 124.4459991455
67.3308639526 17.2329692841 156.8499908447
101.7489471436 15.7581834793 159.3670043945
67.9821395874 14.3569355011 135.5431976318
76.9772186279 12.9553546906 155.6100006104
118.0740814209 37.8028411865 158.9599914551
62.8840789795 18.3928432465 117.0400009155
96.9089431763 16.0381832123 166.7769927979
58.8938064575 21.2972049713 133.3211975098
63.3863029480 12.3487005234 135.7949981689
59.4633026123 18.7626953125 156.2180023193
58.4517631531 15.7668046951 118.6809997559
48.6446647644 11.2523469925 97.1399993896
140.7489471436 67.2881851196 153.7469940186
126.0446624756 65.9323501587 158.4199981689
75.5363082886 5.3387002945 153.0149993896
130.9140777588 64.0428466797 161.3999938965
59.7172203064 20.8353557587 110.4499969482
86.2940063477 8.0422067642 169.3800048828
129.3332824707 67.7581024170 157.2639923096
84.6408691406 10.6629695892 170.1199951172
88.1597518921 9.8999996185 163.7100067139
64.2974243164 23.6598663330 129.2599945068
125.3336257935 60.3869819641 161.0296020508
117.7721405029 36.2769355774 150.0431976318
140.9416961670 68.1673736572 151.4199981689
82.2667083740 9.7397260666 165.0000000000
127.5638046265 59.0472030640 163.7512054443
121.6767120361 38.6197280884 154.2400054932
129.6439971924 56.5522041321 157.8099975586
124.8957595825 56.4559020996 162.6029968262
94.5640792847 14.9528427124 172.2099914551
48.8120651245 16.2580509186 101.4820022583
84.9455871582 5.9059171677 168.1990051270
79.5942993164 9.8840751648 158.0823974609
57.3039627075 17.2500000000 115.8238067627
52.0789489746 23.5381832123 98.4369964600
50.1659545898 11.7288007736 128.8368072510
48.8914031982 19.2900009155 105.4188003540
120.4421386719 41.1869392395 153.9131927490
71.1946640015 10.8623466492 154.3500061035
118.7016906738 43.4473648071 156.7299957275
69.4992141724 19.1175937653 151.6481933594
92.2540054321 5.2422065735 164.1699981689
59.6659545898 7.9488010406 145.1668090820
52.5486030579 14.6956119537 130.6175994873
77.8797531128 4.0000000000 162.8600006104
106.0836257935 35.4069824219 151.5995941162
93.2716598511 8.7393569946 170.1004028320
87.0379180908 10.5676212311 171.7369995117
86.1397552490 9.7299995422 163.9000091553
54.7857666016 11.7559022903 153.0230102539
59.6672210693 14.6153545380 117.6399993896
48.7802925110 8.5898389816 101.7450027466
52.6221389771 19.0569362640 100.3532028198
66.6521377563 19.5669345856 113.6732025146
75.5533828735 11.8098688126 160.8825988770
59.4188232422 15.9740257263 124.9099960327
116.1659545898 49.7988014221 156.7168121338
107.0994033813 24.9825363159 161.7840118408
86.6240081787 4.5322065353 166.0500030518
62.4188232422 14.6140260696 122.7599945068
60.3316650391 18.0293560028 141.8504028320
54.6967048645 13.0197257996 90.8199996948
51.8816871643 16.9173679352 110.6200027466
95.2308654785 18.8329696655 159.1799926758
128.4074249268 67.3598709106 156.8899993896
66.9879150391 21.4476222992 133.7469940186
70.5867080688 17.0397262573 154.4900054932
120.9337997437 54.2972030640 162.4711914062
112.5426406860 32.8668022156 156.3930053711
138.8052825928 65.7469177246 152.6340026855
51.2186050415 14.7556114197 130.3076019287
61.7714004517 20.0100002289 128.0787963867
59.1007308960 20.6900005341 127.7226028442
48.8914031982 19.2900009155 105.4188003540
98.9540786743 21.0628433228 164.4599914551
117.4749908447 45.4069252014 153.3553924561
50.6116905212 16.1773681641 112.1299972534
73.7388229370 8.0840263367 156.6299896240
51.1142959595 23.7640762329 97.3423995972
118.8174209595 54.3498649597 155.6199951172
92.1982574463 18.3573074341 169.2910003662
85.7908706665 6.0829696655 167.7299957275
116.6546630859 57.1323471069 151.2700042725
110.4832992554 31.8626937866 157.8780059814
109.5467071533 37.2197265625 155.9400024414
54.4974212646 26.1698665619 127.4400024414
58.7288208008 11.6640262604 157.2599945068
85.6886062622 7.2656111717 168.2375946045
124.6408691406 61.0329666138 158.1599884033
97.1621398926 6.4969358444 167.7332000732
75.4546585083 7.4423460960 158.7200012207
93.9657592773 12.5059022903 169.6930084229
91.5974273682 11.3398656845 163.7100067139
66.0097961426 18.0257148743 128.9817962646
53.8282546997 22.3173065186 128.8809967041
84.7699966431 9.9952363968 164.0173950195
58.5197563171 14.7600002289 147.6800079346
81.3039627075 8.5000000000 158.7338104248
101.7546615601 33.8323478699 153.5800018311
54.0082550049 22.5073070526 131.4010009766
64.5874252319 19.1698665619 134.2400054932
90.0432739258 11.4781036377 164.2940063477
62.8325805664 18.7999992371 112.3380050659
50.5136260986 12.4369831085 93.9596023560
113.2640762329 47.9828414917 159.2200012207
67.6574249268 25.6898651123 153.4799957275
54.2902908325 6.9298386574 91.1549987793
95.9779205322 5.5676217079 171.1169891357
108.2616882324 22.0373687744 160.0599975586
133.9739990234 67.2622070312 153.0200042725
102.0846633911 21.8523464203 157.7400054932
44.6982574463 10.7073059082 101.8610000610
47.7551422119 22.7600002289 97.4129943848
102.3699951172 18.4452362061 158.7773895264
135.1827850342 63.4189910889 157.6961975098
106.2691268921 34.0158615112 157.0740051270
64.0989303589 14.3558320999 122.7819976807
85.8482589722 12.6173057556 170.6210021973
59.9797554016 9.2299995422 143.2100067139
59.4564666748 17.0612335205 155.4900054932
135.9597625732 65.9700012207 153.6699981689
120.9132766724 39.7881050110 153.1239929199
61.2399940491 20.2152366638 127.8174057007
110.0736236572 39.5769844055 151.4496002197
55.8146667480 16.4823455811 109.8300018311
48.2114028931 18.4899997711 109.7888031006
48.5133857727 11.2898683548 103.2126007080
114.8782577515 46.6373062134 159.7410125732
122.6618728638 56.1975250244 151.8719940186
104.0219268799 33.4389877319 154.0980072021
129.9072265625 61.2353553772 155.9000091553
53.6472206116 10.7753553391 87.8199996948
122.0672225952 38.0053558350 152.8400115967
117.6172180176 48.2353553772 158.7900085449
78.3289413452 10.2881832123 152.8670043945
91.6513977051 9.5000000000 162.8188018799
106.4916610718 31.4793567657 158.3603973389
74.6167068481 13.8597259521 157.8699951172
62.1542968750 15.0040750504 117.6024017334
109.8026428223 28.6767997742 157.8229980469
113.8472213745 40.5453529358 153.3800048828
120.8372192383 39.7253532410 152.9199981689
54.9497566223 19.6200008392 152.8600006104
63.9167060852 15.9197263718 121.7999954224
99.2516632080 22.0893573761 163.2504119873
60.8007164001 17.9466457367 140.4960021973
57.9859542847 16.7888011932 154.2268066406
96.5167083740 19.7797260284 158.6199951172
78.0822067261 4.7998685837 158.9799957275
118.6208648682 53.2929687500 163.0599975586
80.6133880615 11.2098684311 163.1926116943
132.7997894287 62.0757141113 156.1618041992
71.1946640015 10.8623466492 154.3500061035
117.2540054321 43.1522064209 158.1300048828
123.9316864014 49.7373657227 155.5700073242
79.8986129761 8.3817720413 166.3059997559
110.2740020752 35.0122070312 152.2700042725
52.8239631653 21.4699993134 106.3138046265
57.0099945068 24.4652366638 150.6973876953
52.1708679199 17.8929691315 141.8699951172
64.7714004517 14.7500000000 133.7288055420
57.2746658325 19.0423469543 115.9899978638
133.1784667969 66.6262817383 152.8197937012
118.8927917480 58.7689933777 156.5462036133
135.0988159180 65.6740264893 157.7399902344
100.7759552002 26.1588020325 154.1868133545
76.7582855225 4.9033751488 159.1060028076
57.5040016174 12.5322065353 142.0200042725
58.8240013123 12.7322063446 117.9200057983
56.3716888428 11.1273679733 127.0900039673
48.2651443481 20.7399997711 109.1229934692
48.0152931213 8.7269239426 100.9140014648
69.2321395874 19.1569347382 129.5031890869
66.2651443481 21.5699996948 149.7129974365
57.9457664490 18.0659027100 106.2630004883
76.1667098999 12.3897266388 162.3300018311
54.2497558594 21.7399997711 151.9000091553
86.1397552490 9.7299995422 163.9000091553
95.3331985474 12.3645782471 164.9279937744
119.2616882324 37.5873680115 153.1699981689
52.8063011169 10.1287002563 127.4850006104
48.0152931213 8.7269239426 100.9140014648
92.5382843018 4.6933751106 168.2859954834
63.0651435852 7.6599998474 143.6430053711
51.6374206543 12.7798662186 91.4599990845
137.3116607666 70.4693527222 153.8904113770
95.3179168701 15.6776218414 172.1669921875
107.1455841064 21.4959163666 165.6490020752
49.5288238525 16.6940269470 109.3099975586
60.8821334839 16.4569358826 122.9232025146
80.7372207642 8.0353555679 158.1900024414
102.1255874634 16.0459175110 161.0789947510
59.2133865356 22.3398704529 130.2026062012
109.4740829468 22.7428436279 163.7599945068
95.4672241211 10.7653551102 163.9600067139
86.8840789795 12.8228425980 170.5199890137
76.9502944946 6.3298387527 153.0549926758
131.1737976074 66.5372085571 162.5511932373
58.1164665222 15.0212345123 123.8000030518
80.2967071533 9.1697263718 165.8699951172
119.0291290283 56.7958602905 157.7740020752
64.3932723999 15.1081037521 118.9739990234
86.8367614746 15.3320159912 167.5146026611
68.4840011597 12.5022068024 152.7799987793
65.0474243164 22.1098651886 113.6200027466
54.4872207642 9.3753547668 87.4300003052
124.6408691406 61.0329666138 158.1599884033
53.4357643127 10.2159023285 128.4329986572
115.3407211304 41.9566421509 156.1760101318
52.7557640076 15.3359022141 140.8229980469
55.4088211060 10.0140266418 95.9399948120
112.9908676147 34.4629669189 152.4799957275
114.1597900391 42.3257141113 155.2118072510
111.2192077637 29.5975933075 157.9682006836
69.9616851807 13.4673681259 153.3399963379
81.0267639160 9.9520158768 159.8846130371
68.3442993164 16.9240760803 158.5623931885
55.2608680725 20.0629692078 156.6199951172
52.9672203064 15.1753549576 98.3899993896
67.0338058472 17.4772052765 138.2211914062
54.1716880798 17.5373687744 107.3899993896
62.5972213745 16.3653545380 121.0799942017
52.8927230835 17.3401031494 128.8389892578
54.3419303894 15.3489894867 142.7779998779
101.0366821289 21.5499992371 158.5119934082
64.0716857910 12.5173683167 149.0899963379
94.8931961060 7.9545783997 164.1779937744
98.4313964844 20.6299991608 159.2888031006
102.3036270142 24.5769824982 157.9196014404
54.7721328735 8.0669355392 90.8932037354
66.9963073730 19.8186988831 150.5249938965
63.8533020020 21.7326965332 133.7779998779
120.2316894531 40.8773651123 154.7500000000
57.3039627075 17.2500000000 115.8238067627
55.1216888428 8.4573678970 88.2700042725
118.6272201538 38.5053558350 152.3300018311
133.7767028809 70.5297241211 155.2099914551
61.3982810974 7.2033748627 143.8059997559
60.0192108154 16.9175930023 117.3582000732
61.1467056274 21.1397266388 137.0999908447
52.9008674622 17.9329700470 143.3799896240
75.1908645630 6.6629700661 160.7099914551
55.0682830811 12.0533752441 125.7459945679
58.8055877686 12.9959173203 121.7890014648
96.3759536743 16.8388004303 161.7268066406
113.4317626953 40.5868034363 150.1610107422
57.1082801819 12.9333753586 125.6759948730
139.0200042725 66.3508453369 156.1100006104
74.1959533691 6.8088016510 162.6168060303
109.6955871582 27.7659168243 156.6790008545
60.0416641235 21.5593566895 116.3703994751
90.8059539795 5.4388017654 169.6468048096
93.4557647705 4.1459026337 169.4929962158
54.3988227844 16.5140266418 143.0999908447
59.9874191284 20.9098663330 136.2599945068
47.8163032532 8.3986997604 99.7150039673
66.5220642090 14.5303878784 152.5670013428
56.4402923584 18.6198387146 155.9649963379
73.7997589111 8.8900003433 162.7500000000
120.5816574097 39.6293563843 156.1304016113
68.4317626953 17.2268047333 158.8610076904
53.8631973267 19.0445785522 106.0879974365
60.7016639709 21.1293582916 109.2803955078
82.2389297485 6.9758324623 169.1620025635
109.8788223267 32.8040275574 157.3600006104
110.4764709473 30.1612339020 157.1500091553
54.5617637634 23.5068054199 152.9710083008
119.2852859497 43.5769233704 156.8939971924
55.6051445007 12.8400001526 150.9930114746
54.0082550049 22.5073070526 131.4010009766
80.7372207642 8.0353555679 158.1900024414
56.4479141235 20.5176219940 156.7769927979
60.7107162476 15.7166442871 146.3560028076
60.7567062378 17.6097259521 142.3899993896
56.1933021545 9.6526956558 95.7480010986
66.5127258301 17.5501041412 159.9889984131
115.6667098999 38.8897247314 149.0500030518
64.1440048218 12.0422067642 144.0100097656
69.0840072632 10.7022066116 154.0899963379
96.5472183228 14.0953550339 163.2200012207
61.6339645386 22.3899993896 113.5338058472
46.2140007019 8.1922063828 100.2900009155
62.5972213745 16.3653545380 121.0799942017
121.1316909790 49.6373672485 159.8999938965
57.2020645142 17.4880504608 154.7620086670
126.1979141235 59.3576202393 163.2870025635
59.2642974854 21.0040760040 110.4023971558
60.8216896057 17.0673675537 119.0699996948
56.8533859253 17.7198696136 118.8926010132
103.0759582520 33.3388023376 153.2667999268
49.7667694092 14.1220159531 127.8846054077
88.6416625977 14.7593574524 168.9703979492
50.2174186707 11.2098655701 93.7600021362
49.8540802002 21.9128437042 112.5299987793
59.5836257935 19.9969825745 137.5296020508
96.9072189331 19.1653556824 157.2200012207
105.9979171753 24.3876209259 164.9869995117
57.5520668030 13.1180505753 144.2520141602
69.4992141724 19.1175937653 151.6481933594
79.6834716797 7.1630487442 168.6860046387
105.8764724731 25.6612339020 159.4400024414
97.3040084839 16.2222080231 160.5800018311
93.4772186279 16.4753551483 164.6800079346
118.6163024902 55.7786979675 149.9850006104
60.4740791321 14.1428422928 155.5000000000
106.0167083740 30.1997261047 154.4100036621
123.3483886719 54.4779586792 154.4059906006
57.1146659851 11.5523471832 150.3999938965
96.7327270508 17.4501037598 169.3789978027
60.1674194336 21.0398654938 116.7900009155
66.9116897583 11.5673685074 147.2400054932
134.7066802979 65.0400009155 154.7619934082
68.2616577148 24.8293571472 152.7004089355
68.7789306641 22.0258312225 156.3820037842
54.0117607117 23.3568058014 126.8509979248
136.0067138672 71.4197235107 155.9700012207
61.2618713379 13.1575250626 153.7019958496
68.0899963379 17.5352363586 159.7574005127
57.8002929688 21.4398384094 127.5749969482
46.7520637512 18.3980522156 101.9619979858
114.9339599609 43.3499984741 153.2938079834
96.7008666992 19.6229705811 160.3999938965
123.5984573364 53.6162796021 152.7897949219
58.9008674622 17.6829700470 136.9299926758
61.7546653748 18.2323455811 129.9299926758
47.8125801086 17.3400001526 110.5579986572
73.5563049316 6.5686998367 152.9049987793
123.9072189331 56.1353530884 154.3200073242
56.9772224426 19.3853549957 141.3800048828
88.0387496948 5.8959965706 164.4586029053
66.0988235474 10.7340269089 148.0800018311
125.3336257935 60.3869819641 161.0296020508
52.1133041382 12.9026956558 101.2379989624
102.0846633911 21.8523464203 157.7400054932
65.0557632446 12.7359018326 158.4029998779
54.0474205017 22.7998657227 152.7400054932
118.8840026855 54.3122062683 154.5000000000
50.3740005493 9.7522068024 98.1900024414
62.4921340942 17.5869350433 106.2532043457
84.0347824097 5.7253236771 166.2810058594
76.5240020752 6.9822063446 157.8800048828
106.9418716431 28.3175239563 153.8919982910
63.3642959595 13.9140748978 143.3724060059
118.5182571411 54.7273063660 159.3509979248
75.8174209595 9.2498655319 158.1600036621
80.7216644287 9.4793567657 165.1804046631
120.9021377563 47.0969390869 156.5831909180
51.2186050415 14.7556114197 130.3076019287
101.6286087036 23.7456111908 162.4875946045
54.8167686462 21.9520168304 107.2645950317
58.2646636963 18.4723453522 105.2200012207
106.9721374512 23.5469360352 158.1331939697
51.2167701721 21.3920173645 103.4245986938
74.8440017700 6.6522068977 164.5400085449
125.0384597778 59.3362808228 154.4697875977
77.2089691162 8.8692646027 150.6189880371
106.2331924438 21.6345787048 159.0379943848
70.1518707275 21.2175235748 154.0019989014
54.0082550049 22.5073070526 131.4010009766
65.5852890015 13.1169233322 137.8139953613
58.0222015381 12.7998685837 139.7299957275
84.6408691406 10.6629695892 170.1199951172
56.7588233948 18.6440258026 156.3399963379
119.2852859497 43.5769233704 156.8939971924
101.2472229004 16.1253547668 158.4700012207
125.6583862305 60.5279617310 154.5059967041
69.8189315796 24.0658321381 156.3520050049
109.6874237061 38.9898643494 151.0800018311
138.5192108154 63.2975959778 154.6481933594
126.6097564697 66.6800003052 157.0200042725
115.7397537231 41.4399986267 151.6800079346
48.8640022278 16.5622081757 107.9100036621
139.4979095459 68.7976226807 152.9069976807
69.1116867065 19.0173683167 154.7700042725
134.1792144775 63.8375930786 154.0482025146
137.8389739990 68.4592666626 149.3489990234
54.8882827759 12.7133750916 124.4459991455
95.9779205322 5.5676217079 171.1169891357
66.6063079834 12.0686998367 157.1849975586
122.7599945068 54.0252342224 151.7274017334
74.7297515869 12.4700002670 152.0700073242
128.7216796875 60.0773658752 154.9799957275
53.2859535217 14.1188011169 141.1768035889
86.8840789795 12.8228425980 170.5199890137
126.8851394653 67.9199981689 158.7630004883
58.9982795715 12.8033752441 119.3059997559
95.3102951050 13.7798395157 171.3549957275
92.7497558594 14.4300003052 162.6600036621
124.6408691406 61.0329666138 158.1599884033
61.5021362305 14.0969352722 141.2531890869
57.0139999390 14.5522069931 138.9799957275
91.1886062622 7.2056112289 171.0075988770
102.2482833862 20.8533744812 158.5659942627
59.4188232422 15.9740257263 124.9099960327
85.8491287231 7.9858608246 169.0339965820
70.5867080688 17.0397262573 154.4900054932
139.9167175293 69.6997299194 151.9799957275
56.1614036560 13.9600000381 150.4588012695
116.6020584106 47.3180503845 155.9720001221
107.7516860962 27.6073684692 155.4799957275
49.1872215271 20.5653553009 98.8699951172
76.0413970947 8.2299995422 157.5487976074
65.0151443481 18.2099990845 133.7030029297
51.9288215637 17.5340270996 103.0000000000
57.1289482117 10.9481830597 128.0269927979
76.9943008423 11.2840747833 160.9024047852
96.5872192383 5.7053556442 167.6000061035
46.9382820129 8.5133752823 98.6459960938
54.9863014221 9.5487003326 127.2149963379
119.6540069580 48.6722068787 159.3399963379
54.5592117310 13.1475934982 94.4981994629
51.4894027710 24.5125350952 100.5939941406
56.6036491394 21.8378238678 109.3540039062
89.9789733887 12.5792655945 164.7389984131
61.6352920532 17.0369243622 156.1439971924
50.3740005493 9.7522068024 98.1900024414
135.8039550781 63.6300010681 153.1138000488
54.1527900696 12.5189943314 98.5261993408
53.7533874512 17.5298690796 124.2025985718
71.4421386719 15.1369352341 154.1531982422
94.0867080688 18.9897270203 166.1799926758
94.6555862427 11.1259174347 168.7089996338
107.3438034058 30.6772041321 158.5612030029
126.1259536743 65.4988021851 160.5468139648
84.4046630859 9.5723466873 169.2799987793
45.1446647644 8.6523466110 101.1299972534
123.3404769897 52.9569358826 156.1273956299
61.7546653748 18.2323455811 129.9299926758
116.4657592773 56.3259010315 153.0030059814
134.1397552490 66.5699996948 152.8300018311
64.1340026855 16.5922069550 113.6000061035
61.0540809631 20.0728435516 156.2299957275
68.6167068481 18.1797256470 156.2899932861
68.5140762329 21.7928428650 156.5699920654
61.3740005493 14.7222070694 134.8500061035
110.4764709473 30.1612339020 157.1500091553
103.4840774536 23.2328433990 163.2099914551
59.5542984009 20.0040760040 150.7523956299
64.2588195801 12.9140262604 120.4099960327
76.5746612549 2.2123465538 166.7500000000
133.1592102051 65.7675933838 160.9981994629
97.3736267090 21.7169818878 161.8896026611
68.6716918945 18.1073684692 155.9199981689
66.5179138184 23.0476207733 132.3269958496
93.4557647705 4.1459026337 169.4929962158
49.2697906494 11.6457147598 128.6518096924
102.7967071533 29.5497264862 152.8699951172
52.7888221741 13.4240264893 100.0699996948
58.6372222900 20.4653568268 128.0900115967
71.3527908325 13.2089948654 159.6661987305
53.2793998718 13.0225353241 92.0339965820
59.6508674622 19.1729698181 157.0699920654
99.1142959595 18.4440765381 157.0124053955
126.7397537231 60.3199996948 153.8600006104
92.2714004517 14.8900003433 163.9387969971
113.2382583618 45.7473068237 158.0510101318
87.7964706421 6.1412348747 168.6699981689
64.4882888794 17.1633758545 152.8059997559
58.5416641235 23.0093574524 131.9604034424
109.0699996948 19.9408454895 163.5800018311
97.2989730835 16.5592651367 167.3489990234
65.4389343262 18.5158329010 133.5119934082
76.9759521484 3.0488016605 167.8468017578
73.7388229370 8.0840263367 156.6299896240
70.5040817261 16.8028430939 157.4599914551
55.4140777588 11.3228425980 96.5000000000
65.1314010620 17.1000003815 134.1387939453
52.1938056946 14.3472051620 101.3311996460
66.9689712524 19.1892642975 134.1089935303
46.3159561157 20.9888019562 100.6268005371
113.8427886963 39.7189941406 159.0661926270
55.6084594727 21.2962799072 106.7498016357
120.6467132568 47.3097267151 156.9799957275
56.9946632385 11.9923467636 156.6999969482
105.3052902222 20.6669235229 161.7140045166
59.3272209167 19.6553554535 121.8899993896
65.4863052368 18.3486995697 113.2750015259
58.8540802002 21.8528442383 108.7400054932
61.7549858093 16.6669254303 144.1053924561
62.2457656860 6.5759024620 145.6730041504
64.5082855225 12.9033746719 135.5459899902
51.1052932739 10.2469234467 100.2440032959
55.0133857727 11.5698690414 155.5426025391
119.3631973267 39.4945793152 152.7579956055
64.5152893066 7.6969232559 147.7640075684
57.1216659546 24.9193572998 153.5404052734
63.5483894348 19.6679630280 135.5959930420
106.2797546387 22.2800006866 158.9400024414
59.2067070007 18.3397254944 124.6299972534
106.1743011475 35.6440734863 151.4523925781
131.1447753906 64.7053222656 152.3209991455
121.9516906738 48.7673645020 155.5500030518
52.1133041382 12.9026956558 101.2379989624
63.0786018372 16.5956115723 138.9875946045
55.6497535706 18.1700000763 107.1100006104
58.1940002441 13.6822071075 125.7200012207
60.9655876160 9.3159170151 151.1690063477
107.2732696533 35.8581047058 152.1940002441
73.8959579468 8.9788007736 162.7168121338
116.7959518433 56.5188026428 154.2268066406
59.2740783691 11.3628425598 157.0800018311
122.5938034058 58.1372032166 158.1412048340
120.1138000488 37.3272056580 158.5912017822
88.6416625977 14.7593574524 168.9703979492
64.7942962646 13.9040756226 143.8824005127
48.8640022278 16.5622081757 107.9100036621
60.4021377563 12.2469358444 154.3031921387
118.1159515381 52.7088012695 160.6567993164
105.8299942017 26.5552368164 160.3073883057
75.7979202271 9.1276216507 166.6669921875
104.2282867432 20.4533748627 159.4459991455
75.9040756226 12.7028427124 154.5899963379
57.9457664490 18.0659027100 106.2630004883
120.3297576904 35.8400001526 153.4600067139
96.7002944946 5.4098386765 167.9349975586
65.5972213745 8.4953556061 144.8800048828
60.0997543335 12.1599998474 145.0800018311
109.7838058472 34.1072044373 157.7211914062
57.2308654785 13.0829696655 157.5399932861
62.9697570801 17.5300006866 130.1600036621
47.7186050415 19.4856109619 104.2776031494
105.1136245728 32.0169830322 155.8395996094
134.5717620850 70.3168029785 151.7810058594
56.7689476013 12.6681833267 129.1969909668
62.0886039734 9.9956111908 148.2176055908
57.3182830811 13.6633749008 139.5559997559
54.9739646912 18.2700004578 125.4938049316
66.7689437866 9.5181827545 147.0869903564
60.9842987061 19.6140766144 150.8724060059
125.7346649170 56.0923461914 156.8199920654
60.9655876160 9.3159170151 151.1690063477
66.3197555542 15.9899997711 133.3899993896
57.1082801819 12.9333753586 125.6759948730
51.9288215637 17.5340270996 103.0000000000
87.6942977905 10.1340751648 164.3824005127
50.5933876038 7.9298686981 92.6825942993
136.9113922119 67.4899978638 149.4588012695
61.5388221741 18.9040260315 117.9099960327
53.2308654785 20.6129703522 131.4899902344
76.7616577148 11.1393566132 165.0904083252
104.9540023804 22.8822078705 156.6200103760
101.0752868652 15.5269241333 161.2340087891
106.7282867432 20.6433753967 161.1959991455
61.0004768372 11.8869352341 150.8073883057
54.1508674622 24.2129707336 127.7300033569
113.2288208008 45.3340263367 157.6699981689
121.1238021851 51.9172058105 162.8112030029
115.1127243042 40.9201011658 151.3789978027
51.1818695068 16.9275245667 112.4619979858
49.8979148865 12.3976221085 101.9270019531
52.5088233948 21.1440258026 100.3499984741
66.4502944946 18.5398387909 115.3050003052
61.7521362305 19.8669357300 106.6032028198
60.0916633606 22.3493576050 107.5103988647
111.8649902344 37.3969268799 156.7653961182
71.7213973999 10.1400003433 153.7487945557
53.0955886841 18.4659175873 104.9589996338
56.7772216797 12.3753547668 127.4899978638
125.8306961060 63.4110260010 158.1302032471
71.7597579956 11.6099996567 152.9500122070
52.0789489746 23.5381832123 98.4369964600
52.8239631653 21.4699993134 106.3138046265
97.1940765381 16.1628437042 166.8099975586
84.0192108154 8.1675939560 160.2682037354
136.9113922119 67.4899978638 149.4588012695
54.9216651917 12.6893577576 93.9503936768
104.4272232056 36.8253555298 151.8700103760
56.3440017700 19.9022083282 125.2300033569
64.6097946167 12.7357149124 135.3917999268
59.3786048889 18.8356113434 139.7976074219
61.1814002991 12.8199996948 142.9188079834
59.8079147339 21.2276210785 155.4769897461
52.5325813293 15.8299999237 125.6480026245
60.7016639709 21.1293582916 109.2803955078
66.6086044312 23.2156105042 155.0375976562
118.5846633911 49.1323471069 160.1799926758
92.3488235474 5.8440270424 170.6299896240
114.1282882690 43.8133773804 154.3059997559
79.0086059570 6.5156111717 166.1976013184
60.9367065430 20.1197261810 156.5099945068
100.6040802002 17.3928432465 163.7799987793
91.9274215698 16.8598651886 165.2400054932
58.9220657349 17.3380508423 134.5420074463
101.6374206543 29.3198661804 152.0299987793
111.9567642212 40.8520164490 156.7646026611
57.5697555542 19.7099990845 150.3600006104
53.0383911133 20.2379627228 104.9959945679
58.3174209595 15.8198661804 148.5200042725
46.5846633911 16.5423469543 112.8600006104
105.9979171753 24.3876209259 164.9869995117
82.6004791260 9.6269350052 163.5573883057
68.4616851807 21.1473674774 128.6999969482
66.6727218628 22.9801044464 132.5289916992
96.0159530640 16.1388015747 158.8268127441
61.0472221375 20.1453552246 151.3700103760
113.3114013672 45.7700004578 153.3988037109
77.2740020752 3.8822069168 161.8000030518
54.3838157654 12.4784784317 95.7714004517
48.9091262817 16.1258602142 102.0439987183
119.5940780640 48.2528419495 158.9700012207
93.5482864380 4.5533752441 166.3359985352
139.8016815186 67.9573669434 155.8000030518
73.9186172485 13.1917724609 152.6159973145
51.0838050842 20.7372055054 112.2012023926
54.7434730530 17.2030487061 144.2059936523
48.3597564697 17.7700004578 107.3499984741
58.6316642761 21.9993572235 112.6703948975
108.0533828735 30.3998699188 159.5026092529
66.1182861328 16.9633750916 129.6660003662
102.8733901978 33.7298660278 152.4826049805
63.9752922058 6.4369239807 147.4440002441
101.1851425171 27.4099998474 151.0130004883
125.2867660522 63.9520149231 154.9446105957
44.3557662964 9.1259021759 100.6430053711
64.5227203369 23.0401039124 114.8089981079
117.4346618652 49.8923454285 158.6100006104
56.7772216797 12.3753547668 127.4899978638
55.1639633179 23.5400009155 150.3137969971
63.1992111206 15.7775945663 132.8881988525
116.9574203491 52.9698638916 155.5500030518
52.5467681885 22.9220161438 107.4645996094
92.8414001465 14.0699996948 162.7987976074
50.2749862671 12.5869255066 102.4454040527
66.6816635132 19.1893577576 136.8603973389
60.7133865356 21.5698699951 155.4126129150
52.5746650696 7.9523463249 88.5500030518
136.9043121338 69.1540756226 149.7124023438
47.9408683777 18.4429702759 104.2700042725
72.6784591675 13.9162788391 155.4297943115
56.8707313538 18.6299991608 116.1325988770
126.8851394653 67.9199981689 158.7630004883
56.7689476013 12.6681833267 129.1969909668
64.4108657837 16.2329692841 157.8999938965
105.9442977905 25.0340766907 156.7723999023
58.2965927124 20.5516910553 118.6358032227
47.0591239929 19.8158607483 103.0540008545
87.8032989502 7.8426952362 169.3979949951
97.1816864014 13.1773681641 164.0599975586
57.4919319153 16.0189895630 109.9779968262
54.3027229309 19.8701038361 142.0889892578
72.6784591675 13.9162788391 155.4297943115
121.4716873169 38.8073654175 153.7599945068
61.7063026428 6.3887004852 144.7050018311
75.2097549438 11.1000003815 160.6500091553
50.0716629028 22.2593574524 104.2603988647
76.1667098999 12.3897266388 162.3300018311
91.9274215698 16.8598651886 165.2400054932
64.5374221802 16.9498653412 156.5000000000
130.2936553955 67.2278213501 155.0739898682
88.6640014648 8.6922063828 164.2700042725
53.1997566223 16.7900009155 126.0999984741
116.4289703369 49.1992645264 157.0489959717
127.9346618652 61.9923477173 158.9799957275
57.5997543335 16.6200008392 118.7099990845
121.7866821289 58.5900001526 153.8320007324
112.8957595825 44.1659011841 156.8330078125
58.1792144775 10.7675943375 154.0081939697
50.9239997864 8.9422063828 93.4800033569
107.9398040771 19.7167510986 161.1999969482
67.8640823364 18.5828437805 157.3199920654
124.2986068726 60.3856124878 158.1475982666
76.7616577148 11.1393566132 165.0904083252
102.8240051270 33.3722076416 152.7400054932
120.6189346313 39.0358314514 156.9319915771
55.4140777588 11.3228425980 96.5000000000
57.9457664490 18.0659027100 106.2630004883
57.4540023804 19.3122081757 105.9200057983
77.5042953491 9.1540756226 151.7424011230
128.4743041992 60.9140739441 154.4924011230
64.7897567749 18.1100006104 133.4000091553
109.9399948120 30.1652374268 154.3773956299
46.2339630127 22.2999992371 99.0638046265
90.4433898926 12.3498687744 168.0526123047
92.5882873535 5.3733749390 164.2460021973
131.4639587402 64.1699981689 152.5138092041
106.1219329834 20.4989891052 162.6280059814
125.5639648438 62.5000000000 153.7938079834
120.5079193115 53.0976181030 162.9270019531
55.2436256409 24.5469818115 152.1795959473
71.4567642212 15.4620161057 156.2746124268
58.8406944275 15.5310258865 146.0302124023
57.8591270447 14.5358610153 145.3440093994
86.0663070679 8.4786996841 168.8950042725
57.1289482117 10.9481830597 128.0269927979
54.6240005493 11.8422069550 126.0600051880
65.2497558594 21.0499992371 112.7799987793
45.0408668518 11.3729696274 102.0000000000
45.1446647644 8.6523466110 101.1299972534
56.4586029053 18.7356109619 122.4176025391
101.0366821289 21.5499992371 158.5119934082
50.7357635498 8.5159025192 92.0830001831
70.2467117310 24.7497253418 154.3800048828
46.3159561157 20.9888019562 100.6268005371
117.8851394653 57.5299987793 149.1730041504
60.5027885437 16.6689949036 146.6661987305
110.9857635498 46.3358993530 157.2129974365
113.8016586304 40.8793563843 155.0204010010
77.6440048218 1.7522069216 165.9100036621
113.9693984985 41.4625358582 151.8939971924
60.0847816467 17.6353244781 128.2010040283
55.4433860779 19.8398704529 118.6426010132
60.2808685303 21.5429706573 133.9700012207
67.4786148071 25.4717712402 153.4960021973
75.9863052368 6.1386995316 151.0249938965
95.7363052368 5.2186994553 165.9049987793
92.7497558594 14.4300003052 162.6600036621
134.3236236572 70.7769775391 154.6595916748
51.9049873352 18.6069259644 99.5953979492
119.0197525024 53.2900009155 154.7799987793
59.6636238098 21.6969814301 113.4496002197
60.3746643066 11.2223472595 144.8399963379
50.7347831726 11.0153236389 127.5010070801
88.7227859497 14.1989946365 169.8161926270
53.2793998718 13.0225353241 92.0339965820
59.1438064575 22.2172050476 156.2711944580
125.3616638184 60.4893569946 161.1304016113
135.6120605469 61.8403892517 155.0070037842
100.8917617798 28.9468059540 152.2310028076
64.7897567749 18.1100006104 133.4000091553
54.3897895813 22.5157165527 152.2317962646
107.4616622925 24.6893577576 163.0104064941
61.2816886902 13.6673679352 154.1000061035
120.4016876221 47.7773666382 157.5700073242
48.0139617920 17.1700000763 97.5138015747
95.9779205322 5.5676217079 171.1169891357
64.3074264526 23.9998664856 130.8699951172
126.8040084839 55.6322059631 155.9799957275
51.3746643066 10.2323465347 128.4299926758
49.4036254883 15.6669826508 97.1595993042
135.0988159180 65.6740264893 157.7399902344
129.3243103027 61.5940742493 155.5823974609
56.0942993164 18.7040767670 139.4024047852
74.7297515869 12.4700002670 152.0700073242
96.0159530640 16.1388015747 158.8268127441
63.4816627502 19.5393581390 137.1704101562
127.2440032959 59.1122055054 154.4199981689
59.2231941223 16.2845783234 127.8079986572
56.6359558105 13.0888013840 143.0568084717
58.1688232422 12.6640262604 143.4199981689
88.6640014648 8.6922063828 164.2700042725
74.4840774536 6.8428425789 156.2599945068
56.4749870300 25.3069267273 152.6153869629
113.4317626953 40.5868034363 150.1610107422
138.5567169189 70.6097259521 151.7099914551
85.4608688354 9.5929698944 171.0599975586
133.6585998535 67.6056137085 157.7976074219
105.3132705688 28.7281036377 152.0139923096
95.9716644287 18.6393566132 168.9104003906
120.5816574097 39.6293563843 156.1304016113
83.0140075684 4.0922069550 164.0000000000
75.0391311646 10.8358612061 158.7140045166
58.3138084412 15.6872053146 130.3311920166
103.1389694214 28.3892650604 151.4189910889
61.3186035156 21.8556098938 116.4176025391
48.1936225891 21.8869819641 102.8996047974
54.5472221375 17.4653568268 126.3799972534
120.1379165649 50.9276199341 162.4369964600
106.1743011475 35.6440734863 151.4523925781
71.4240798950 15.7428426743 159.0299987793
53.1397552490 8.6999998093 87.1500015259
46.9036254883 23.9169826508 99.7196044922
117.0872192383 42.1153526306 151.9600067139
127.1082839966 57.8633766174 154.9459991455
63.2722015381 17.5898685455 153.4899902344
55.8939628601 19.3700008392 115.5738067627
107.7721405029 27.2369346619 156.0731964111
57.2308654785 13.0829696655 157.5399932861
58.2039642334 11.3400001526 146.2638092041
106.2642974854 34.7340736389 150.2723999023
136.8343048096 70.1540756226 153.7523956299
58.7916641235 23.9293575287 154.9104003906
55.4088211060 10.0140266418 95.9399948120
118.7036209106 55.6369819641 159.7495880127
87.0940017700 6.3722066879 163.8899993896
129.1746673584 63.0623474121 160.2799987793
51.2117614746 17.0068054199 127.6209945679
70.7922058105 11.2698688507 154.4899902344
57.7542991638 23.9240760803 151.2723999023
55.3067665100 18.6720161438 112.2645950317
134.6539916992 66.8222045898 150.0899963379
78.5049896240 6.0269255638 169.0953979492
48.4187469482 15.6959953308 99.9986038208
85.1446609497 11.8423471451 169.3999938965
101.6922073364 19.9798679352 159.2399902344
56.1051445007 23.0000000000 124.7329940796
57.0099945068 24.4652366638 150.6973876953
99.7452850342 16.9469242096 164.5940093994
62.1742973328 21.0740756989 112.5423965454
55.2633857727 15.4098682404 153.4026031494
60.2267684937 14.6820154190 117.6645965576
107.8936233521 36.7369842529 154.2295989990
63.0897560120 13.9899997711 118.4499969482
54.5592117310 13.1475934982 94.4981994629
63.9786033630 19.5156097412 156.7776031494
56.3716888428 11.1273679733 127.0900039673
56.2427253723 23.8401031494 154.1889953613
60.0533027649 21.2426948547 132.6779937744
56.1188240051 18.5440273285 154.8199920654
58.2797889709 13.5257148743 138.4618072510
54.5087471008 15.9359951019 123.9085998535
48.0008659363 20.1729698181 108.4300003052
62.0608673096 13.3129701614 122.0600051880
80.7216644287 9.4793567657 165.1804046631
57.1232757568 18.9081039429 140.3439941406
79.5438156128 10.5184783936 158.1013946533
58.2797889709 13.5257148743 138.4618072510
58.1167068481 22.6097259521 132.6900024414
54.5197563171 13.9300003052 123.5299987793
50.9999961853 16.3108444214 112.0600051880
116.9367675781 41.4320144653 156.5746002197
48.4774208069 22.7398662567 110.8499984741
128.6740722656 60.1628417969 159.3600006104
60.3547821045 20.2153244019 127.9010009766
136.2264709473 63.6412353516 157.3099975586
52.6622009277 7.2498683929 93.1799926758
123.6436462402 61.0278282166 155.2339935303
93.0525817871 17.4599990845 164.6080017090
59.5227241516 24.5101032257 152.8389892578
56.8040809631 18.9428424835 143.6199951172
79.4383926392 10.4679622650 157.2460021973
60.4839630127 16.1100006104 131.3538055420
132.2140045166 61.9022064209 156.0500030518
63.2297554016 8.2100000381 143.3700103760
105.0567092896 25.9297256470 164.2400054932
50.1659545898 11.7288007736 128.8368072510
113.8355865479 37.9259185791 158.2989959717
117.9188232422 43.2840270996 159.5299987793
115.3407211304 41.9566421509 156.1760101318
95.2182846069 12.2933750153 163.6259918213
61.1752929688 16.2369232178 107.6140060425
83.8340072632 3.9522066116 163.0299987793
106.8288192749 28.7540264130 159.3199920654
