201.4939362278 114.7288877069 247.7823716045
199.3230091947 119.8554139154 236.5999119918
231.7441914876 144.8576239288 221.7279159230
205.1662058358 102.6909428095 217.0602241013
222.5532871660 75.5151948207 219.7106263548
219.6683806023 76.1909280825 232.6451532968
209.3192314238 105.4773708057 261.4718423919
203.3848470053 128.6153579267 222.3655733971
219.1545473503 75.7156219075 230.1721288156
204.8194704246 118.5030947769 228.8121675899
213.2857401499 133.6455243503 219.8283239277
205.2370783457 123.5201817916 227.4640747813
196.5580475228 109.0579861390 250.5598334598
196.7788054749 112.3941063162 248.2138727605
215.2707886290 106.4527004712 210.2669533967
226.7763156724 89.7894910947 256.6917835091
219.0153578879 89.4944583116 252.7691246399
227.1563834808 98.7447983745 253.8097389389
233.9768414890 78.6761883297 236.5765161938
208.9324287057 99.8194426332 252.6054364195
193.5294175887 116.9304008830 237.5368713494
214.0997216007 106.4000591790 258.7116816395
217.5803132196 111.0076968005 213.5851294507
217.8582039454 77.9010740283 220.8192055611
236.2681420661 81.0371516369 242.1110867286
209.2301303335 104.4931254068 263.1482716598
214.6809750766 105.1264721971 210.8473180284
227.9706934949 77.1948419820 235.5383323936
225.5654303284 89.5307279298 247.7692638474
203.9394836869 104.2471137612 209.7030081778
208.2861763769 126.5983379792 221.7002560515
227.3781388491 94.4635644453 254.8021064746
222.4611932197 88.2627323366 245.3069696542
226.9984290945 89.1704890144 252.6951531117
228.2181666816 143.8012372860 221.3730082545
214.4981275548 89.3495514064 215.7538981432
218.1986450603 99.2080879257 209.6099707225
200.5456126344 111.4705786912 245.0289044736
221.2879449240 139.9124637513 218.8409339115
231.5270932009 99.8738023789 246.8680582225
213.3750521865 106.4589471369 215.1237978395
223.3562770144 90.1704980243 247.7429157415
228.3928246356 75.2035737716 224.2152882033
232.0607691022 78.8974715509 241.3419330467
224.4838466616 89.6620964199 248.4172774820
203.7430143472 103.8609675511 256.4299818139
232.2045091259 75.8711439233 226.8305416389
197.5716494830 119.5617927696 241.6656032461
223.1265135320 74.9597492185 230.4222639526
229.5683882382 83.7856693768 248.1438690497
195.7324258894 113.3289598427 246.4435983716
197.4638163813 109.8486855427 238.6683817922
209.9377739269 103.6626189380 223.9817961654
205.5420705774 104.8273220531 252.2107872827
201.9561000934 121.7320902681 225.6167874270
197.3341365813 113.7433980374 239.8253451156
215.0395232463 106.5168082914 217.1081906179
205.8751729654 101.8916057853 257.2427983245
221.0216205188 97.8678105853 215.5394390450
232.0607691022 78.8974715509 241.3419330467
219.7767820904 90.7984591489 215.9400567806
210.4897795102 136.8803315101 217.0336197183
228.6876317955 140.0365911488 221.3831499783
215.1176671640 80.4624688462 218.6090450200
220.7627757005 90.4816273940 254.3078936477
194.1823537077 120.3520738314 233.1832903781
203.9129035115 118.6724357018 227.8177410007
225.8692677102 82.2609408418 240.9575732342
226.3822435084 76.5424513678 238.0831827469
220.5717809380 83.3541837424 214.4954862437
217.0797203212 136.1693116385 213.9387948199
214.9769273672 84.3388407622 212.9941103093
212.8137980342 93.1271825478 214.8010266628
213.7366846068 105.7867570692 260.6820199541
229.2752465855 98.3781403927 250.4905135641
210.2227846836 102.3038184778 216.6187799580
226.1541082146 88.2180193586 251.5648841040
202.6507391801 123.5747115833 221.5024462909
205.1092745984 127.8280382915 225.9921962090
222.6111534887 89.4342024590 253.8832350405
212.5165161530 78.5285484872 213.0230812060
213.5407684059 92.0847191515 215.1841130004
213.6548134927 125.2729539234 219.1074336221
226.7143905647 86.3689103220 244.5555750331
208.6114252895 131.4740605928 218.7741584379
205.5629502559 125.6318192555 227.7885530694
216.9610605562 110.7413704183 214.5361578191
221.2178749936 102.2577255938 252.4988358382
210.1417803326 102.2950904330 218.4644419355
229.6725182822 78.1669549141 222.9636175215
226.0457416252 140.7876493234 222.0368645945
222.3639159256 142.7613851489 215.6813846646
219.2905939848 85.9816930622 216.0370256691
210.4971000782 103.9884872343 223.9537560355
222.9818168498 72.8760049009 233.8733458910
221.2014740424 108.8534024218 260.4295780045
214.8773153206 102.7145388310 222.1555085547
238.8191666898 148.0085738800 223.7047750911
220.2247495948 141.4081253918 219.6786647317
231.2770588436 85.1506928095 243.3742085660
199.2548938506 122.0229782184 227.0133851835
215.2707886290 106.4527004712 210.2669533967
198.2714745224 106.3901221373 252.0578368363
207.8794116703 120.3076551351 231.4141907625
199.7757560627 122.5638001917 232.5386555639
221.1835185116 140.2770427459 215.2035259780
229.4553534399 82.4497295411 253.4988419543
223.8861187629 104.6307269277 262.3722986859
208.6858403674 108.3126278346 215.3471092628
223.5090967558 82.3735419970 218.3011646160
230.7782425763 83.1074050336 236.7477888477
215.0480800897 87.2935439870 218.5296885598
214.3443249102 107.6316439924 214.5004028352
195.4599682349 118.0100639367 232.0996306521
221.4321359524 84.5419612003 215.7245284776
223.0550362891 78.6803095509 222.5928607671
196.1892229573 114.9238960545 235.8554166767
229.9058219430 75.5535016049 226.7932260114
214.9664697215 105.4830228121 255.1695861757
208.9610423848 109.6797084185 221.4154338924
220.3399049372 105.2087445875 254.8508497132
224.5795102231 92.7985695973 258.7507076384
205.4428352676 102.5653833482 252.7419724195
208.6831650290 98.1267509564 255.6133482662
231.4572660005 146.6132217266 218.3186019502
200.3312848263 110.6718666413 240.3735248408
233.7269732679 142.8735115714 220.3733103630
209.3525040078 109.5874822223 220.8912707269
218.3479203222 135.3078974054 219.5590512463
190.8504232606 123.0104170860 228.9481733939
227.3595168024 143.3721482394 219.0106071932
226.3162014146 79.9733414660 225.3612531679
199.5045286372 104.4378803904 249.3182645891
205.0142458194 105.1789990092 218.5580413009
208.6649560930 133.1777176371 214.3613816448
216.4080560822 103.1982378835 214.3874538146
213.9069422100 80.5307805043 212.1714922829
195.5244941363 107.9790881678 248.9266835886
231.1769295298 76.3442186436 229.3765842685
222.6580544166 135.3504882725 219.4338682840
204.5591632595 97.6408917156 257.4673098351
217.6237236813 92.3121763807 213.5247067971
224.0582780318 79.0157877932 233.1738012245
235.7996163022 82.1184257506 245.5596225385
216.9680915527 105.9700080450 209.2576584216
201.0290892432 124.4112865381 238.7173716362
236.2476506965 149.3138214080 220.1484976324
211.5549074805 94.6767022236 219.2713550446
224.1037657607 141.8738656366 211.9315362341
199.2312917588 109.8675144042 238.8636906080
208.2639974766 104.3860995819 220.1156953183
216.4270296891 103.4669684379 212.7562773478
209.9743096550 100.2608691231 218.8770755149
228.2379606555 139.7323934651 215.9585847832
215.1199524328 91.1183793463 210.3766564680
229.8002840515 75.0970357142 239.2558407813
213.3991287582 101.8598766756 222.4739078451
237.4977303270 77.4453273813 227.1541083761
213.5407684059 92.0847191515 215.1841130004
222.8973150245 74.4078041536 234.3109082391
216.4080560822 103.1982378835 214.3874538146
222.6398079778 74.6652688571 234.5009460791
236.4652222250 82.2034565687 245.4920010312
217.3382900459 98.0203104678 208.3809284887
209.8301091219 123.4529237312 217.3196782010
234.6186644509 146.8157188647 225.9266853150
214.3784672286 133.4970601324 213.6980891344
219.0450517949 89.6991554376 251.2085438529
213.6293482218 101.6408299593 215.0777619617
223.0661046146 77.6237387276 220.6869065445
200.6557854165 126.5314707656 221.3031106561
217.7383780219 102.4869982015 254.1726851454
228.7638667198 75.2434432081 233.1239166639
225.9164965627 79.5136273031 225.3306570670
217.2019677334 76.0525929773 219.7897938789
227.4660337094 99.8411770901 254.5513988854
222.5467613402 86.7098348576 253.7090059147
217.9028062949 81.9274129084 218.3274472484
226.9695476073 73.8683730069 217.3252799863
225.4720445685 98.0893453034 245.1537250319
229.6967950175 76.3292717913 229.5320168754
229.7711599566 95.7837081691 249.5804976812
217.0275111714 86.9451178459 254.3071007131
198.1792478715 107.3264220436 254.3118311810
195.6744606751 116.5714121765 233.0017973062
194.2141544632 125.9400661994 231.2555224485
211.2637348508 107.0480745843 220.0300705925
233.6029560385 78.6514446818 243.5259584568
210.1556813263 101.6089632952 219.0999111604
228.6900263324 138.3964878743 215.2941339510
218.4960431710 95.3338785962 212.3417016812
206.0265910408 104.3879017151 219.1654015636
230.3723817736 75.7908837141 235.8359060731
222.0625159813 86.0306810123 251.9138548248
221.3213777331 109.0765125978 214.7484068215
199.2915504088 126.0228704443 230.6738738587
213.0893579805 100.3846593186 210.3005476446
221.2909079303 101.8267412364 215.1509828287
208.6152033528 102.6781423485 259.5969467527
217.7120084490 89.7552023144 217.5594622305
196.7172201688 118.2374122670 241.5886822665
216.4362375683 108.8915599233 258.7536904732
204.9281336015 102.5721841726 258.0592256080
222.9624458420 75.9795694775 234.6443457837
212.8728616881 77.8229000287 219.0985100719
226.7719867304 99.4595989507 258.0085356225
223.1100202355 93.6752724699 253.5386653330
220.6856228088 89.5431065756 253.3836269358
221.9902078040 106.3616316242 256.7835882899
227.4180272853 95.1989967613 250.6747045203
225.0879647353 85.6450404099 251.6486315736
199.6274453015 116.5133823269 242.5281170382
209.7217799159 103.6937702533 226.8059459912
230.7736706252 75.4825943230 221.3484159142
217.9217708450 92.8367363509 212.9274226265
195.8560916089 118.7486151969 239.7738183009
235.0008029513 145.8902752313 222.8907215865
220.2302561843 140.7130136869 214.1697662658
195.8610809935 116.2991466461 243.2784413804
232.7197739213 151.4594706598 222.0394613523
208.9044424410 104.3186978283 256.0435920670
226.9370496297 74.4612955662 223.8565344800
220.5589073801 138.6500752539 220.6803899906
208.5068670671 109.7751305483 225.0750785456
216.5119006750 98.6030571928 210.8191947792
218.7361740017 74.9500550346 218.4671916862
205.1262902191 107.5020161016 207.7891531636
224.3517762766 96.6731070635 253.4043587291
210.5271091272 101.2305870475 259.8684590229
209.1534033770 136.6878784536 211.5219656443
195.1277622160 120.4745112632 237.5035446356
229.7522778215 76.1979591146 224.6935417229
219.1249450065 78.7678370659 219.8813349880
225.6824319393 85.0570736989 242.2422415376
204.4347266293 128.9408631064 221.5903972941
201.0811454264 122.2224772215 231.3812696300
213.8844522220 103.2305874414 217.2039174421
225.3957522998 80.8656034360 222.2428502812
211.4282161130 96.2149326942 217.3491780192
203.1232385405 119.9428284711 228.1131220299
217.0568644936 134.7645384226 213.7118179481
220.6944405548 88.0264089793 253.8614968133
197.9635965765 105.7562027003 253.3770548622
209.8129840364 131.4736893212 221.4089575696
198.3440728886 113.7460476319 250.6815821201
204.7584401405 104.3971954732 258.1973952976
217.5419548484 109.4760246160 259.3312029130
200.5159445383 115.1103313506 247.3560216894
205.8572518821 123.1334163178 230.9183590705
225.4636166778 136.7181183973 212.6382984809
207.5165388826 122.2109186268 231.7111909238
213.6637603044 102.0031730047 256.7259998582
212.5867518132 104.2881158818 211.1374110719
231.9220811457 81.7567521603 244.6628949163
209.4988440756 138.1071518762 212.9493826731
209.9112819815 98.5302322250 253.9299503935
235.1114629549 140.9116722136 220.8091963749
230.8676937415 75.6700054993 226.3930026902
221.6064748122 107.4824312701 256.5079327621
233.6459504014 141.1886943436 223.1784303343
227.3423804581 87.2358996969 245.4526823284
220.0556389221 99.4315606725 255.9433540070
237.0959879276 150.1434066956 225.2492323409
222.8692033549 79.8070948821 231.8413279974
221.0947152168 88.0167065631 253.9886750958
220.8604498386 79.0445765568 230.4879966688
216.2054795519 97.6863678928 210.6481548437
199.2295828161 110.4961736546 252.0319001998
215.2445138101 104.7599395994 223.6505020981
223.3940842157 76.8313493224 218.8854707079
207.8771765229 101.8614853533 258.6451314038
225.4970571433 84.1186403974 252.2536797337
198.8008004723 118.4440097908 233.6626513571
203.8951004315 107.0603811072 208.6717961764
213.3750521865 106.4589471369 215.1237978395
205.1586221539 106.8583615973 209.3537653163
217.5803132196 111.0076968005 213.5851294507
220.2148292316 103.4457118404 259.6746859499
213.0621150172 79.3969179762 219.9140814422
229.0072815615 138.4816973675 214.0707640547
207.8194947164 124.3031703677 216.6298742279
200.5677502862 124.2369179297 230.7293123762
199.7093853512 108.0823085409 255.1467845292
205.5535787564 101.9940039495 215.9597130406
214.7763060692 140.7190872561 218.7294464129
228.3245497119 82.5481694425 236.2238681111
201.5168929022 110.3295565932 247.3275938136
191.1999859941 121.3173316305 226.6627192603
218.8925293146 97.1225596817 215.5438688443
205.5629502559 125.6318192555 227.7885530694
215.1730520011 93.9650613753 211.3822601225
208.8695171370 134.3641763956 215.2021591787
210.5775523203 133.4426892248 210.1503952604
209.1060411502 104.9850531523 219.8426506284
227.5175803212 146.1124676147 222.2215921911
221.2178749936 102.2577255938 252.4988358382
196.5993683783 104.0973533870 250.8115702429
204.5254391581 119.9451922648 233.3284117562
229.1489458857 76.6519264741 239.9540146520
232.2511405137 77.3191321011 235.3329833336
210.7573046087 125.6928189789 218.7360831065
212.4583753064 125.7378373769 219.6581128304
204.6796383037 129.2850312960 222.2996757423
196.5341010759 124.0955880034 229.9747946403
211.1477228747 81.2932694656 219.0125511140
202.8916556488 120.9507814644 217.8773542682
234.4254216018 86.4962766110 242.6690810077
210.5501165454 108.7462357897 213.1129067937
215.4884486934 103.1175585232 216.3294727923
205.4494580426 99.6203439909 216.5171358015
227.1959322103 82.5550320376 237.6467808274
202.2248156204 111.6425219650 250.4079692570
199.9232574651 123.1848058757 226.8226390158
193.1404679723 124.9341539334 228.0667664806
223.2363266230 85.7625602181 214.0113896630
206.6168824362 130.7586079743 220.2040422486
222.0183108686 86.5760332056 247.5806333706
211.6974571326 136.4792488978 211.4640162357
233.7974317083 85.6292872361 241.7719737123
198.9041940038 108.5425996842 252.3153843637
229.9813087809 84.3949302790 252.4998894777
224.2297521774 78.9085965702 226.5398811237
209.3192314238 105.4773708057 261.4718423919
210.9883899973 123.0652319871 215.9328782255
199.6435684675 117.3251893686 244.9460566165
229.9804913435 76.8091020971 229.9272634769
228.2936135499 81.2222310176 246.3967639658
213.6518099089 93.3310137220 213.6598818844
227.3902951533 81.5810560545 220.8129664705
225.9149538633 93.2678934436 257.3693634168
236.0417219824 77.8260147987 228.4450388905
215.2668488404 134.7909663663 214.4854107625
211.9117296848 128.9405054594 218.6106597535
224.5274002087 88.6433470252 253.0071628111
234.5962608176 137.7462740081 222.3224973135
222.6911052444 93.7720207583 255.8836728724
225.1372978708 72.8933740882 219.8881736831
209.3480620520 79.6058337119 215.4022351029
215.6175359994 134.7478775256 218.1811615707
215.6855785167 93.2795929393 211.4698203849
224.1021301598 86.1054888023 252.9931267322
214.6809750766 105.1264721971 210.8473180284
217.9217708450 92.8367363509 212.9274226265
194.4492344838 113.2024140684 241.6509652782
200.3312848263 110.6718666413 240.3735248408
209.5702608282 100.8711162032 220.8264151921
229.7718518143 76.2593285145 231.9252865512
205.9473396147 107.1872103065 217.2767626707
221.7150974880 89.0179682107 207.8861962578
193.9771731889 107.1868238191 248.8035034642
232.7197739213 151.4594706598 222.0394613523
205.0979188239 104.1087171765 206.8713747929
200.5159445383 115.1103313506 247.3560216894
208.8326982483 130.9616770216 215.8736875174
231.2996728666 147.8189433829 223.8315458829
219.7229462060 100.9366541941 216.0630397206
209.7425489442 102.3229841758 253.8564505683
231.5304873131 148.7281315050 217.5180191319
213.8114487445 129.9854051972 218.4074411484
211.9639998885 93.1503022111 219.8764032048
210.4897795102 136.8803315101 217.0336197183
200.7494444841 123.5938042741 237.3634651060
206.7704047068 102.3118530333 207.7074605482
212.8384202792 105.8896576298 225.8755564172
210.6050388217 136.7467731504 216.6544172161
216.0558316867 103.5238159388 215.1973008593
205.0769092540 107.7709999978 256.2314256127
227.5621867735 80.2381811545 227.2852163069
220.2395209970 99.2031203018 212.8319905877
218.0774260928 96.5857316323 214.8451808418
220.6530232541 96.5481800863 211.3036339368
222.5467613402 86.7098348576 253.7090059147
201.9624876174 112.2775982165 246.9225624217
193.4863597906 120.1639181523 227.4796630362
207.3547619148 129.5670899205 216.3703940709
226.6986707629 74.3752097744 230.1584456953
233.7111039536 80.5301085856 228.1134505325
230.2298619837 82.2663833866 245.8079835992
228.3928246356 75.2035737716 224.2152882033
204.1791721160 99.4612708589 217.8336704717
230.5365042268 79.1675323762 230.0715462657
225.9192083410 90.0987825156 248.1280916522
214.2260126373 94.6456397624 212.1986874059
200.1184954743 123.1541540028 237.4165767344
212.0314160071 95.7895783137 215.5694277110
224.2652185810 83.5498477890 251.6321068718
198.4311953945 124.8350929863 229.4448316248
214.8415598017 134.7035159973 218.8461368148
224.1153435562 83.2446243590 243.1632127248
199.4429282682 101.7116423117 253.7325877094
198.4851376074 122.3981056004 235.0143498111
227.3897986125 84.5491145355 241.2195443564
228.9233473416 85.4328016072 241.9070190628
210.2569256731 104.3088078156 221.4971399009
208.3181917234 120.3165680248 231.3879823479
198.6564756247 122.1164126440 239.0758313770
228.2143600007 92.7403313699 253.7584582929
227.3240007345 140.0831404478 216.2906662565
213.6731355140 105.1475649201 226.3907827030
219.1146561568 89.2717346711 216.2027551772
198.2784015052 116.8440550681 240.6051671999
219.9707890433 89.8814605560 248.9599893150
227.6816241877 83.7272183727 239.1285549724
210.8987358669 105.4321427265 264.4656758210
205.2455335317 121.7996970201 219.8610125856
218.1986450603 99.2080879257 209.6099707225
207.9681598878 126.1941574034 224.4425623879
215.6538181472 87.7637793143 251.1869006513
209.9282372608 109.4269943335 220.3718353821
207.0640450338 109.2913111233 223.7520750231
227.1416981448 90.2670399520 254.1840395022
231.8670428766 138.5656125224 224.3770609901
217.7485348782 83.5253224426 218.6463675065
207.3539813184 119.1302479524 229.2303840172
199.2947346490 121.2265650756 242.0942671344
224.5633048105 100.7459414428 251.2178484751
193.5439801816 110.6721851766 248.7303340130
194.4203976888 111.2616555826 241.6573006930
198.0365445548 103.7650111773 248.6016409296
208.7433572011 127.0897208129 223.5326551502
206.7791396796 122.9924687015 217.8004120567
226.5323458867 81.1257671558 232.4676214206
202.4808263241 119.4088185627 238.6835566581
209.3322410777 111.1922796173 222.7766391233
221.1317612726 88.4813937969 207.8669347852
218.4822125808 79.1372915980 214.6347410342
225.5654303284 89.5307279298 247.7692638474
207.3638271872 124.5207841150 224.5078596621
228.7337735756 100.1235577289 251.9371811032
226.0394945848 79.5476814196 226.7321170117
200.9292288827 123.7218904953 230.6557805460
206.7538115761 106.1723086433 215.1906992950
230.6261367764 81.2735753822 226.3293767540
231.6740901442 146.1443012943 222.5162787059
205.3499734549 124.1983172670 228.7362531015
204.5935914025 119.0049763935 232.3089063994
219.9549296231 138.7584249242 216.8763407297
219.5847828166 97.9950568230 213.5023147863
218.0408022229 107.3820154705 216.5971771723
222.6487952620 138.7497779976 212.4040384439
206.9490747330 102.6342834677 214.4920873794
230.4135318396 77.4529370146 233.5429407240
219.5475672353 133.7518295384 216.9769266519
226.9984290945 89.1704890144 252.6951531117
214.2585532036 78.9320345227 219.3634022338
218.4194349648 94.7964676760 214.2175806537
228.3136551429 142.0097412487 216.4559550119
212.0646515276 107.6204289452 215.0366938461
213.7637366645 91.3055203211 218.8509314149
225.7645184721 81.5983943566 243.0376973696
220.7892437666 94.3102734020 258.9666701941
207.2660791461 96.0684605116 252.2845891044
205.3428550162 109.2794307306 252.9642469195
211.3288904009 107.1116147189 257.2851165266
223.0231721156 99.4704944562 252.5716511205
205.3634371752 130.7388654129 222.7901644871
224.8616602574 80.2740667869 234.1552429221
225.3473546976 99.3377469081 255.8567307695
220.4440896310 110.2292353724 256.9765830502
220.1760970010 98.8408921960 214.2235872102
228.4465033987 139.3163995671 212.6065542813
210.2774854146 132.1114539073 221.4222219162
212.5308528161 79.6121639850 219.7261102600
221.3105212744 90.0536071316 249.1110215336
213.8105392972 104.7470963007 210.1343576661
210.2551248420 128.5161494773 221.8740611839
208.7569662217 96.4373601209 252.5305998205
221.8402300100 139.5560207220 212.7818439335
213.3201390252 103.6647716533 262.1086659771
196.7788054749 112.3941063162 248.2138727605
212.3809297381 135.7355818455 211.9752131718
231.1673544858 143.7339825663 222.9650744892
203.4409212977 121.6225633689 238.3026420266
202.3029296858 119.8294286667 229.2056633332
233.3465649139 141.2727172949 218.7573375142
212.8375948025 135.3470248124 213.2800874002
232.0953753815 75.5160145761 238.2759895200
221.6402670159 106.6009199404 254.5321675282
223.5387081137 85.9627863648 214.3356063056
229.8503852961 84.5593725209 245.8320540346
227.2163212761 142.6020449789 222.1422399141
229.5683882382 83.7856693768 248.1438690497
214.6306427269 107.9284363655 260.6806539650
214.2053991040 87.9751075785 216.2966051603
213.8370148644 105.5185818968 264.0185995545
216.0238282659 134.8107755355 213.7862138285
204.7749495999 103.5488619886 252.9181469349
224.4307272831 82.7158452507 219.6530254620
224.5319302829 139.5245589644 220.5897239769
217.8416873907 86.5597546629 255.5475838947
206.3753879680 127.6435648846 217.0964145863
215.6285196527 102.9852480802 216.4575213999
210.7603856914 137.0797124283 212.2071813836
224.9930533586 93.4065766304 256.8269136748
195.9791287646 122.5323641608 229.1042460757
220.4431791312 75.0910940105 218.0615746374
220.6856228088 89.5431065756 253.3836269358
221.1317612726 88.4813937969 207.8669347852
203.4741686036 104.0350327715 208.6822745417
217.1927546142 83.7156939763 213.5011504812
212.3187860376 95.4679929706 215.5696366583
233.7562406617 150.5532766772 222.7137749203
227.8988097222 81.2598389233 250.4501473230
224.4788855191 81.7567918111 221.9842803160
218.8942934552 90.2419811783 213.7614573635
219.8678809122 141.0514081314 215.9689162973
218.9061048035 110.5737753689 213.1247858843
207.2390248670 105.7264341532 258.1449268541
233.6561395810 81.6243255145 225.4536237039
224.0904313995 138.8634429649 210.1255536510
201.6467149428 102.5152740794 251.4808922781
215.6855785167 93.2795929393 211.4698203849
215.4700565404 84.7340470405 218.0599004083
199.5045286372 104.4378803904 249.3182645891
234.2225592626 79.4323806013 241.6986363248
228.5523279797 80.3270482406 220.4592652882
215.7093819479 103.2095258260 215.0009339691
211.4272421529 106.7809932788 216.5200261635
199.3448160873 122.1162311118 226.8429145862
204.4677574397 124.7708778892 229.3518955098
226.1522486751 99.0073378528 254.7000375235
213.5125076602 94.2142205523 220.4007965494
211.5509569000 129.6289411459 220.2081318973
219.0752128788 78.4042137445 231.7678416678
223.8783246309 106.6423169634 260.8242651221
228.8269117525 140.9171938436 214.2225271301
223.7132201296 93.2499180895 251.7589150248
226.3424209926 75.7107581220 228.6884293693
201.9561000934 121.7320902681 225.6167874270
224.4475622108 93.8883048245 251.3347400925
214.0148264138 139.9131148031 216.6892659051
210.5468220943 129.8914806243 221.0984304820
231.2590192487 78.4316036668 229.1261009847
214.8006583945 137.2717644627 214.5840673398
208.6853079769 105.6917083309 256.4787975590
223.4571341789 140.9120418012 211.1887241236
228.2144325662 139.7478105989 216.9871377380
224.5489198309 107.6526757752 255.4274022391
222.7858891753 84.9380034747 247.7605436171
211.7850989725 106.1824664838 211.4606196479
202.5319661738 123.0972913225 239.6951288487
208.9016477990 97.7875777053 219.3026567242
219.1658255839 133.5311755932 218.3805577165
209.4988440756 138.1071518762 212.9493826731
214.5257888343 104.7928185584 221.4515888482
227.6549749605 81.8060592713 233.9976306453
218.4442362379 78.9598861366 222.6862531240
225.2978193608 97.6829573502 254.6231165438
230.7782425763 83.1074050336 236.7477888477
232.2818754939 140.9783370409 218.1377786212
223.6656026072 138.0136203749 220.3949789102
211.9137022265 94.3269561410 214.9342016369
233.5993218025 145.4776164426 219.1034370293
209.7217799159 103.6937702533 226.8059459912
236.9533956365 150.4363409590 224.9054343280
234.8141478246 139.9272512696 222.4814711844
219.4094961264 107.7849370501 261.8333861088
216.7067490568 104.1239361802 212.8298935833
209.1534033770 136.6878784536 211.5219656443
228.1784300488 141.4075209505 216.3675872362
229.3445397802 75.7207606560 233.1855070917
218.4053613207 108.0474765284 262.7236846934
221.5466419556 106.6339358934 257.2646332642
226.3861785210 88.8117692035 249.4019801533
194.4454450584 110.1914903407 253.9401504993
226.9439583290 80.3336147288 218.0699165509
209.0519396291 128.4688393433 214.7595960126
224.0863324695 94.0972445968 259.0293750371
231.8093207622 83.4981347194 250.9872925553
227.8988097222 81.2598389233 250.4501473230
231.8976510752 149.4914195427 223.5271573467
197.1884226511 110.3277424425 242.9223581805
223.2889541853 83.8273710841 245.6014790153
215.2028260047 97.6872695865 214.2951861675
212.7259292244 95.8433121816 215.1258302569
198.0133056202 114.1072935937 239.7409647961
218.1345853534 97.9104918797 219.8115572882
226.9853811701 88.2892423180 248.6930768236
200.5261212062 110.2686526960 238.2134523792
232.4393230256 76.8593005427 227.8280637828
196.7172201688 118.2374122670 241.5886822665
213.8398116777 137.6416017974 217.2324743518
227.5416618693 92.8425657771 255.9270847097
217.5838812235 77.7721086787 221.4572108900
223.6656026072 138.0136203749 220.3949789102
206.3753879680 127.6435648846 217.0964145863
206.3599271693 124.3046648525 225.8419419695
195.4013480167 116.7165247801 246.0158930772
220.8379741693 99.5792941795 257.6956107964
227.1558000188 81.3833520870 235.7553664722
203.4741686036 104.0350327715 208.6822745417
213.0309056831 123.5706340843 216.2698988740
220.2148292316 103.4457118404 259.6746859499
212.2863879240 107.6604703830 212.2110045127
234.9335956378 149.7424668866 224.6433438258
229.7718518143 76.2593285145 231.9252865512
197.5630516912 112.1106242477 238.1371966553
219.7229462060 100.9366541941 216.0630397206
204.6181863219 103.3822087322 210.6294769129
217.7771164667 92.7372249504 215.1475559996
197.8958867015 117.1210787607 233.3683482131
216.6115508500 87.8405026207 217.8209700358
219.1545473503 75.7156219075 230.1721288156
230.9243879993 82.4975788521 232.8261889324
206.6447746918 103.1282936507 219.9966391406
222.3160798640 77.0094782025 216.6983048233
217.2671693196 104.4387047281 261.1926978408
217.5278485221 109.6059991356 260.7670896419
197.5816329221 109.1567302131 247.7767297270
200.1465732585 119.2709502204 231.1915036686
221.0798315374 87.2822552191 246.8746873801
196.3613746389 109.5331250991 253.9823057476
220.3189662542 83.3077920344 217.2700528298
195.4123419559 117.3331817253 239.6528952242
229.3855038943 77.8437879080 217.5195627836
198.0365445548 103.7650111773 248.6016409296
217.6676269210 87.4886521539 210.1339645798
198.8569509521 112.3004328647 237.9266786434
220.2395209970 99.2031203018 212.8319905877
214.9391504027 107.3260819377 261.1138709959
207.9664669672 124.2934215104 220.9814624503
223.4371680134 78.6625424593 232.6941136015
214.4430115718 137.2162474170 215.4527240436
232.5885581333 80.1504395200 223.9285349878
219.3223286498 100.9714546965 254.6012793161
226.9095874595 96.9148539358 255.6619156574
206.3527086572 106.8714932758 208.3433630035
203.8488208466 108.6678047824 254.3705816460
201.5168929022 110.3295565932 247.3275938136
223.4703568447 94.5773851133 254.2179391042
215.2043941936 102.2572242529 215.5191531312
216.5611105493 105.5908499410 215.9038915830
222.0769077484 135.5078349648 219.3838894366
233.0344702670 140.7579100100 218.0723344177
198.6410291984 110.0837785959 243.2843227730
198.8330544510 105.0426461207 255.9573992576
229.9801230753 79.3969218213 232.0463668480
218.9715506649 84.4858595984 216.3934499814
209.1235181536 132.1138096925 214.8425178061
208.8873082678 101.8811667705 213.5999880764
196.3081277607 119.7638122795 240.9836341064
196.2148040233 119.1122893377 230.0853435550
225.5243903868 77.8012953525 235.1354117970
225.4579376255 89.2798587954 253.5953277532
217.5441110545 91.9440322700 212.2159026110
232.4020547041 79.6401406517 238.9458746142
208.1478860545 104.3787552425 253.7585605680
193.9526368220 119.6835472769 234.1946317259
215.5813533893 97.7000132275 217.9801343870
205.3793898588 129.3308105451 220.9356895863
219.5446140938 140.2727093403 215.9952599573
228.4097540054 144.1909919259 218.4718916409
216.2505105666 95.4043781240 220.0533834258
197.3820053690 111.9687519358 246.4341224523
209.1708330077 131.2525027731 222.9822946681
233.9360570030 142.9727864720 220.1080089809
204.0095274235 103.1612106061 254.8590104475
215.2474963956 104.9185293874 260.7806908470
218.6996339860 140.3092961977 213.9710188470
221.6001231920 103.3442848874 260.5674623993
214.6809750766 105.1264721971 210.8473180284
214.4756700220 106.9323388927 260.1098916996
196.7172201688 118.2374122670 241.5886822665
213.9686436619 83.6231583131 214.1384255960
222.9272985098 99.0759607655 256.0866465890
223.3795541219 88.9787636030 209.4576171212
231.0497295941 75.2655566592 223.5750441467
225.0501298698 76.7308890129 221.4812071416
214.8975274893 132.1145673447 215.8243502878
200.3312848263 110.6718666413 240.3735248408
221.4936733825 105.8981225262 252.5956925176
230.4747761810 78.8491978509 233.2150527207
215.0977210640 106.3568242652 257.7065123545
230.0999273201 98.3842064412 245.9735756261
234.8779255342 140.2857791879 223.0593828886
223.4401869240 92.0833775971 247.2936955918
209.9112819815 98.5302322250 253.9299503935
192.8547459467 108.4089349653 248.1611147209
217.4225822270 90.1412421018 248.9707640214
230.7052936640 139.0039225582 224.2843907971
226.2013215056 77.7357150072 218.6892016425
207.6531391502 135.2839954506 214.7940492669
204.6181863219 103.3822087322 210.6294769129
222.7155391120 102.8163312722 262.2669233664
236.4652222250 82.2034565687 245.4920010312
208.2673877938 109.6734130867 220.1536226269
220.9744684602 77.2648072040 229.4107164513
205.9177729315 106.4841604454 217.8096964459
228.7103403086 79.6534851136 217.9368234966
211.1498236694 93.5356653940 218.6359200232
206.1627569596 106.5958221189 208.4634667316
215.9149881527 88.0398798866 251.2660130959
228.1895578386 74.7441093837 230.4044564114
200.1099671213 102.2594493737 254.7820955820
230.2541265692 147.3857788509 221.5924681403
229.5832800359 75.9485845351 222.0221414975
209.9839224345 132.5534272537 216.3709622020
231.8681048450 79.3255362294 244.3244432408
208.3525980057 107.9737183780 212.1533128508
227.8872916785 98.6869733069 245.5522544208
224.9130944561 101.3950347063 260.6903850050
223.1237927392 106.7186106961 253.8935444087
195.1192681419 112.9936883884 252.7209697392
211.6411273619 133.2730209755 211.6566265170
218.8448859099 139.6943927675 214.9305641898
226.1043255455 87.0977322863 246.5687088133
224.4563741798 88.9342198213 247.2122982430
219.5534618809 96.9016456611 210.5125540082
198.8377117758 120.4583138901 229.7646879010
225.3011560991 80.6841321614 233.3502644333
213.9270688515 95.3705628863 220.3588929039
212.3189083100 132.9452324516 212.2107683718
224.6127119831 83.9337709247 250.3196041355
222.2131989703 105.4614781607 252.5927495067
224.0930971399 94.3162119637 256.2522360763
205.5420705774 104.8273220531 252.2107872827
228.6781991787 74.4555784892 231.8111546984
206.8007400515 127.5924261922 225.3384017053
217.4718552239 100.3832633141 218.8313884133
223.6331221035 102.8553535972 252.8973652271
210.1123976614 107.7838470822 225.1294474974
221.9443507238 141.9296806806 212.2244211724
218.6487303771 132.5456944453 216.7048431942
191.2612303356 122.7135924668 226.3348312569
198.8377117758 120.4583138901 229.7646879010
218.9715506649 84.4858595984 216.3934499814
222.4945926805 80.7714870087 221.7639483645
210.6799918443 98.8135547330 218.6621690888
233.4740324166 75.4027391773 226.4440595589
198.2289610586 111.4334434899 237.0295713481
193.0590477566 119.6253502937 228.7398835767
207.1120376530 122.9690410078 220.9045414706
228.2042159156 83.2707144867 236.5024655406
210.3780548130 102.6680406695 255.1886557352
202.2285905258 110.6375512772 249.4194667491
216.5119006750 98.6030571928 210.8191947792
216.2761712476 134.8181322824 219.7427219888
220.0339103519 107.0580673617 211.4651528861
210.5255311396 101.0165097656 219.4663187713
219.8037138452 102.1310513199 254.5890357012
199.3848968559 125.0721304082 229.6510594345
214.9344025433 106.0161776076 217.3461702902
218.4053613207 108.0474765284 262.7236846934
222.2958400099 102.6443899560 259.8389457487
232.6932204737 82.2513808650 240.7501114330
230.6559418918 78.4218759529 221.5965602883
206.3982636127 98.0357130500 217.9870261085
219.8378016751 100.9100467949 217.5808816616
193.4544141075 118.9870177788 233.1638659372
212.7383594927 133.0850861074 213.8112725370
201.7306248523 104.4281536523 251.0316721285
198.9277107344 108.2386031884 253.0872485186
223.3169608431 82.6942756627 219.0681705544
200.5677502862 124.2369179297 230.7293123762
233.6624601604 141.6248993849 218.9694417131
208.2337548909 129.7557345077 224.4677661640
201.6550781947 117.2098592003 238.4309753545
219.7295508992 101.4338517349 214.8958093933
215.2139216984 99.7714779286 254.9819897364
217.2476547388 84.5654726943 218.6041670990
223.8250631818 95.4817646823 253.3357437441
198.0997845791 113.7299522248 248.4134161079
208.6916922060 102.8010246034 221.1014062104
229.1590690663 73.0472027036 221.4053726788
207.5235616637 128.5202055549 225.2584330858
224.8724542510 78.6304246102 234.4142844061
210.2389340736 131.5858560773 216.5419787732
210.1593335697 134.6803709722 218.8520951030
207.5488708173 121.5672641225 233.2758030765
220.1288121864 106.3801110039 260.8551592138
227.0404394137 87.9094806469 248.8934486241
227.3781388491 94.4635644453 254.8021064746
219.4378809577 142.6822885375 218.4444341715
226.1024579218 80.7621910552 242.4640825959
211.5799531272 80.0223069306 219.2386747649
222.3563426002 137.6464414663 215.4567300247
223.2525200252 99.8155530934 252.7054666917
235.7219022751 140.3416918283 221.8759119395
218.4584383852 108.5269500630 262.2705076653
235.1488400653 139.8747071831 224.1561851360
225.2517694421 74.5146485255 231.6851013230
201.7175367457 124.4639964009 225.0236415650
220.6229687336 107.8077255731 212.4925136055
191.8136253213 122.9657578437 231.0470832352
208.0259531209 126.0475085929 224.2451612656
208.7665340803 123.6225919804 215.8134469443
219.0106072387 106.4754101422 209.5946790702
228.4097540054 144.1909919259 218.4718916409
198.3655431335 117.2412678870 240.3964377775
230.6261367764 81.2735753822 226.3293767540
210.1991623614 132.0751796946 213.0387794520
202.5319661738 123.0972913225 239.6951288487
199.8293756750 106.6837216201 250.1199415649
215.5516687436 142.0477837578 216.8840486760
230.1623438517 84.1977620994 238.6127477718
221.8944100585 91.0165065072 259.4227625524
208.7413357406 104.1275023916 224.5324753738
233.2512047950 140.7110987994 224.5016640065
215.6285196527 102.9852480802 216.4575213999
233.1680372375 77.9893059939 237.8504083107
218.4392424004 94.2639494283 214.8848576030
220.3189662542 83.3077920344 217.2700528298
214.4289381089 106.6592542105 258.6404658959
216.0576530952 88.6456451188 211.5218869122
210.5775523203 133.4426892248 210.1503952604
211.0958647376 103.9192162725 210.8914003557
220.9407578884 141.3682933219 219.4221913839
225.4684195422 83.0063457064 249.4745081347
214.7920054523 92.3922336100 217.0264270174
205.7423098206 102.1868209897 259.2997087895
221.3385557795 106.0782478839 255.1733894078
214.0963073518 128.3014143371 216.6840932918
232.1084092605 145.1087007231 218.8574311345
229.9910575682 82.1508867604 233.1714764530
194.3639876986 110.8569948013 248.1925575326
208.8277784216 125.0188528168 215.4855589411
201.4972393441 110.0316146664 251.8235707550
221.1175513539 90.9683368811 252.0748113200
214.9346543647 110.0782633842 216.4283170033
228.1579412037 101.1448439116 247.9344261486
217.4044376670 111.5179841123 215.0042627607
203.6070317483 103.7398175672 206.6253640766
207.6552878210 108.6609035686 217.1794012950
229.3969594413 74.9410342933 223.3249896186
210.1434741122 104.3500043711 227.0549558327
225.8582201668 80.3513449846 250.1815821926
228.7517751038 95.2540475197 251.0155780365
217.9194668422 91.2629491036 217.3002688592
231.9220811457 81.7567521603 244.6628949163
239.0558329504 149.0316555576 222.9489287964
225.9149538633 93.2678934436 257.3693634168
218.3414913865 99.2838636720 219.8511747858
224.0863324695 94.0972445968 259.0293750371
207.8254132448 125.3408740560 220.8944533499
209.9668322899 106.9697783334 219.5011353923
231.4885586672 151.0178195552 222.9221091866
212.4635593188 131.1740841800 218.1018438958
208.9396934626 107.2081498379 217.4485015190
205.6656082646 96.5964586191 253.5389123867
230.0999273201 98.3842064412 245.9735756261
228.5505923888 75.8642010288 225.5090331700
220.5803186174 140.7023971264 216.9832762863
230.2298619837 82.2663833866 245.8079835992
216.4601298013 92.1077792622 218.6523012623
226.2348500674 78.5807665678 235.0489729464
221.2288844005 141.1455859134 218.7883661471
202.7096197962 121.3552303045 220.6953128117
231.3236311900 145.9698174199 222.4632900534
208.0300050097 131.3506232588 220.2150888038
213.8344256731 90.7126334385 213.2392085353
215.0795633419 131.7101185048 213.0063917442
231.3792371431 143.9807988118 218.1111670700
229.0292338859 78.8472036195 223.0388389954
198.5616565366 121.5695508947 235.3742740135
223.1310188414 98.5566558046 215.6273971754
200.5409953777 103.5316864077 249.9925781571
222.0625159813 86.0306810123 251.9138548248
210.5907838496 130.0110171613 223.9061076444
224.8208035960 80.2281979484 218.3953470587
203.7622105404 124.3457970868 221.7237783421
214.2373958171 103.2619336859 210.0430737241
226.7322006738 94.7117380728 255.4995599937
211.6386556809 81.0169942838 214.0744024988
216.3643474934 81.3798200553 218.5217693116
216.0709979105 91.7497754672 215.9185079170
233.0072972495 143.9308039569 221.1809641779
207.5165388826 122.2109186268 231.7111909238
207.2496819137 108.6998249335 221.6777026186
215.2139216984 99.7714779286 254.9819897364
222.3160798640 77.0094782025 216.6983048233
224.9005591249 72.7175105536 220.4388608219
224.0218819508 73.4213277034 218.1887127160
224.3010702571 84.0765965814 243.8099592636
219.5534618809 96.9016456611 210.5125540082
200.7758768846 120.9378938717 230.0845032097
234.0148479012 140.7880176661 223.3894121412
220.4605430256 77.8951965247 225.3011393740
216.8353681162 103.7368057420 213.1272332740
223.9563454200 84.5515969131 249.7400026817
218.4307804218 109.6070125417 257.3238066625
230.7782425763 83.1074050336 236.7477888477
201.5341422869 107.3742431727 247.6217777025
206.9777865435 118.2743178369 230.9028043290
228.2783822996 96.3867742192 251.9037467541
221.3379201135 101.0285133772 253.2664335085
225.3705945545 107.2130965193 255.2668258083
215.5058957447 89.5662798992 250.6609649358
228.0046701943 143.0499550963 217.8364566195
216.4619534995 75.6409187272 221.0173518885
193.8443100442 107.4820390234 250.8604139292
228.0177885059 85.4161039105 242.1166516518
220.7843484994 102.0091960554 252.9420246734
223.8493977940 81.7361936262 246.4303914180
213.5627521421 101.8768181197 215.8373030302
213.6548134927 125.2729539234 219.1074336221
213.9983664375 99.5761858353 213.1739356141
225.8451976480 88.9247415329 258.1127925250
207.5484673520 102.7347054968 252.5172379815
226.7143905647 86.3689103220 244.5555750331
205.2455335317 121.7996970201 219.8610125856
214.5375368845 104.2403277233 226.0477029300
225.9043559932 80.2587777808 231.5705141251
232.0822700703 138.0873569081 221.0448806510
218.0774260928 96.5857316323 214.8451808418
233.0344702670 140.7579100100 218.0723344177
206.2863446035 105.1070549022 213.5119185045
214.8702933950 97.2772336783 216.0334921760
195.4599682349 118.0100639367 232.0996306521
219.1658255839 133.5311755932 218.3805577165
213.2364482704 101.4646051460 257.9862203986
197.0501981480 109.9765259367 241.7390348501
231.1671629459 100.2166945410 248.4545681350
216.3264866597 107.7378708237 256.7028276149
191.8626095703 120.0902337473 229.2905627851
214.8324065569 87.6775130381 213.7655564145
208.3241149875 129.8080375554 215.0495093640
218.0252664259 136.4677043140 214.1500128404
213.5502151586 103.8706752204 217.2215720954
214.5375368845 104.2403277233 226.0477029300
222.0441806083 77.6266184455 233.3986825330
209.4727544815 102.1240246360 211.2830405205
226.1922599853 72.6803802820 221.8902567594
204.9934602472 101.2463222239 211.2980214593
224.0218819508 73.4213277034 218.1887127160
234.3353118272 83.9177840524 241.4703510729
217.9149220173 86.3413661388 217.2567244718
213.7957361935 108.4122791912 213.0744485164
205.2205171299 97.0931161487 256.6135787915
201.9530619350 123.3591592203 231.5462383847
214.5295705536 108.9372265546 215.7928819819
214.0148264138 139.9131148031 216.6892659051
198.4210097401 101.8928110962 250.0542549936
230.6839078561 79.6415175509 232.2009130887
195.4564797725 123.2698432319 228.9964810062
217.0147713117 102.8682028557 213.8435480351
207.2449007977 122.6738258035 218.8476310055
213.2168419365 103.4825573011 211.3560991873
233.2512047950 140.7110987994 224.5016640065
229.9417471230 75.8801440801 234.8470409615
223.1432128239 86.4978446380 252.8825646162
215.8555407757 79.9745614209 218.7342559332
219.4378809577 142.6822885375 218.4444341715
213.8050930613 135.6097099799 218.1718232468
204.8334262487 102.9039611730 207.2972941630
231.9442442196 140.9242712893 224.3959194853
215.3830017996 108.5013368234 260.6848857183
228.6153856007 82.5105598371 234.3911752556
212.7738398526 96.2820327157 216.0118957594
196.5993683783 104.0973533870 250.8115702429
221.3824114901 92.0969877401 259.8439818230
209.9839224345 132.5534272537 216.3709622020
212.7360181053 103.5488314681 260.2816563541
226.3690962113 76.1065986295 223.4907876989
223.1310188414 98.5566558046 215.6273971754
233.8052636782 137.8124877701 223.4849640979
223.4687000481 76.7191211336 219.8970526755
226.6808103026 139.3159821070 217.1659624260
211.6574625389 109.6161919934 223.9611212669
211.5799531272 80.0223069306 219.2386747649
209.9688954461 98.9132486506 253.2797499875
227.0163861206 76.9667389714 226.8316353627
220.8752331504 75.0028684991 229.9419015882
216.5105718093 109.8408154738 211.7363159609
229.6196728436 76.8561118420 233.9004733008
197.7960475295 113.1011268297 254.3327499077
221.3177480119 92.0448512366 255.1784422123
200.1465732585 119.2709502204 231.1915036686
194.3435938078 116.5450377001 238.7773545310
198.5030969485 110.9651765940 244.6918838251
228.2379606555 139.7323934651 215.9585847832
231.6740901442 146.1443012943 222.5162787059
209.1235181536 132.1138096925 214.8425178061
211.9715827044 108.0999575333 220.8781133451
202.8446860409 108.9303442607 255.2608802306
205.2370783457 123.5201817916 227.4640747813
237.0959879276 150.1434066956 225.2492323409
215.2474963956 104.9185293874 260.7806908470
215.3596665274 140.7362965557 214.7524957748
227.5434781673 100.1023316888 250.0731729720
227.0886387597 101.7123906757 258.4939382401
212.0646515276 107.6204289452 215.0366938461
234.0538363599 82.3212681135 244.9283026028
222.1986683179 85.1841109519 252.0006486618
199.3448160873 122.1162311118 226.8429145862
223.1432128239 86.4978446380 252.8825646162
226.0031182505 92.0116620884 247.6788715025
212.8875801530 133.1281605230 213.4520784183
206.0505846151 108.2348773727 256.2250986039
223.3215482341 89.4505097946 246.5360118881
230.4723463219 78.1129342918 219.0831525342
199.9217706726 116.7867036658 244.6085843137
211.3382006036 101.7758648625 218.3182409251
233.7802757018 145.8343250165 221.9093974366
215.2051167659 94.9835682463 220.7120945488
236.3535029111 146.1416192619 225.1282029418
195.8168021191 117.1809591812 241.1349296016
197.0644410418 120.9677877562 228.6202270533
227.2316216447 100.9695576244 251.0223628757
222.3563426002 137.6464414663 215.4567300247
226.1209137718 72.7114187474 217.5219049856
229.1480428642 82.5466115202 246.4736849454
202.6507391801 123.5747115833 221.5024462909
219.6601178156 91.0790269972 210.2419267924
204.4326459714 98.8990046993 217.5975038178
219.2519566859 103.7298679507 252.9343680098
215.7142165341 97.4047980231 215.9232239220
194.6407361298 118.6507622593 238.5215029643
211.5549074805 94.6767022236 219.2713550446
206.2794424312 121.4802770825 224.3876860180
227.5645312890 85.5380250392 253.0801235174
216.7712532061 107.0331450661 262.1027263517
203.6044436124 102.0201737765 254.2235754261
223.2964355595 78.2278616266 233.2238709992
204.2209591543 105.8436297001 206.2450566479
201.3519737204 107.8196922283 256.0333315767
225.4684195422 83.0063457064 249.4745081347
238.2268000709 147.3890678412 222.6898617504
216.9680915527 105.9700080450 209.2576584216
228.3245497119 82.5481694425 236.2238681111
220.5754437170 91.6407968906 257.4131819952
212.7004023174 92.6172338620 216.7314001201
224.9111808030 81.0319233719 250.9980094762
227.6212229583 87.7646349930 248.3908530551
219.1146561568 89.2717346711 216.2027551772
215.5058957447 89.5662798992 250.6609649358
210.3361383694 103.9219396926 224.0724456385
207.4379421515 107.2678572248 253.4832871968
213.3527469536 102.4767200125 259.6201556427
194.8669538059 119.2856204811 235.1650657697
217.5803132196 111.0076968005 213.5851294507
216.3264866597 107.7378708237 256.7028276149
216.4270296891 103.4669684379 212.7562773478
214.3747937315 92.3492045899 212.9574386014
201.3013316839 105.5642400316 250.7614485742
237.4977303270 77.4453273813 227.1541083761
206.2863446035 105.1070549022 213.5119185045
234.8779255342 140.2857791879 223.0593828886
198.2452778743 117.7438679594 235.3009330135
213.3160772463 105.7444960059 210.8249140504
219.4378809577 142.6822885375 218.4444341715
227.4660337094 99.8411770901 254.5513988854
219.1088641166 106.7520278662 210.5632425392
223.6302101071 95.0535113566 251.2705272844
216.9619959086 92.1797807266 219.1067496999
226.0422673615 75.6718478892 234.5304930843
195.4535714576 111.0018339902 243.7208429644
229.8013922256 98.5167461503 245.6245253625
230.6093955289 77.6291498402 220.2476091893
221.7805114755 92.5148882229 254.5828779704
225.1785641999 97.1916357380 254.7276279352
196.4632948436 115.4728904150 232.7128574103
201.8651833053 113.1391173444 248.5289977236
208.5236824857 126.8942992348 222.8042807316
199.4685094792 123.1681061996 238.5429843478
191.5754351021 124.9367822965 229.9098588325
228.8260512350 77.8017119435 240.6129692179
203.6682760897 105.1360784036 206.2974760734
199.0743589474 123.1731228027 233.1866113714
214.0384406297 100.1144299467 215.6828101218
198.5616565366 121.5695508947 235.3742740135
228.7455133043 98.3968119690 252.1792853825
200.4652130178 121.3631906589 225.3707767109
228.8012530071 101.4530500499 246.4971763016
221.8837861787 86.2089676009 210.4363069219
227.9558611601 78.8711491351 216.9456640642
199.7757560627 122.5638001917 232.5386555639
228.4668096418 80.2308850455 250.5755080912
217.6213823844 110.9647052889 216.9978772671
210.4590823154 79.3535011753 217.9323027379
195.2324735128 114.2035373193 246.3530599806
224.2249689869 79.9559726409 231.1194458596
201.3770943922 111.9305292196 243.2925028214
194.2141544632 125.9400661994 231.2555224485
230.7736706252 75.4825943230 221.3484159142
225.8485126154 81.2208067639 222.5272440980
218.2393366879 86.3161848531 216.8479570121
