208.9720611572 207.4603881836 218.3769989014
165.1521911621 236.1598663330 257.3699951172
205.0008697510 208.7329711914 222.5099945068
177.3872222900 223.9853515625 217.4400024414
202.3897857666 246.7457122803 224.6018066406
175.3346557617 218.1623535156 228.2299957275
163.9967041016 244.7997283936 264.6900024414
192.6440734863 254.3528442383 212.2099914551
208.9752960205 204.2069244385 222.8840026855
160.4908599854 236.9329681396 240.4599914551
208.0116882324 251.8273773193 220.8399963379
213.6340026855 208.8922119141 221.5100097656
183.1408691406 254.0429687500 211.4400024414
181.9339904785 214.0722045898 222.5899963379
166.6932830811 233.2881011963 233.6340026855
210.7372283936 251.9753570557 223.0000000000
191.1408691406 254.4629669189 211.9299926758
187.4382781982 213.2333831787 226.8159942627
214.5327758789 217.5890045166 224.7761993408
185.7774200439 257.1398620605 206.1999969482
203.8846588135 205.0923461914 222.2599945068
192.5138092041 252.5072021484 212.1911926270
184.6539916992 226.6322021484 219.4000091553
201.0686035156 253.0256195068 220.2176055908
181.6055755615 220.2759094238 219.3190002441
166.3989410400 232.5358276367 237.4420013428
164.8816833496 234.7573699951 243.6199951172
175.9089660645 250.7992706299 214.9489898682
205.0039978027 254.6822052002 219.5899963379
213.2791290283 232.6958618164 220.0839996338
200.5974273682 257.1798706055 214.4600067139
172.4088287354 237.5940246582 223.5099945068
170.0518646240 242.5975189209 213.7619934082
162.1491241455 238.6258544922 228.8540039062
211.9189758301 206.1192626953 217.2989959717
197.7507171631 208.5766448975 217.3359985352
163.4340667725 245.0528564453 264.2799987793
161.6974182129 239.4898529053 249.7100067139
193.6797790527 201.8257141113 212.9318084717
177.2589569092 246.0981750488 217.4069976807
179.3940734863 216.2228546143 232.3699951172
215.0942993164 240.6440734863 211.8224029541
211.0540771484 244.4228515625 226.5099945068
222.0540771484 233.1428527832 222.7899932861
180.2527770996 226.6990051270 227.2361907959
217.7074279785 228.8698577881 222.1999969482
188.5152893066 213.4469299316 229.0839996338
165.3167114258 241.4697265625 256.7700195312
202.2721405029 249.9969329834 209.8731994629
206.8479156494 250.8076171875 229.1869964600
174.1489410400 216.9658355713 222.7919921875
162.5183868408 235.3579559326 239.6959991455
214.4691314697 220.6358642578 222.7839965820
198.9046630859 253.5023498535 216.3300018311
166.3292541504 244.4891967773 218.9642028809
219.3252868652 216.9769287109 222.1840057373
163.7946624756 235.7423553467 256.4400024414
204.1352844238 203.9569244385 218.5240020752
213.2263031006 213.3787078857 213.5950012207
171.7440032959 237.4622039795 222.1100006104
163.2297821045 237.9357147217 232.3818054199
193.4833068848 208.6326904297 221.3079986572
165.7559661865 238.4288024902 222.0167999268
171.2236480713 246.5678253174 212.2639923096
186.1188201904 223.3840332031 224.2299957275
220.4252929688 231.6569213867 222.4739990234
172.0216827393 242.3073730469 217.5399932861
173.8597869873 219.0457153320 224.3618011475
165.4716949463 236.3273773193 251.0200042725
161.8908691406 236.3429718018 254.4400024414
178.1486053467 218.7756195068 226.8175964355
174.6779174805 242.7176208496 226.1569976807
174.3567657471 221.5220184326 223.5946044922
159.6472320557 236.5453491211 249.6000061035
179.1666870117 227.1000061035 218.4019927979
163.2736206055 241.5469818115 256.6296081543
183.2674255371 254.7598571777 210.0400085449
198.6697845459 255.2857055664 219.3717956543
190.8986206055 253.1317749023 204.4859924316
185.3147888184 209.0653228760 224.7209930420
168.1492156982 230.2375946045 232.6082000732
186.8614044189 252.3800048828 207.8887939453
205.7959594727 237.7488098145 229.1068115234
177.2497558594 220.6499938965 227.3600006104
201.4946594238 251.0323486328 225.1600036621
200.5139923096 202.9822082520 216.5100097656
153.4646606445 231.2423553467 239.1000061035
207.5591278076 210.1158599854 222.2140045166
198.9517669678 252.2667999268 208.1710052490
190.9707183838 253.6566467285 211.6160125732
215.5691223145 232.8258666992 222.4940032959
163.6116943359 235.1973724365 249.6600036621
218.8972320557 231.3253479004 219.5299987793
190.3626403809 249.0767974854 212.0630035400
156.7808685303 235.6929779053 240.9299926758
167.0121307373 237.1269378662 255.7631988525
170.8907318115 244.1399993896 212.1026000977
155.9239959717 229.7221984863 237.8899993896
201.4136199951 255.8369750977 222.1396026611
180.1327819824 218.6390075684 233.2661895752
184.7733917236 256.4698791504 210.2725982666
166.3574218750 246.2298583984 266.5399780273
162.0082550049 234.3972930908 229.7109985352
210.9202880859 237.6698303223 229.0149993896
199.5491333008 254.0558624268 219.1739959717
179.0407104492 218.8366546631 227.8260040283
167.7340698242 245.4028472900 268.2200012207
188.1767120361 216.7097320557 217.6399993896
206.9127349854 240.8800964355 229.1589965820
180.7436218262 216.6769866943 223.6495971680
198.8289489746 204.2681732178 212.3470001221
161.6333923340 238.6998596191 232.0326080322
220.0174255371 235.9098663330 216.3600006104
219.4216918945 217.7873687744 222.9300079346
167.4362945557 236.6387023926 256.7549743652
203.2288208008 250.7040252686 225.7200012207
185.8879241943 226.6376190186 223.2669982910
207.6116943359 249.8673706055 228.1399993896
188.4116668701 254.4693603516 210.6103973389
222.0488281250 231.8340301514 222.2299957275
190.7497558594 253.5500030518 205.9400024414
173.5236206055 250.5669860840 216.6996002197
177.8786163330 221.7817687988 215.2259979248
168.5321350098 243.4369354248 262.8432006836
214.2140045166 211.9721984863 217.0000000000
180.6716613770 251.9793548584 213.6704101562
166.8540039062 237.7122039795 220.6699981689
176.5833129883 248.3326873779 214.3679962158
182.9836273193 228.9169769287 220.1495971680
175.9821319580 213.0669403076 217.4131927490
216.8139953613 232.2322082520 217.4000091553
185.3708648682 216.2129669189 230.1900024414
209.6717681885 206.6768035889 218.1110076904
205.6267089844 211.5597381592 215.8199920654
202.1472320557 256.7953491211 213.9000091553
178.5446624756 242.4823455811 211.7200012207
180.6399993896 217.3152313232 221.2373962402
209.1397552490 203.3699951172 216.1600036621
171.4516906738 244.8073730469 218.1100006104
163.8616943359 231.4073638916 253.4499969482
214.0687561035 227.5559997559 218.9186096191
158.6882629395 236.0973052979 253.8010101318
157.5259552002 232.9188079834 240.2868041992
162.5902862549 230.8098297119 254.5249938965
182.7239532471 209.2299957275 223.1938018799
195.1447753906 201.1953277588 211.7810058594
197.8767089844 209.2297363281 211.2899932861
194.8799896240 255.1952362061 212.4673919678
191.3063049316 247.3487091064 204.4649963379
167.1289520264 232.5781707764 228.8069915771
177.0208740234 227.7929687500 221.0699920654
221.2099914551 232.2108459473 218.4300079346
206.1513977051 207.4199981689 217.9288024902
214.8788299561 211.7440338135 220.1399993896
201.5521392822 253.5469360352 211.3031921387
169.6298065186 236.1267395020 257.3299865723
201.2933959961 209.3198699951 221.4726104736
162.1100006104 232.9352264404 239.8973999023
223.4816894531 224.7673645020 224.6699981689
165.8417663574 246.1268005371 263.3309936523
157.9736175537 240.7969818115 245.9295959473
170.7288208008 212.3940277100 218.3499908447
172.4536285400 216.6869812012 218.5895996094
210.5034790039 210.6830596924 227.3760070801
222.2547760010 231.6653289795 218.3410034180
160.8866729736 237.0500030518 235.4519958496
180.2172241211 219.7453613281 224.9000091553
178.7413940430 251.5200042725 209.3688049316
171.2517547607 214.9268035889 217.0410003662
164.3688201904 234.5340270996 234.5399932861
182.6746673584 251.5123443604 204.7200012207
214.2255859375 239.4459075928 226.1190032959
203.1697540283 254.9400024414 218.4500122070
166.2308654785 245.5129699707 267.9400024414
187.0521392822 252.9269409180 205.9731903076
173.1789550781 239.6281738281 257.5469970703
213.5559692383 224.0288085938 221.9368133545
213.2263031006 213.3787078857 213.5950012207
201.1397552490 246.5200042725 208.1800079346
204.5172271729 255.6153564453 218.7300109863
203.0121307373 249.4369354248 207.8531951904
181.1579132080 244.3276214600 213.6470031738
196.7897491455 207.3800048828 207.9100036621
211.2019195557 208.5389862061 226.6780090332
179.6839904785 222.7122039795 219.8899993896
164.1767120361 245.5797271729 262.0100097656
211.4667663574 235.1320037842 217.6346130371
201.4136199951 255.8369750977 222.1396026611
160.7034759521 236.6830596924 227.4759979248
178.5408630371 219.4129791260 226.8600006104
183.6336212158 255.1369781494 209.1795959473
169.1116943359 240.0373687744 219.6199951172
196.3267059326 209.2697296143 210.4900054932
221.8016662598 235.6593627930 220.2804107666
171.2517547607 214.9268035889 217.0410003662
211.6708679199 212.1229705811 225.0699920654
178.0936431885 219.9178161621 223.3739929199
201.9842987061 250.9240722656 206.4924011230
210.3908691406 211.1229705811 227.0299987793
211.1216888428 203.1273651123 217.2799987793
168.2134704590 238.7630462646 260.1859741211
166.0039978027 231.7922058105 228.0500030518
190.3939971924 207.6122131348 216.7100067139
203.1197509766 206.9199981689 210.5700073242
177.5286102295 251.4756164551 214.3076019287
168.5489654541 246.1492614746 264.5690002441
174.9416656494 250.8893585205 219.3804016113
168.2304687500 238.6069335938 227.0673980713
168.3140716553 246.2228546143 266.7300109863
209.3963012695 201.5886993408 217.3950042725
189.6416931152 211.9073638916 219.4900054932
184.5346679688 213.9223480225 218.3699951172
194.9107208252 255.6466522217 211.9660034180
201.2108612061 252.4129791260 220.5199890137
184.9788208008 222.5440216064 223.3600006104
164.4243011475 245.0640716553 260.8524169922
162.9751434326 241.7400054932 211.7330017090
210.0847778320 206.6053161621 218.3710021973
185.4972229004 228.5153503418 219.1200103760
192.4159698486 205.2687988281 214.9668121338
216.5683898926 238.7679595947 216.3260040283
168.3804626465 243.2569427490 221.4673919678
216.0343017578 243.6840667725 217.3123931885
176.8789520264 247.3781738281 215.3970031738
187.6502838135 213.4898376465 229.9850006104
209.0746612549 237.5923461914 214.6100006104
210.9421997070 239.7798767090 223.6199951172
160.8486022949 236.1656188965 233.8475952148
218.9816589355 220.8093566895 221.7304077148
191.2336425781 209.9778289795 215.9440002441
161.3097534180 238.4900054932 242.2000122070
205.1855773926 255.2559204102 225.5690002441
213.5559692383 224.0288085938 221.9368133545
177.2447814941 224.4753265381 223.1510009766
206.6816558838 241.2593536377 227.9403991699
169.6336212158 243.6169738770 221.9895935059
212.5246582031 221.6823425293 221.9499969482
201.0339965820 245.7221984863 210.3800048828
208.3346557617 214.5123443604 212.2500000000
208.6055755615 200.5659027100 218.8390045166
165.3143005371 234.1540679932 224.0623931885
166.4572296143 238.5853576660 254.6100006104
174.7949981689 221.0269165039 222.6553955078
180.4107208252 228.7766571045 220.5859985352
191.1989746094 216.2592620850 217.1989898682
179.2108612061 224.8729705811 223.9799957275
203.1074218750 210.7998657227 215.9799957275
159.8559570312 232.1988067627 254.6068115234
217.6486206055 236.3317718506 218.5659942627
210.1546630859 210.0323486328 226.1900024414
204.4840698242 209.9728546143 217.6599884033
184.8186187744 217.5217742920 223.1660003662
203.8379211426 254.1976165771 226.8769989014
172.0614013672 247.2100067139 211.8887939453
182.7921447754 220.3469390869 217.5031890869
179.8349914551 220.0869293213 232.1153869629
207.7389373779 204.1158294678 223.8719940186
216.5939941406 234.0821990967 216.9900054932
186.8633117676 254.0626831055 212.2180023193
222.0039978027 223.8022003174 224.1100006104
173.6567077637 249.4897308350 213.9799957275
215.5243072510 239.3540649414 215.5223999023
187.8139495850 218.1900024414 224.8038024902
193.3492584229 254.9191894531 212.2742004395
181.1616668701 227.9793548584 221.0004119873
184.3327789307 209.5489959717 226.6461944580
203.1197509766 206.9199981689 210.5700073242
217.5233001709 232.6826934814 222.8580017090
185.7846679688 210.4123535156 219.0500030518
209.4374237061 239.3998565674 214.0500030518
217.2716827393 243.1673736572 221.6900024414
220.2200012207 222.9408569336 223.4400024414
216.1267089844 220.1297302246 223.5200042725
194.3540039062 205.1422119141 212.9700012207
173.7246551514 215.4923553467 222.5299987793
202.7446594238 208.9923553467 216.5399932861
182.8179168701 246.8476104736 214.2269897461
175.1997528076 216.3500061035 224.5400085449
164.7927246094 232.9401092529 232.4889984131
177.9899902344 249.8252258301 209.4073944092
167.0355834961 229.0959167480 233.7590026855
175.3346557617 218.1623535156 228.2299957275
165.8417663574 246.1268005371 263.3309936523
212.3733978271 221.9198608398 220.6726074219
192.2702941895 247.5398406982 206.4949951172
159.6446685791 235.6323547363 249.5500030518
160.9057617188 231.1659088135 233.2630004883
162.2159576416 231.8488006592 225.8768005371
209.1397552490 203.3699951172 216.1600036621
191.1613922119 250.1100006104 203.8787994385
159.8746643066 236.5023498535 246.0800018311
191.5272216797 249.8953552246 203.7500000000
210.2306976318 213.2910308838 221.3102111816
176.0559692383 215.0588073730 225.4468078613
211.7762908936 234.7387084961 214.1649932861
218.1267089844 244.4797363281 220.7299957275
182.9408721924 215.0929718018 227.5999908447
213.7097625732 213.1799926758 216.4400024414
187.5708618164 217.2829742432 229.5099945068
205.2289428711 210.2458343506 217.5119934082
179.3347778320 224.7253265381 224.5509948730
183.2767028809 219.3897399902 217.5099945068
211.2933959961 234.1498565674 219.5526123047
174.0340728760 243.4928436279 225.8899993896
214.0140686035 212.0428466797 223.2999877930
183.6336212158 255.1369781494 209.1795959473
214.8338012695 243.2671966553 223.6611938477
170.6388244629 243.9740295410 218.9499969482
164.2988281250 232.3340301514 255.3099975586
182.2966766357 211.5200042725 224.1620025635
178.1933898926 226.8498687744 226.8526000977
178.9972229004 223.2253570557 217.6100006104
205.8472290039 256.5653686523 219.3099975586
169.9788208008 241.1440277100 216.4799957275
171.8086242676 218.3717803955 219.9359893799
208.9159698486 213.9188079834 213.8668060303
190.8388214111 214.0740203857 218.3300018311
178.0733947754 218.7898712158 232.8825988770
196.5036315918 253.0869750977 209.9095916748
160.1359558105 233.2187957764 234.4768066406
217.4322052002 216.0698699951 219.7599945068
177.5474243164 221.1598663330 214.9300079346
182.6389770508 220.8392639160 216.0089874268
201.1397552490 246.5200042725 208.1800079346
161.8052825928 230.4969329834 253.5839996338
196.1936187744 208.0669860840 213.6195983887
205.7239532471 245.3999938965 225.3838043213
179.2613983154 249.3899993896 209.4987945557
170.6746673584 237.9223480225 222.9499969482
208.7839965820 214.1822052002 213.1000061035
218.2482757568 216.7633819580 219.9160003662
169.4286041260 242.4556121826 224.2575988770
207.5402832031 201.2598419189 221.7949981689
177.4013977051 225.5899963379 218.9488067627
218.0316925049 222.0873718262 224.1600036621
204.8436279297 251.2969818115 225.7295989990
194.3540039062 205.1422119141 212.9700012207
182.7688293457 216.3240203857 216.3099975586
169.6108703613 238.0729675293 260.1500244141
163.1734008789 238.4298706055 249.2226104736
178.9036560059 228.4778289795 219.4939880371
213.5865936279 219.2716979980 222.3657989502
185.2240753174 213.4428558350 228.3899993896
208.4508666992 243.4329681396 228.5699920654
178.1933898926 226.8498687744 226.8526000977
161.7406921387 242.3310394287 259.9201965332
177.1397552490 228.2200012207 220.8700103760
174.7489624023 250.7592620850 217.7989959717
200.7549896240 258.0769348145 219.7553863525
164.1574249268 241.2398529053 255.9300079346
208.0116882324 251.8273773193 220.8399963379
162.3017578125 244.9667968750 214.4210052490
163.0174255371 245.3498535156 261.1699829102
200.8691253662 206.9858551025 220.4340057373
154.1734771729 234.6930541992 239.6260070801
194.8462982178 202.5487060547 210.0650024414
209.4214019775 250.4799957275 222.5388031006
165.4767608643 243.6820068359 218.1045989990
195.1582794189 203.4133758545 209.1459960938
212.9257659912 244.8559112549 218.8529968262
188.2219238281 204.7789916992 220.9780120850
183.0859680176 250.6688079834 210.0167999268
213.2916870117 209.2373657227 220.8300018311
186.8388214111 213.1540222168 229.4700012207
166.5419158936 236.4389953613 258.7180175781
188.6538085938 214.6871948242 222.9212036133
163.5572357178 235.3253479004 254.4000091553
186.7936248779 218.8069763184 225.8495941162
208.5027313232 240.9900970459 230.7589874268
188.6597900391 248.4957122803 210.6618041992
177.4736175537 229.6269836426 221.3096008301
164.8816833496 234.7573699951 243.6199951172
159.6446685791 235.6323547363 249.5500030518
165.2827758789 235.7890014648 250.1862030029
193.6797790527 201.8257141113 212.9318084717
213.0136260986 239.9769744873 216.4295959473
167.1036224365 242.4669799805 222.9895935059
164.1746673584 231.1023559570 226.8800048828
176.8666839600 250.3300018311 211.0820007324
190.9186096191 254.0056152344 211.7575988770
193.0536499023 209.2478179932 214.4339904785
163.7497558594 237.0899963379 224.4900054932
177.9291229248 218.9858551025 225.1940002441
202.3886108398 256.5256042480 225.3775939941
182.6389770508 220.8392639160 216.0089874268
219.6143035889 227.5640716553 224.5623931885
217.9872283936 246.1453552246 218.4800109863
165.5072326660 239.3853607178 224.2700042725
179.0972290039 220.7753601074 214.3700103760
189.6416931152 211.9073638916 219.4900054932
176.8789520264 247.3781738281 215.3970031738
174.9974212646 217.4098663330 225.3800048828
159.2647857666 231.5053253174 236.0010070801
194.5143127441 252.0340728760 206.0923919678
203.0046539307 248.3823547363 226.5000000000
178.4542999268 223.7440643311 217.4523925781
198.3414001465 253.9400024414 209.4888000488
207.5307159424 208.4666442871 222.8660125732
164.0867156982 234.6997375488 255.0299987793
217.0507202148 228.9166564941 222.8560028076
174.1833953857 220.5398712158 225.5126037598
207.2372283936 207.7053527832 218.1999969482
205.0039978027 254.6822052002 219.5899963379
162.3459625244 231.7388000488 228.2868041992
216.0367126465 210.7297363281 227.4400024414
163.8043060303 237.1040649414 243.8724060059
172.5274200439 247.7298583984 211.4600067139
204.2872314453 259.1053466797 213.3899993896
162.5172271729 243.9953613281 260.0199890137
182.1151428223 227.3399963379 219.0930023193
190.6839904785 248.0122070312 204.0299987793
214.2543029785 216.2140655518 211.7523956299
198.7716827393 207.1373748779 209.0299987793
166.6740722656 233.2328491211 230.0099945068
155.4197540283 230.9299926758 237.3300018311
216.8746643066 217.2823486328 223.2100067139
176.2739562988 214.8800048828 228.0938110352
175.3108673096 216.0929718018 224.3000030518
179.7167053223 230.0897369385 222.1499938965
220.6416931152 224.2273712158 221.0700073242
168.1343078613 245.3840637207 263.6224060059
222.0816955566 232.8373718262 216.8500061035
196.4082794189 204.0733795166 209.5260009766
177.3997497559 219.0399932861 216.4900054932
185.8217620850 218.2368011475 223.5910034180
204.0939483643 249.7400054932 216.1338043213
180.1155853271 211.9959106445 224.4290008545
207.5402832031 201.2598419189 221.7949981689
214.4372253418 246.4553527832 217.3099975586
169.9788208008 241.1440277100 216.4799957275
196.5874176025 208.4398651123 208.7500000000
194.3721313477 249.7169342041 205.6931915283
207.9074249268 240.8798675537 229.8000030518
207.2372283936 207.7053527832 218.1999969482
211.1372222900 242.8753509521 221.7400054932
166.9916839600 231.1773681641 235.9600067139
203.2351379395 255.6900024414 218.4730072021
215.0489654541 209.3192596436 223.2689971924
179.6440734863 251.9128417969 214.7599945068
171.0221405029 242.0469360352 216.4131927490
211.1738281250 208.8984680176 219.2113952637
166.0872344971 232.5253601074 225.7600097656
186.8816833496 212.5673675537 224.8300018311
164.5672302246 244.9653472900 260.6099853516
209.5888214111 205.1340332031 222.8999938965
168.6699981689 241.1808471680 215.1900024414
214.2713928223 244.8099975586 216.6988067627
212.6321411133 250.0869293213 224.3531951904
209.2852935791 200.9469299316 219.9040069580
183.9443054199 214.6940765381 222.8423919678
172.1443023682 242.9940643311 221.0823974609
221.4662933350 223.5787048340 224.6250000000
217.6739959717 241.9822082520 219.6100006104
181.0238037109 250.2671966553 215.0312042236
208.3346557617 214.5123443604 212.2500000000
221.0908660889 226.1229705811 227.4199981689
207.0039520264 202.0399932861 216.1538085938
193.2846679688 205.6023559570 213.8099975586
182.8020629883 210.1080474854 223.6320037842
184.7316589355 215.8293609619 227.0004119873
190.5708618164 210.2929687500 221.8600006104
211.7016906738 246.3973693848 226.3899993896
165.4788208008 234.7440338135 229.9799957275
165.6127777100 239.2790069580 233.9161987305
210.6482849121 213.1733856201 212.5059967041
187.7916870117 211.1273651123 223.3899993896
181.9943084717 248.3540649414 209.0023956299
157.0232849121 235.2581024170 236.2940063477
190.1397552490 251.2500000000 207.0800018311
210.1546630859 210.0323486328 226.1900024414
158.2702941895 230.8498382568 238.7550048828
172.2589721680 240.9592590332 256.3290100098
163.3347778320 231.2453155518 240.4309997559
208.3636169434 211.3169860840 221.3295898438
214.4616546631 241.6393585205 214.0904083252
206.0889587402 255.9681854248 222.2669982910
211.3338012695 249.1172027588 228.1712036133
161.1374206543 238.1198577881 225.0400085449
203.2789459229 248.3181762695 208.2969970703
166.0133056641 238.7826843262 231.4479980469
214.4616546631 241.6393585205 214.0904083252
211.9186096191 238.7756195068 219.9076080322
180.8998107910 222.9567413330 221.5399932861
164.1852874756 235.3569335938 252.7839965820
178.3182830811 217.9633789062 218.4459991455
186.8388214111 213.1540222168 229.4700012207
220.0921325684 218.5369262695 222.2431945801
166.3386230469 244.8117675781 213.2859954834
213.6340026855 208.8922119141 221.5100097656
163.6936187744 239.6469726562 225.2895965576
176.5539550781 226.1300048828 222.3838043213
178.4542999268 223.7440643311 217.4523925781
208.0879211426 250.0076141357 227.5670013428
172.2589721680 240.9592590332 256.3290100098
163.8816833496 238.1873626709 249.9900054932
203.7182617188 249.4573059082 227.3410034180
170.7916870117 241.9773712158 215.6399993896
215.0972290039 239.9553527832 215.7600097656
169.1163024902 238.0287017822 255.7949981689
158.8588256836 236.9140319824 248.7399902344
175.2386016846 217.3856201172 227.6275939941
214.6372222900 215.8353576660 211.6800079346
211.3897552490 217.4100036621 216.7700042725
216.5988159180 215.8740234375 222.5899963379
172.4759674072 247.5888061523 218.9268035889
189.9763031006 213.5287017822 217.6049957275
179.4438018799 218.3471984863 232.7512054443
216.9184722900 229.6762847900 217.2498016357
212.3467102051 218.6997375488 218.4499969482
206.0192108154 208.9075927734 212.1781921387
213.7946624756 226.4123535156 221.1999969482
216.4272308350 210.1153564453 226.0400085449
161.8808746338 234.9929656982 256.3600158691
210.5167694092 238.6320037842 220.1546020508
166.3497619629 238.9199981689 220.1100006104
208.3440704346 241.9828491211 228.1399993896
193.4489593506 248.7481842041 205.2769927979
193.0016632080 255.5393524170 210.8504028320
173.5882720947 211.5033874512 216.5059967041
176.2739562988 214.8800048828 228.0938110352
193.2007141113 210.0066528320 220.2160034180
166.5821990967 237.3098754883 222.9400024414
205.1999969482 205.5808563232 216.6399993896
207.2097625732 205.5500030518 218.3200073242
175.3134765625 218.8730468750 230.5460052490
180.5227813721 213.4389953613 227.6862030029
169.0697479248 245.1900024414 214.0200042725
195.8440704346 205.8428497314 217.7500000000
199.0143127441 252.4640655518 209.0023956299
179.4659576416 217.8188018799 216.6768035889
201.0686035156 253.0256195068 220.2176055908
167.3199920654 241.2608489990 266.9100036621
188.5140686035 211.3928527832 223.0199890137
215.2072296143 241.0553588867 212.0299987793
161.3007202148 244.9366455078 263.3759765625
201.8243103027 207.1640777588 214.6224060059
184.8182830811 249.9233856201 208.6559906006
204.8589630127 208.0492706299 211.3990020752
212.5121307373 203.6969299316 219.0331878662
161.0240783691 239.0528564453 249.4799957275
177.4736175537 229.6269836426 221.3096008301
210.0847778320 206.6053161621 218.3710021973
189.1421356201 214.7369384766 225.6131896973
211.3238067627 250.8571929932 226.6212005615
214.5582733154 219.5033874512 218.8359985352
205.7108612061 251.5929718018 228.1199951172
207.2631835938 250.2345886230 219.9979858398
170.2221374512 240.3069305420 220.5131988525
194.8799896240 255.1952362061 212.4673919678
168.2755737305 237.8259124756 227.1790008545
173.1357574463 248.7359161377 216.5729980469
162.4782714844 239.7333831787 260.9759826660
180.2016906738 215.7473754883 230.9700012207
161.9308624268 245.1629791260 264.0000000000
181.2921447754 216.5969390869 225.7431945801
159.3597869873 230.1557006836 252.0317993164
183.1774291992 252.5098571777 209.2500000000
212.1574249268 242.2298583984 220.5000000000
198.0716552734 208.4393615723 214.9804077148
168.0889739990 245.5692596436 262.5190124512
174.4974212646 219.5198669434 219.7100067139
160.8936309814 239.1969757080 249.9196014404
216.3388214111 217.7640228271 223.8000030518
221.4662933350 223.5787048340 224.6250000000
169.9613952637 241.8999938965 220.6287994385
211.6708679199 212.1229705811 225.0699920654
178.1733093262 223.4926910400 221.9279937744
169.3197479248 214.6100006104 217.7799987793
177.8786163330 221.7817687988 215.2259979248
216.6588287354 235.6940307617 219.9499969482
190.4514007568 207.0399932861 216.0888061523
199.9808654785 251.8529663086 218.5800018311
158.3108673096 234.6029663086 242.1100006104
206.5782623291 204.9573059082 223.1410064697
216.0607147217 239.5666503906 218.1460113525
177.9922027588 213.2698669434 224.3499908447
179.0516662598 222.0093536377 220.2604064941
174.5020599365 216.8480529785 223.4820098877
210.0739898682 236.7622070312 212.1600036621
194.2179107666 204.8976135254 225.1869964600
195.2127838135 210.1790008545 218.2361907959
159.8088226318 233.1840209961 241.8300018311
155.1234741211 235.6530609131 239.4960021973
211.8421325684 246.9769287109 225.9131927490
205.4343109131 209.6040649414 213.0724029541
186.0836181641 218.0869750977 224.8195953369
214.4062957764 237.0386962891 213.2449951172
185.9179229736 224.7076110840 224.4669952393
196.8833007812 253.7826843262 214.7480010986
191.5162963867 201.3587036133 222.1049957275
160.1908721924 235.0029754639 235.7899932861
211.5246582031 234.9523468018 217.1000061035
174.8947753906 222.2353210449 219.4109954834
195.1443023682 206.7740631104 221.3123931885
210.3067169189 212.8997344971 221.8600006104
164.9782714844 229.0933837891 231.8159942627
164.6621398926 235.7469329834 252.2231903076
173.9425811768 249.0700073242 213.1679992676
214.1057586670 221.3359069824 223.9730072021
214.7902832031 206.7798309326 225.7050018311
175.4982604980 217.4172973633 230.1310119629
212.5836181641 241.2669830322 212.7295989990
155.8559570312 236.0487976074 246.4268035889
206.5867156982 251.3997344971 228.6999969482
177.2589569092 246.0981750488 217.4069976807
195.8388214111 204.5340270996 217.1900024414
164.9782714844 229.0933837891 231.8159942627
174.0472259521 248.8753509521 212.5800018311
202.7820587158 249.9180450439 223.1620025635
161.6946563721 231.4623565674 235.3300018311
160.4199981689 234.0852355957 235.6174011230
193.2957611084 203.2159118652 211.2830047607
181.5838165283 217.4884796143 222.2613983154
190.6436309814 254.7569732666 207.2796020508
167.8916931152 237.4373626709 228.2299957275
217.4874267578 236.0398559570 218.2100067139
183.2540740967 215.9228515625 226.1199951172
187.8521423340 254.0669403076 205.5731964111
216.8986053467 227.0256195068 227.7375946045
214.8408660889 219.1829681396 224.0800018311
160.4797821045 237.9757080078 254.2017974854
192.8240661621 251.5028533936 211.4899902344
202.7186126709 209.0656127930 216.2476043701
171.2088165283 241.4740295410 218.3799896240
162.6652832031 231.6669311523 255.5140075684
202.2436218262 207.7069854736 212.9595947266
166.8108673096 246.3329772949 266.4500122070
204.8036193848 240.8869781494 226.5795898438
163.9482727051 231.1033782959 224.5159912109
183.9474182129 228.8998565674 219.6800079346
153.4646606445 231.2423553467 239.1000061035
182.2989654541 249.3092651367 209.8990020752
211.6708679199 212.1229705811 225.0699920654
207.7536315918 244.5269775391 223.6396026611
162.6439514160 232.8999938965 239.6638031006
186.8816833496 212.5673675537 224.8300018311
206.5140686035 204.1828460693 223.6299896240
155.9239959717 229.7221984863 237.8899993896
170.3892059326 237.0575866699 224.5881958008
180.8682556152 225.1873016357 224.6809997559
159.8088226318 233.1840209961 241.8300018311
177.2472229004 219.5853576660 227.1100006104
202.6049957275 255.8469238281 213.7553863525
162.2146606445 244.1023559570 216.6600036621
170.3316650391 246.5993499756 218.0404052734
185.0752868652 211.9969329834 227.4540100098
162.6872253418 237.7353515625 224.4800109863
215.6989746094 246.9192657471 217.2289886475
181.4340667725 244.3228454590 213.9399871826
186.9217681885 217.9768066406 227.1410064697
194.5116577148 207.7693481445 223.5803985596
180.3488159180 222.8440246582 221.2899932861
162.5649871826 240.7669219971 254.5853881836
200.0672302246 255.6353607178 210.9300079346
207.8949890137 255.0169219971 226.8353881836
206.5762939453 201.0687103271 219.7649993896
160.1727294922 241.1101074219 245.9689941406
188.5152893066 213.4469299316 229.0839996338
166.6688232422 231.9240264893 229.4499969482
176.5833129883 248.3326873779 214.3679962158
202.2779235840 247.5076141357 211.9869995117
169.3382720947 237.8933868408 221.9360046387
175.6933898926 249.3698577881 212.0926055908
201.2939605713 254.0800018311 211.4537963867
214.7316589355 211.0793609619 226.4804077148
215.2913970947 220.8899993896 217.4488067627
193.6039581299 209.8600006104 214.7837982178
178.0547790527 246.1853179932 211.7510070801
158.8588256836 236.9140319824 248.7399902344
170.3993988037 240.3725280762 259.2339782715
172.4536285400 216.6869812012 218.5895996094
165.2827758789 235.7890014648 250.1862030029
183.9474182129 228.8998565674 219.6800079346
170.8517608643 244.0167999268 222.6210021973
175.9792633057 250.3691864014 211.5842132568
203.9367065430 211.8397369385 215.3000030518
214.4772338867 210.7753601074 221.2300109863
161.5046539307 236.0923461914 229.1399993896
157.9732818604 236.2181091309 236.1640014648
168.5321350098 243.4369354248 262.8432006836
177.7336273193 252.6369781494 212.0395965576
218.4540710449 227.2728424072 228.1499938965
204.5986022949 239.7256164551 228.8475952148
202.6049957275 255.8469238281 213.7553863525
215.4440765381 222.7428436279 225.4199981689
216.5743103027 237.8640747070 216.8423919678
201.6746673584 250.5123443604 221.7100067139
185.7846679688 210.4123535156 219.0500030518
206.1786041260 239.5156250000 230.4676055908
209.2788238525 238.7440338135 230.9199981689
175.6974182129 219.9698638916 227.6699981689
216.4586029053 227.5656127930 223.7176055908
167.8916931152 237.4373626709 228.2299957275
216.6199951172 229.8652343750 215.9373931885
157.3013916016 237.2599945068 242.8188018799
215.0942993164 240.6440734863 211.8224029541
199.2418670654 207.0075225830 209.9119873047
190.2246551514 247.6123504639 206.3099975586
179.0588226318 224.2640228271 222.7500000000
220.4879150391 226.4576110840 228.2469940186
200.8139953613 250.3022003174 216.9000091553
216.3127288818 224.2901000977 224.3789978027
174.0472259521 248.8753509521 212.5800018311
176.0499877930 224.8152313232 219.0273895264
215.6386108398 230.7756195068 222.0075988770
201.1634674072 253.3030548096 226.1459960938
161.3097839355 237.2057037354 230.8818054199
199.3221435547 204.4869384766 213.7931976318
168.2134704590 238.7630462646 260.1859741211
209.0286102295 211.3956146240 223.5375976562
201.8082733154 250.6933746338 214.8860015869
217.9657592773 225.0359039307 226.6230010986
205.0588226318 256.3940429688 216.2500000000
178.5408630371 219.4129791260 226.8600006104
155.9239959717 229.7221984863 237.8899993896
189.6874237061 209.8798675537 216.9900054932
183.2736511230 212.4578247070 222.9039916992
212.6399993896 218.6152343750 220.3073883057
163.2197570801 244.2899932861 260.3299865723
163.7497558594 237.0899963379 224.4900054932
202.8164672852 205.1412353516 220.0700073242
177.9039916992 217.8321990967 217.0500030518
176.5746612549 227.4723510742 222.2700042725
166.9440765381 243.0328521729 268.0200195312
206.0889587402 255.9681854248 222.2669982910
165.1167144775 239.9997406006 225.6699981689
175.4664764404 244.2212371826 215.4800109863
172.6817626953 243.9168090820 223.7210083008
165.3252868652 236.5469207764 258.4240112305
194.1482849121 204.5233764648 213.6060028076
167.6721343994 237.3769378662 228.3432006836
214.3921356201 210.5669403076 223.3031921387
209.6636199951 216.7969818115 214.3495941162
209.2408599854 238.3129730225 213.8399963379
179.5533905029 222.2198638916 219.7026062012
211.2399902344 209.1852264404 217.9873962402
172.6574249268 244.3198547363 224.2100067139
204.2372283936 257.3153686523 213.4000091553
174.6108703613 221.7729644775 220.4400024414
174.2636260986 218.2069854736 218.8195953369
161.9120635986 240.7380523682 263.4519958496
214.7067108154 240.5697326660 217.1600036621
170.8717651367 217.4768066406 219.8110046387
171.4516906738 244.8073730469 218.1100006104
206.2297821045 201.0157012939 218.0718078613
180.3699951172 219.2452392578 230.1973876953
192.8816833496 209.7073669434 220.7400054932
195.3134765625 208.0030517578 211.8159942627
173.5355834961 241.5559082031 214.9790039062
210.5927276611 216.9501037598 216.7089996338
174.3597564697 249.4700012207 213.0500030518
169.2788238525 241.5640258789 214.5000000000
167.1036224365 242.4669799805 222.9895935059
205.6267089844 211.5597381592 215.8199920654
163.9488220215 236.9840240479 258.2500000000
187.6502838135 213.4898376465 229.9850006104
202.3897857666 246.7457122803 224.6018066406
204.4697570801 239.2700042725 225.7300109863
172.6326446533 242.5368041992 215.0229949951
202.4202880859 256.2698364258 219.2550048828
193.9988250732 204.8440246582 215.7500000000
189.5992126465 213.6675872803 221.8782043457
172.4759674072 247.5888061523 218.9268035889
187.8602905273 212.9098358154 228.0350036621
173.5067138672 250.8097381592 220.4700012207
203.3039550781 209.2400054932 210.6437988281
204.2674255371 240.3298645020 226.5700073242
153.9074249268 235.4298553467 237.6100006104
181.6055755615 220.2759094238 219.3190002441
165.5374298096 241.8398590088 222.6999969482
218.1779174805 221.9776153564 223.8470001221
200.6859588623 251.2588043213 218.8568115234
163.9482727051 231.1033782959 224.5159912109
210.0188293457 239.8340301514 224.1100006104
205.8374176025 252.3098602295 226.7200012207
159.1174163818 237.1298675537 236.5899963379
194.3721313477 249.7169342041 205.6931915283
188.6452941895 212.5669250488 222.0140075684
209.3897552490 251.3000030518 222.7200012207
209.3108673096 238.6829681396 215.4499969482
183.3689727783 219.1092681885 214.8789978027
156.0682830811 230.8133850098 236.9160003662
160.1786041260 234.0156250000 234.6775970459
177.3492126465 219.7375946045 223.9781951904
163.9731903076 236.1745910645 242.9479980469
185.3986053467 215.6856231689 227.4275970459
195.1699981689 251.6652374268 207.1973876953
199.5857543945 247.5859069824 208.7030029297
209.5438079834 242.0372009277 228.2312011719
167.1272277832 233.1553497314 233.8899993896
210.5167694092 219.1420135498 221.0746002197
165.5072326660 239.3853607178 224.2700042725
217.3716888428 230.9173736572 218.0899963379
218.8740692139 219.9928436279 224.2699890137
181.7272338867 253.8953552246 209.8899993896
204.6682586670 250.9673004150 228.7810058594
172.5308685303 243.6029663086 225.6100006104
205.1367034912 258.3197326660 222.7099914551
201.2116851807 253.7273712158 210.4300079346
216.3121337891 214.5169372559 218.7131958008
161.4020538330 240.0580444336 260.0220031738
163.2472229004 239.1053466797 249.1500091553
180.8998107910 222.9567413330 221.5399932861
206.6046600342 241.0023498535 227.0200042725
165.6897888184 243.2957153320 220.1618041992
204.9216918945 258.1873474121 214.2299957275
172.9359588623 247.6388092041 217.6068115234
199.7339935303 252.7622070312 209.8700103760
196.4574279785 255.4698638916 210.6699981689
204.7940673828 204.5428466797 217.3199920654
207.7299957275 201.8908538818 222.9199981689
186.8816833496 212.5673675537 224.8300018311
214.6622009277 232.8598632812 216.5299987793
167.1272277832 233.1553497314 233.8899993896
195.3467102051 207.1397399902 223.5399932861
177.7536315918 218.7069854736 225.2895965576
167.3199920654 241.2608489990 266.9100036621
178.6357574463 242.9059143066 212.0230102539
222.3767089844 227.0697326660 226.8600006104
169.1792144775 243.9875946045 219.7781982422
163.7620544434 236.7580413818 258.4620056152
212.2436523438 240.3178253174 220.6839904785
213.8827362061 217.0001068115 215.2189941406
164.8816833496 234.7573699951 243.6199951172
190.7851409912 203.1100006104 221.2929992676
182.5643005371 220.1240692139 214.8623962402
205.4567108154 257.1797180176 220.7099914551
198.9759674072 255.4488067627 218.3968048096
191.6588287354 201.8940277100 224.6499938965
176.8289489746 249.4681854248 216.1669921875
162.5888214111 234.3040313721 246.8199920654
183.0479125977 225.0276184082 225.0869903564
213.0136260986 239.9769744873 216.4295959473
214.1057586670 221.3359069824 223.9730072021
161.3887481689 240.7060089111 258.6685791016
186.8963012695 212.7187042236 226.0050048828
175.9436187744 224.3669738770 218.3595886230
164.3688201904 234.5340270996 234.5399932861
212.0989532471 238.8781738281 227.7969970703
183.2674255371 254.7598571777 210.0400085449
166.6825866699 243.0099945068 211.8580017090
208.8997497559 215.2599945068 210.8500061035
211.1738281250 208.8984680176 219.2113952637
191.1291351318 254.4958648682 210.1439971924
219.5582733154 223.1033782959 223.1259918213
166.9540710449 232.7128448486 236.1299896240
213.1227264404 241.3500976562 213.6689910889
156.3202819824 230.2298278809 239.5050048828
167.2438049316 239.0372009277 260.5711975098
191.0240020752 201.7322082520 221.5899963379
198.9933929443 256.7798767090 220.5225982666
181.6055755615 220.2759094238 219.3190002441
198.6067047119 207.3497314453 212.3399963379
162.5183868408 235.3579559326 239.6959991455
164.5899963379 236.5352325439 235.1573944092
166.3838195801 237.7484741211 230.8914031982
170.5397491455 240.7700042725 255.8600006104
214.4588165283 214.0840301514 213.3600006104
169.5607147217 244.4066467285 219.5960083008
196.3192138672 209.5275878906 216.3181915283
216.6279144287 222.7576141357 225.5970001221
219.1647796631 231.3453216553 221.5209960938
176.8808746338 221.2229766846 231.3799896240
212.1049957275 219.4569244385 222.2253875732
214.6539611816 223.8000030518 217.6138000488
162.8492126465 230.8475799561 251.6481933594
213.6147766113 215.6153259277 222.0910034180
178.1733093262 223.4926910400 221.9279937744
176.0397491455 223.3099975586 217.1600036621
202.2702941895 245.6098327637 211.1750030518
182.4467163086 214.4997406006 226.8699951172
194.9555816650 250.4359130859 213.8390045166
168.2827758789 239.6190032959 227.9461975098
183.3432769775 248.9580993652 210.5939941406
211.0274200439 218.2198638916 218.6600036621
214.9952850342 213.1669311523 220.0740051270
161.0908660889 235.7229766846 247.0999908447
169.4989318848 238.1058349609 260.6220092773
194.3408660889 205.9529724121 217.4700012207
167.6739501953 237.3899993896 223.0538024902
164.1708679199 241.8229675293 266.1100158691
160.4797821045 237.9757080078 254.2017974854
208.8440704346 238.4928436279 231.8499908447
214.9120635986 226.2580413818 219.0220031738
166.8540039062 237.7122039795 220.6699981689
163.5532836914 237.2481079102 224.1439971924
171.8821411133 242.6169281006 217.5031890869
158.0667114258 236.6397399902 240.3699951172
199.6718597412 205.1275177002 211.4219970703
161.0679168701 239.7476196289 249.2569885254
211.7762908936 234.7387084961 214.1649932861
216.2467041016 244.6997375488 222.2500000000
213.1382598877 244.2973022461 219.8310089111
190.1739959717 213.9421997070 216.9300079346
211.4667663574 235.1320037842 217.6346130371
164.0339965820 233.3722076416 231.0000000000
198.2672271729 208.6153564453 209.8899993896
220.2021331787 226.6169281006 221.9031982422
174.3597564697 249.4700012207 213.0500030518
173.6567077637 249.4897308350 213.9799957275
190.6836242676 210.9669799805 218.2495880127
210.2939910889 240.9922027588 222.0200042725
187.1540679932 256.3128356934 207.8799896240
208.7136230469 250.9169769287 223.2495880127
213.9652862549 213.3769226074 214.4739990234
207.8033905029 210.8498687744 219.8226013184
162.5086059570 244.9256134033 217.3775939941
202.9397583008 258.4299926758 213.1100006104
212.7372283936 218.0853576660 217.0500030518
196.6797790527 203.5557098389 216.9118041992
165.5199890137 240.6852264404 252.7973937988
170.2221374512 240.3069305420 220.5131988525
214.3186035156 232.4256134033 220.6275939941
157.3608703613 238.3329772949 249.0199890137
165.6897888184 243.2957153320 220.1618041992
163.8816833496 238.1873626709 249.9900054932
182.0933990479 251.2498626709 215.2526092529
215.5208740234 234.6129760742 221.4700012207
192.5497894287 249.7157135010 208.7317962646
176.9374237061 229.2798614502 221.7100067139
184.6539916992 226.6322021484 219.4000091553
170.6440734863 245.2828521729 219.5099945068
211.4486083984 216.3456115723 221.1475982666
159.7788238525 232.0040283203 240.5299987793
216.3127288818 224.2901000977 224.3789978027
206.5818634033 206.9975280762 215.2119903564
200.9372253418 206.2953491211 214.3400115967
172.4708709717 250.8429718018 219.5500030518
181.7216644287 254.2993621826 211.9304046631
204.2674255371 240.3298645020 226.5700073242
202.9217681885 257.8568115234 221.8610076904
165.5738220215 238.3384704590 253.6913909912
205.7817687988 240.8568115234 225.6510009766
215.4388275146 221.4340209961 224.8600006104
164.4862976074 230.7987060547 225.8150024414
212.9257659912 244.8559112549 218.8529968262
162.1182556152 243.9272918701 216.4510040283
212.7497863770 233.3157043457 220.1217956543
201.5417633057 256.1668090820 220.9510040283
219.7572326660 227.0853576660 219.3000030518
163.7689514160 232.0181732178 253.3069915771
177.4321441650 247.2269287109 216.6931915283
160.0074310303 237.4398651123 248.9900054932
201.9084625244 254.6362915039 212.1997985840
169.0440673828 241.0428466797 226.0199890137
211.9189758301 206.1192626953 217.2989959717
204.4652862549 204.2469329834 214.7740020752
220.6416931152 224.2273712158 221.0700073242
178.2652893066 214.3369293213 230.8540039062
173.9288177490 245.2540283203 216.5599975586
214.8840789795 213.0528564453 220.6999969482
191.5272216797 249.8953552246 203.7500000000
178.9782562256 244.4873046875 213.2410125732
168.2304687500 238.6069335938 227.0673980713
202.4146575928 209.8023529053 215.0200042725
211.3252868652 246.9969329834 227.2640075684
204.1520538330 248.6503906250 217.9570007324
158.3108673096 234.6029663086 242.1100006104
165.5199890137 240.6852264404 252.7973937988
171.5451354980 213.3899993896 215.8229980469
191.5772247314 215.7953491211 218.3400115967
189.3216857910 210.9173736572 221.6199951172
213.5474243164 240.3398590088 216.3200073242
180.5418701172 219.8575286865 229.3419952393
179.2466735840 250.4199981689 208.9720001221
165.6486053467 240.6156158447 224.7675933838
194.0136260986 207.0869750977 209.5995941162
208.9447784424 208.7253265381 217.5209960938
211.2140045166 239.0022125244 225.8800048828
204.1239929199 203.1022033691 215.3600006104
205.7821350098 205.5969390869 213.4131927490
181.7943115234 226.9840698242 218.7324066162
165.3272247314 241.8253479004 212.1999969482
220.2518615723 219.3275299072 218.5319976807
187.5667572021 211.3620147705 217.7346038818
189.9997558594 210.7799987793 218.3500061035
174.1833953857 220.5398712158 225.5126037598
185.0752868652 211.9969329834 227.4540100098
206.5920562744 241.0080413818 225.1020050049
160.6236419678 238.4278259277 236.5439910889
153.8274230957 233.0498657227 238.5400085449
204.9736175537 209.1069793701 220.5895996094
183.8549957275 252.5469207764 214.4853973389
173.3059692383 246.4087982178 217.1468048096
165.6267089844 241.5697326660 259.7500000000
177.1913909912 220.0599975586 216.0487976074
205.6721343994 204.6769409180 215.7931976318
210.6889648438 216.2592620850 211.6989898682
201.4313964844 257.5499877930 213.9687957764
161.9536285400 238.5569763184 227.4095916748
209.4039916992 214.0522003174 211.4100036621
172.8698120117 238.2567443848 222.2500000000
162.4132995605 237.3526916504 238.7279968262
169.0388183594 239.7340240479 225.4599914551
186.5352935791 252.7169342041 206.9340057373
183.1774291992 252.5098571777 209.2500000000
176.3046569824 214.6223449707 227.5399932861
218.3388214111 242.1140289307 221.0099945068
212.3786010742 240.1056213379 214.9976043701
211.0540771484 244.4228515625 226.5099945068
218.6140747070 218.2628479004 224.3300018311
200.2008666992 247.2729644775 212.0599975586
172.7297515869 246.6699981689 210.6200103760
201.8238067627 254.8972015381 218.8811950684
176.2786102295 219.3756256104 231.3475952148
202.2436218262 207.7069854736 212.9595947266
221.2252960205 223.6869201660 226.6139984131
202.9397583008 258.4299926758 213.1100006104
177.1882781982 214.5033874512 226.2559967041
215.9072265625 217.6953582764 218.6999969482
213.0733947754 234.8098602295 221.2725982666
171.5589752197 215.0192565918 217.0089874268
165.4840698242 236.0528564453 230.5399932861
214.5392150879 242.9275817871 224.2781982422
210.9697875977 232.6557006836 218.4018096924
216.7116851807 238.4373626709 221.5000000000
164.2983856201 241.3479614258 256.3059997559
190.1836242676 210.2069854736 216.9995880127
182.2733917236 209.6998596191 226.2626037598
184.0355834961 248.7059020996 212.4089965820
161.8997497559 238.4299926758 248.8700103760
208.8440704346 238.4928436279 231.8499908447
177.9291229248 218.9858551025 225.1940002441
211.4847869873 235.5253143311 219.7709960938
211.3467102051 207.1897277832 219.7899932861
220.0363006592 222.6687011719 222.0950012207
212.7720489502 235.6103973389 220.3370056152
196.8813934326 253.5200042725 209.2588043213
214.2988281250 209.0240325928 222.9100036621
175.3167114258 250.7597351074 214.7299957275
212.1082763672 213.1433868408 214.2859954834
219.1647796631 231.3453216553 221.5209960938
181.0597534180 251.7299957275 209.1500091553
180.0782775879 243.1333770752 209.9859924316
182.7616882324 225.4473724365 219.4499969482
194.9059600830 250.2187957764 211.9368133545
167.5188293457 237.8440246582 222.0699920654
178.0547790527 246.1853179932 211.7510070801
179.8267059326 220.3597412109 226.3000030518
199.7339935303 252.7622070312 209.8700103760
187.8252868652 213.3869323730 226.9739990234
220.0363006592 222.6687011719 222.0950012207
192.0740661621 210.1828460693 222.1399993896
157.3094024658 237.2625427246 238.5440063477
167.0413970947 239.2700042725 254.7088012695
197.9293975830 207.7325286865 212.3740081787
213.4639587402 241.5899963379 216.7338104248
168.4589691162 244.7692565918 213.6589965820
171.7498016357 237.6867523193 221.7399902344
214.3767700195 225.2520141602 218.7646026611
216.8825836182 219.7400054932 216.6280059814
196.6397857666 204.8857116699 219.1018066406
159.5459594727 233.1388092041 244.1567993164
192.2646636963 205.1723480225 215.1900024414
186.2913970947 211.7299957275 217.7388000488
203.1021423340 256.2669372559 217.9431915283
210.6127319336 241.1000976562 228.6089935303
179.8439483643 218.5800018311 220.1338043213
216.2938079834 237.1472015381 220.4711914062
164.4443054199 235.2940673828 224.2723999023
165.3267059326 240.8297271729 227.8600006104
214.8916625977 240.3493499756 217.7904052734
194.8462982178 202.5487060547 210.0650024414
187.5667572021 211.3620147705 217.7346038818
167.7616882324 232.2373657227 234.7299957275
214.0346679688 230.2623443604 221.0699920654
