203.8407411557 120.8817889769 253.7084042510
219.2349182090 114.4139818695 209.9748358229
208.1824767747 123.4245257707 212.1210565358
220.8570008757 117.8238567661 205.3210732785
220.9842536067 83.9025627993 210.7529577554
209.4487621554 92.9067143955 256.0230164923
212.4599137273 126.0458361126 221.3314060717
213.2394371075 119.9178350066 219.8415124864
219.6965482900 99.6818616762 216.4288561879
215.5866671263 87.3901261642 214.7559305123
217.0628811939 127.3120542322 222.7211316421
224.7377948584 91.4604553897 254.3032001322
206.4490041170 109.5102606108 250.1933196710
215.1923142312 87.1807209314 214.6472308703
211.3360788604 107.2026759774 249.8080756153
224.7449016510 69.4397609724 239.0360230737
210.8014979615 119.8180431847 226.0003080633
212.9392951863 91.1867500882 256.5672146570
197.0026335365 116.4080471965 249.1484139770
222.6078278806 85.7036675489 247.6686645212
220.2812313758 76.2590556619 232.2679338518
217.6549298171 119.0152844448 207.8067412471
223.8099844174 90.5802678083 218.2771058002
219.3856445375 87.9371212813 211.9799634342
191.7357486091 121.2439858708 252.7480066155
191.4369071553 116.4666967087 255.3995296903
213.9703957157 87.5006404069 208.3981682849
216.6484880094 108.4536038670 216.8902767486
218.1097269387 148.9892362079 228.2720627608
206.6330397012 103.8711305480 249.4610213498
206.2035161175 98.6041986267 248.4550437056
225.4852331449 80.9438422744 231.7414324502
215.9188652248 97.5717058034 217.7767789960
216.3375192801 118.9007068087 208.8797894847
224.0977046658 145.6993491319 219.6088087910
208.7311439921 104.3836799329 254.0676988560
215.7647531892 106.4506675611 207.0004560201
214.3500416786 145.7645266516 221.6410203159
220.0143408398 79.1195894019 249.2180510920
212.3454850521 89.5579175735 212.2393786421
209.5119577878 101.4577734232 210.6401571418
214.5571975018 88.5072700189 254.4040359458
226.0159438827 83.3855801493 231.3989938038
213.4478495575 96.4277798737 210.0567506027
220.0120540209 79.6228416876 246.4817915281
225.7588798889 87.1101705888 219.3581053951
213.2968358937 127.1019873956 220.8723555698
228.4908968077 84.0513525006 220.2041642808
232.4362684134 86.8482056769 227.2811724557
218.4074524494 87.8867708010 253.3326937208
226.5299770396 83.7013156108 228.4196936784
220.1599906055 81.8965107731 229.3427391354
211.0208541394 118.8309979358 208.4081044911
221.9076675280 77.0647381388 237.8224010154
191.5702520291 117.9260076021 256.6551410067
217.2480748634 118.2487117442 208.0507121371
232.6939393767 74.7630207783 241.1298961686
220.1799076395 88.0040667938 252.1006074735
213.8811292234 98.3795655404 212.3652616928
206.5293157841 121.7655475702 216.5551781572
230.7459555267 78.7405176469 241.9713491123
230.0489111145 71.9900641722 234.4486267269
218.3145160757 97.2342827847 211.0509938642
218.0268756769 76.2600212852 249.8327365928
223.5273999762 85.6627919966 216.1004963674
217.5957257752 86.8879376539 248.6247575160
204.8558223070 131.3287590755 225.2460950160
222.9367909906 112.3093325931 215.7632147592
220.9355826173 79.4654428991 254.5663699681
217.3874683655 84.9207517439 249.6721138447
205.5863799041 118.0537952493 207.7342121674
224.8054804970 87.4730913646 250.3612196475
217.3136541855 128.1447674341 226.1017505839
207.6444665795 122.2820047981 210.6834384932
210.4732421824 122.9282330020 217.0344630540
210.1069326935 117.2574844381 223.3854302231
223.5795004243 78.3183652834 229.4233113567
209.7776299021 117.5026768820 209.3441449649
210.6081369180 127.6970284344 220.1723938918
228.7282479331 88.1058398468 227.2828067762
211.5234002261 117.5761108559 221.7026567175
206.4008675793 110.3744507098 247.7165637826
216.0410487492 101.9594051654 217.4253482445
219.3381460405 145.1346582175 222.8123234506
214.4974736084 96.8822795839 253.4952662959
224.0607997593 79.0984185840 228.0370088100
217.0031495598 114.2275544083 203.6368412652
198.9634515453 113.8072415121 247.4588990908
211.6077638971 91.6724717084 253.5740630605
213.8776539194 97.4543221216 260.5881796515
218.6663782155 82.9961119750 253.4080656411
220.8523234753 84.4862776350 246.9060484045
209.8111117287 91.8963199719 259.6437076294
216.4286953683 103.0688792425 208.2423468192
211.2728474808 103.5581251853 207.4814959606
220.4026211820 133.8161625557 221.6860813764
227.6751640537 75.7423283750 237.1573799423
218.7449495490 86.2108784602 248.9828780891
201.4718038523 112.2326243918 242.1099733624
223.5795004243 78.3183652834 229.4233113567
229.5283391336 88.0426413892 227.2693794771
219.5552323096 84.1006187927 223.6768098997
209.9970893179 116.8662956264 212.3654121071
214.7332926305 101.8197670874 258.6726592304
230.1209395212 79.2877794434 249.9348941120
230.9490690595 75.6788949153 236.6717659142
208.8944811036 108.0205158855 202.5380388241
229.7080612875 77.1945904157 232.0509397806
227.5062059091 80.6934344680 245.3140878532
212.5399487185 121.9224414664 210.1761225560
211.4820340805 130.6277050553 228.9586500661
210.9130054140 116.6009472006 211.1474161552
192.1284601377 122.0779360001 253.7973602585
223.3186211731 90.5771496537 212.8804728350
229.7212943323 89.7945952386 226.9007530205
216.1836881298 143.4439615260 219.3642093560
215.2707550110 148.0502030993 221.6236190348
219.5700363920 76.0813353082 249.1808016199
213.6332988025 88.1048961097 247.3699035261
233.6066926464 77.5558532277 237.0223134031
217.4669264424 131.5480141711 221.5040362415
210.6081369180 127.6970284344 220.1723938918
201.6964476838 110.0937387527 246.0313179969
209.9142888718 127.2855075108 228.1522841800
235.8765077872 77.5370157163 239.8589650766
223.7072931104 80.6612564453 245.7531016991
203.6420192903 102.2057289697 255.0904418963
216.3375192801 118.9007068087 208.8797894847
217.8693311401 107.0465914512 212.7770881880
204.6707771440 102.4285900057 254.2466361974
212.1481698771 134.7679333623 227.7359109508
202.2948371077 111.0191005379 250.8046402792
212.1330413464 91.8372829753 251.8271584268
220.8704681001 138.1686507415 220.8431759643
206.5974859620 118.8192540040 216.8724267186
218.1361358795 109.4489862925 209.7760294260
212.0762651417 100.8732564434 204.6673767050
205.7562138568 108.1209147253 253.0794649741
213.7837277368 98.1332954436 206.5234142727
208.1201473796 100.0371072806 247.3537504093
214.7967631398 128.4450082755 220.2297784504
209.5934206593 139.4942400462 223.6433839737
227.3842809067 80.4171232809 231.6693399233
201.3340046238 108.2756210891 246.6147175447
213.8669976526 148.8773213394 221.5511481237
216.0071115261 89.3989893053 257.2521575220
204.7372493206 119.5778944616 207.3585581600
216.7805753407 151.3210584825 225.8895119950
223.0893135851 91.3524126152 211.4479360958
205.7952840221 100.0306107670 251.0070357742
213.8275169152 114.8180495664 209.6286423606
221.4148999544 147.5183981110 226.0156708031
210.7887009922 95.6781301762 208.0699457540
216.1085964072 126.5891371422 226.1290514129
223.0284574033 79.3585115487 230.4742094127
221.4677774654 90.1601474321 250.0756021852
210.7636513794 108.3358080740 213.2311815251
208.4653469507 98.7181723268 206.6009727144
218.4513628300 81.4433362125 251.2306819882
213.0992896823 126.5000546364 228.6274510605
220.9535908231 83.8778105533 229.9862102196
217.7278380810 140.3818525266 223.2924672251
193.5492197392 119.0879254716 252.0774715009
204.4842497258 118.0834829520 245.6197115961
231.1729963581 78.4338629014 245.1117347534
223.8563645466 85.3839979566 223.5507220189
208.3055055488 92.1763897724 260.0117765216
212.8105832832 103.5919007378 210.1457119475
222.9194959366 91.7882771357 213.5829656529
224.9627217957 78.2937620258 239.2891878430
211.0641329976 108.3943550354 247.8722877995
211.6975246496 124.2677868965 219.6817813464
208.7444239762 106.4276544869 206.0046708286
213.4245675587 91.3641623805 210.8854852190
221.7014574351 93.9303982990 209.9983200072
224.6310414800 89.0304472515 216.7112610099
214.1353496464 111.4997898887 208.3787031008
216.3053605591 83.7324441364 222.0039433998
224.8234032252 87.1122357184 211.7329327131
232.1109545292 85.9729836538 223.8699542028
217.7268472727 143.2652720735 218.7122743965
227.4949139476 76.9363670799 248.6043775453
191.5702520291 117.9260076021 256.6551410067
221.4201440581 82.9400029496 230.5270683288
208.5122363631 127.5583364641 221.6293154687
217.6816246731 149.2211011857 227.7973899829
220.6017031431 88.5634298716 221.5264224633
222.1090517747 74.8741886770 252.1924579370
213.4980911109 151.0526734072 218.7206468371
202.7864618945 115.9929301866 252.0075216067
222.2612037889 73.4452750951 234.2150998761
217.2428861601 134.5385852640 221.2621947015
211.5553466931 131.5295148692 223.5413901759
204.4756084819 100.6864333132 249.5715665489
231.1330775268 89.8063521833 227.4540041750
223.8563645466 85.3839979566 223.5507220189
209.2997825532 124.8809577489 216.6054381577
196.8192101977 118.6572788372 255.6794256953
230.5356442257 88.3571832187 228.3880006452
225.9561941684 69.3541069372 239.3695546003
193.5492197392 119.0879254716 252.0774715009
223.3699716923 115.9382750703 214.0638684745
220.8990999218 151.7737448293 217.3576998733
223.9391284557 70.2119247751 239.4476587033
213.4013459213 102.7657729002 257.4549019232
214.6497662935 85.9869147423 212.6192530076
204.3105266665 105.7150258529 248.2592632124
190.5186038420 121.0322701664 254.4279542827
222.1177833354 69.8900632960 233.5279242438
217.3786682706 101.2350703114 257.0954942673
211.9233485736 128.4693274041 220.8421929538
213.5653837898 101.5332426412 211.6020959623
226.3532056761 75.2065900494 239.0838238892
233.2931643939 79.6246453525 238.2645492457
223.2344644861 147.3018539390 218.9342196669
211.3628677620 125.0519697628 225.3572018272
226.9475155541 78.1508119865 238.2375728837
224.3274317580 85.6985602466 224.1259107582
213.4592807681 94.6915000527 214.2371777101
216.7076887418 147.7654410951 221.7793874242
217.4868123174 150.0862177469 225.6966275374
217.3819777778 82.8574610869 249.9522228919
217.1338207825 135.9914306244 216.9789670682
219.1958147444 86.3064342886 224.4792333231
221.4554865454 75.2249311274 232.0593931028
205.6505720888 111.2661247817 251.3586237007
215.7350174058 85.6678590029 250.4742341992
223.8925745868 79.0701974322 231.5980121189
219.5696807893 143.7255019209 221.1792946816
211.1152677471 108.1093512815 201.2703356866
221.6677234405 80.5423796487 252.6413481371
214.0422928417 97.4562297190 251.4628191910
212.3365934512 86.2153883046 212.6931569147
220.6847617518 148.1951162746 222.6100428128
207.1503228249 97.8650185858 247.7180224652
214.4020291542 96.2557096140 255.2042029098
216.3766041241 117.6045411658 204.3527695596
197.9851904105 118.9361240925 245.0334276427
210.5423888711 101.1689655901 212.2359835788
206.0417700298 111.2744992558 243.4017449446
211.2831797648 110.7801751361 249.9066894250
206.4856041330 128.6020767315 222.9283457309
211.0522291574 83.6438744644 251.8425686337
216.1836881298 143.4439615260 219.3642093560
223.7674213641 91.2902093726 215.0464951827
212.1481698771 134.7679333623 227.7359109508
225.1768219086 87.9244870849 251.5877739339
205.9533336599 100.6212096695 253.0677521528
216.3843755843 93.6111533344 215.5372310379
209.9110966847 98.1027230064 209.9880277023
218.6174218403 100.0867819317 214.8349861691
226.9060165321 85.6443848648 226.2767796502
201.6353013060 119.9354936913 249.8327235569
209.0790403647 140.5368515971 226.5396931550
220.1244452758 82.2866646204 218.5569259154
209.5030630426 98.1152372030 211.0939354414
193.7455805927 121.8979486493 256.8807780198
215.1138248558 138.2514507869 218.9438966511
223.7889239188 77.5590829209 249.1611818323
195.5818341745 119.5629166732 251.6764697065
219.3187763940 94.0435672559 210.9849307224
223.8830268228 85.1426342061 208.6090813187
216.7805753407 151.3210584825 225.8895119950
210.6355954020 84.3663096208 249.6531966116
208.9166056014 104.8662141800 252.2125900418
213.7434808057 105.7621236221 204.0870927985
198.8472953099 112.9437107772 246.2201109734
208.3710913968 105.7160984102 248.6985877743
228.1884818599 82.9878164865 247.8667053573
221.3396433999 149.8432228628 220.4936708244
220.3990240808 153.0038900765 223.7704022627
201.7171154898 110.0666739386 247.9557343879
216.6255653199 93.7678889261 207.9236531952
205.8072013657 115.1543010345 215.3384766281
205.3516676154 101.4273517755 253.8196979514
224.5857085755 88.2175376994 249.2256439148
217.2984986838 107.6095945390 214.9657665979
216.2080602647 96.8923498930 209.8432952717
216.5755907724 119.6618133898 207.5768348389
211.8360359044 111.7660342446 209.3500921327
210.0111163021 123.0321327556 209.8478398465
216.5055280632 100.7097703870 210.1248147834
228.7886546374 73.8893789202 237.5644939917
209.5934206593 139.4942400462 223.6433839737
214.4044564650 104.6731291702 218.3238272739
228.9953930070 72.8073241863 234.4916894414
201.6480317041 109.0954093333 243.6633080294
227.0178006951 70.9156629216 236.5782752076
210.9579151237 108.7646433143 215.8018079573
218.4140981898 75.0306842331 251.1621992696
227.1832855660 68.3016725306 234.7823360627
221.2088525062 77.5004939799 230.3260935068
216.6222544962 81.0295817589 245.9986699802
205.4010603920 129.5676480020 230.8910984269
202.8725995070 103.5638403122 253.6852486705
219.9292146786 150.5661570680 217.3648367297
217.3659851463 137.7706069351 218.2781420635
225.3348449762 79.7970997045 235.6570274661
227.3431873278 73.0092626391 232.2913553423
218.4306419601 92.2854724119 214.8708509804
215.1487648025 112.4517988899 214.6669760425
214.8026242580 107.3759729464 201.9419443125
220.3532907597 86.7128290882 215.6893587515
205.5454431395 113.5738224501 243.6027067903
211.1485279341 140.4927698516 224.2130828749
217.2185713840 113.3532203697 208.1287732632
230.7914061134 87.5987564199 223.2309546676
206.5786666923 123.6170708326 215.1616257667
213.6866160006 106.4066189934 210.9863268568
217.9813431229 145.3375235276 216.7494415820
222.8246305455 80.5354880565 236.9759314538
209.1034512042 123.3763437845 215.5067477052
215.7917973857 105.8143985935 208.8708290165
216.3847443723 131.9351535209 220.7852924290
219.8949050670 115.2464850349 210.4757781898
216.5424986689 89.4215526479 210.0355269487
209.1089157775 130.1955143717 224.0995775210
196.8493206533 114.0520454624 248.3520577213
212.7093657608 116.3813941687 213.5397260897
219.5804477570 147.7441490352 223.1277526959
221.3328083959 70.9498992019 234.1312197607
203.9141378798 102.4689713305 247.6438472476
210.9205375955 100.2760235380 247.6704288654
206.0028498990 113.4345163613 246.7722482388
214.7950923647 97.4390030656 207.7945366674
210.3884897231 107.5554119168 214.2802410610
210.9205375955 100.2760235380 247.6704288654
211.8998165179 95.0173820643 208.2335984455
216.9620076177 115.0165470994 212.9466679221
225.3127940318 87.5747395460 223.4379377512
224.7191316558 87.7576696651 214.5292853060
218.1886866604 76.0211429390 249.5150868141
212.2438810305 113.3786577924 212.3431661804
193.7072834941 115.3675141118 259.3983725183
213.0464194606 100.9737495461 249.4981706758
221.7595134577 147.4776279425 223.2543768992
222.4747749331 78.1367118930 238.5679834473
203.3684931082 121.5273092208 246.2671664119
224.8629228867 80.8682289224 223.0381622378
225.1199152987 82.7058028758 248.1673140051
212.2333658343 133.2098814381 229.3116620136
219.3226560263 82.1843796413 251.4838302159
226.0213507059 81.6941790516 221.1993743745
212.3077843548 120.1432651558 208.8769475608
211.7994883380 94.0635276798 261.7566885006
228.9404206723 89.2281584290 226.1265229463
220.4082006846 117.1107970472 203.1550509308
228.6866718932 82.5657961324 223.6405957734
210.1991893784 110.1314818432 253.3393142888
193.8396849809 120.9195769844 259.4385320592
214.0250329990 119.2534388702 207.3071058019
209.2523211032 120.3024385677 213.8865648829
211.7486521025 98.8320658302 252.2457205711
194.0850242073 117.1462827485 254.5255797868
233.1289296065 73.9100798252 246.4170419467
209.0634400119 106.4221542790 204.4823236807
216.3847443723 131.9351535209 220.7852924290
224.0573506520 81.0848737328 231.7870422708
220.4133256907 84.0839024115 214.5819763822
214.0461221317 129.7854076112 225.7890414109
223.7050920931 81.3795967041 226.5358628545
222.1121998327 90.0401791069 209.8057493221
208.9706095926 120.2917335030 225.4827267893
217.6819414746 82.8014440793 249.8254887757
216.5320489979 101.9327058459 256.0946450155
216.4602723866 102.2280344799 217.5040068852
218.5733978099 148.8551881332 218.1084977464
212.5243692689 97.5513907914 260.7901047019
226.8099996880 69.3231882099 235.4154248503
215.7375404369 147.2113997088 221.0916201609
222.3284088985 84.1406618628 252.7758516382
222.3045949264 75.5800556625 231.0424981269
212.8829821788 107.7465705516 211.5549903427
212.4022592981 117.7382863251 224.8308585177
215.9918351112 85.8012350013 223.2461815005
221.2956404766 113.4448740470 216.9416602707
215.9631613262 100.8714680119 208.6265309326
208.0307091615 141.6133133319 230.6222990408
216.9103925106 99.3519213627 206.5296878648
205.5259075199 113.9890799317 248.1085468370
205.5259075199 113.9890799317 248.1085468370
224.1698899946 83.3152070918 222.3084839181
223.2619006199 67.8896182305 233.2154423665
216.9640911879 83.6835647179 220.3083039685
224.9777705328 74.5112260923 230.4372354489
204.7819932240 133.6170215341 227.1170235032
204.4197552275 118.0174998919 252.6167861350
194.2329885826 119.6760442800 260.7391957321
225.3815635086 79.7408938536 243.5611488671
190.1423679640 118.0670355849 256.7007508407
219.3185854548 80.7169885870 222.7773524766
219.5608855993 83.3264759290 223.0927817353
209.2216833311 109.4107279904 205.6415919809
214.7576335339 143.0750945132 220.0260989386
227.9138980396 89.5432518667 225.7955591514
210.5423888711 101.1689655901 212.2359835788
208.4245285188 105.2750447161 251.7286432445
211.8998165179 95.0173820643 208.2335984455
224.5857085755 88.2175376994 249.2256439148
206.1543801383 110.0696227551 248.6596607723
221.8842123620 85.8862224998 229.8175484189
213.6669538440 114.6636018246 207.0327990871
227.8042164647 78.5426181025 227.0050528666
212.2876801825 100.5426988169 250.9919594451
224.7804028186 82.1126543902 250.7653686960
190.1423679640 118.0670355849 256.7007508407
203.9364501496 102.0452913878 248.7772368729
218.9671230016 107.4089393811 208.7059951887
198.9654898642 116.2395049091 245.6692340473
200.4075774179 115.3902714735 255.9123152305
231.2447003415 85.6571521220 226.5063973252
206.3706653365 125.0789799458 220.2410791454
218.4136151582 152.2104836587 226.1086123843
191.5430996357 119.3202219160 252.9249970070
218.6093903430 114.7574477121 209.0314221467
209.2608158345 117.5115939369 211.8103588198
215.3197695439 89.0244695615 247.5199268038
230.0919217747 77.8575494211 237.2010067731
213.3876977085 120.1414579980 224.1777686318
207.6320525452 115.2672008396 219.8827109513
226.4270427525 80.5640024483 245.5281527375
212.2513962183 116.2053744893 211.9594190336
215.5701817040 93.4390804361 259.5135130078
208.0617248299 127.2147518086 220.5975690579
214.1465651436 94.2581851346 214.1288725114
216.3242495630 100.3402346097 254.9317946447
208.5999415729 110.4310617061 252.8745805438
211.8110514218 136.1392394093 222.9456709332
222.2747092872 79.0006961767 254.1277436745
228.0307060844 74.5893695740 242.9413241782
229.4845331598 72.8419503855 240.4861814420
202.9611334808 117.4868666617 216.6288576965
221.0865656965 147.0723587794 217.7066326500
225.6203515280 80.6878982510 250.2111530270
209.7059664937 134.5287422405 229.2801794356
212.6207213091 89.4114437247 253.2671179008
210.5237468445 107.5710908155 201.5946305335
196.8936410777 122.1022355376 254.8080455638
232.0586456278 75.1710933435 242.6663277983
207.0018182760 114.5334423537 215.2230758651
208.6580088670 126.8166845161 228.1962957433
218.4670445100 152.2406284586 226.0395352862
210.9633027298 96.0362167274 261.0432643514
223.8506031365 81.7595158740 246.5550599498
205.2160195972 131.2561661958 225.7954455829
220.4124232174 75.2282736854 234.0741619205
223.9951734704 79.9854925067 239.5534469733
207.9323460380 102.2351203072 208.7127902353
202.6341846730 113.9830031047 243.0063126613
216.4781851213 134.1072684076 219.2407331565
218.1581912909 150.2717499902 217.8495305801
232.9888127195 77.1800077930 236.9465457614
193.8396849809 120.9195769844 259.4385320592
219.3170817554 115.3845430684 206.4325976167
212.0177980643 117.7963141740 219.2171548935
234.2534564305 77.1557928795 247.3165267049
205.3516676154 101.4273517755 253.8196979514
200.8620801361 120.0384685257 253.6776878905
214.5975929889 94.6326867073 260.3215878742
207.0512497060 122.9431111610 207.9023275908
215.9012514233 142.2139703734 219.5270592007
212.5701236863 126.2702124893 226.2001337728
205.7819108550 130.2707785400 225.3181243241
206.0469439391 109.8588313624 250.6252056449
211.8811422364 113.9289162532 210.0511412287
200.1248777809 113.5840666637 248.3352109453
228.0840182611 80.3566520570 242.8375390210
222.6767083267 77.2491364933 229.6525412535
216.6296347442 91.8188162440 257.6611360465
191.9576329268 116.7999818270 253.5682665786
215.2590732562 86.6994672625 210.2965986431
207.6330803870 133.3342488964 229.3909911511
220.6626693522 79.6339693148 235.7211880990
228.4815100842 68.9834749320 236.5573397218
223.1218818177 116.1121635178 212.9286019268
202.8349746030 115.1505146924 255.8347585746
214.4246624765 130.7421985435 220.0031688248
227.1302171630 81.5586478009 222.6761117019
209.9509970483 101.6547055065 257.3874113211
211.1228008697 107.0878950349 216.5313074149
224.8432848268 77.3793015675 246.7215753644
196.2183206771 118.8353889892 250.8535058347
222.3713482771 91.5673102891 215.1387226923
226.9770537786 80.6234249720 222.1450036072
219.3337235527 82.6032486694 218.1256148486
212.0503542488 101.0431040411 203.6737564671
204.1963818372 109.8042626220 244.9751751028
212.6722880405 105.5892480213 210.8692160740
210.1764291161 107.7254905155 207.3852652372
209.1815772650 103.0128168490 255.9822180954
213.7381107025 141.2660855699 219.6877950153
214.2163258532 151.1179950425 219.9961854295
215.3926519366 89.1135671502 248.5820760291
211.7133860231 115.0628535168 210.5218009911
200.7312065288 116.0596241565 244.5099268006
222.4188776554 91.8948544061 253.6293473560
216.5089974435 104.7728953656 211.3584946010
203.1248662675 119.6602731187 244.9038360147
192.1199229807 115.3601779798 257.8939698985
212.0243171051 118.9020548163 217.8136953803
219.4588157131 89.2135703769 219.2317823317
218.4127770873 92.7950196445 209.7201667737
210.2064289000 87.6349669392 252.6860262250
202.1828295281 118.0120236484 257.9360186141
223.3186211731 90.5771496537 212.8804728350
217.1067238595 100.8565353272 207.6283783173
214.5651747104 89.9212812905 249.1500004915
222.3284088985 84.1406618628 252.7758516382
224.8815156711 87.1419426715 223.4213105611
216.3126838653 148.6745067116 217.9247004614
206.7963328646 125.8949466424 220.8558746148
206.9907140682 127.5874641769 223.6971307539
214.7136516623 94.8644333625 259.2003469400
225.8363916085 75.2155071042 241.5500377442
209.7398920079 99.7832940270 203.4682246451
205.9736008449 116.8244547215 209.0636748577
218.9327183092 82.2893952486 246.2042017889
224.0117791978 73.3955032971 239.6054593486
215.9718818971 90.8249490069 208.6035662623
227.7699582403 83.5155464187 245.9979436763
216.2062392584 135.2989474656 217.3049453407
226.3723985629 85.2958844883 211.9072172154
221.6933458396 90.0948505514 252.5373735742
207.8110626858 136.1956413413 224.3193941183
223.7278781488 80.0217126954 234.1747687208
230.2452788289 73.3867156685 242.0707832173
213.3528501331 107.8502554073 200.3250204442
231.0363212272 89.3668503992 224.6696013694
212.5278199683 138.7706141242 220.4169884406
205.2281766170 98.9586370128 250.2614533423
216.7632842795 138.1010816470 223.7059258205
214.9210192307 140.0595596616 219.1841514519
221.6261425192 152.9288994431 220.8666665044
224.0531117027 88.6381452013 254.5369215295
223.2130044898 75.1728782121 250.3651839413
212.1242845710 91.6678464096 259.5698037222
207.5989691512 110.4463617058 252.4943213845
217.0031495598 114.2275544083 203.6368412652
212.8109534202 113.2678102739 212.3649197511
213.9815092668 93.7874931372 261.1253687843
212.5418546544 96.9573147534 204.4768717646
213.3787768208 98.0134660364 204.0178212629
218.9327183092 82.2893952486 246.2042017889
214.0690614500 109.4912018389 208.4364453922
225.0341902836 76.5590405777 235.2656092513
201.7442036697 120.8843758758 254.2444449627
212.8558629666 89.6583758947 250.8559264262
218.1361358795 109.4489862925 209.7760294260
231.2447003415 85.6571521220 226.5063973252
221.7402205707 152.5018044503 219.4848153611
201.5303359728 109.7802350534 247.7134079973
216.9620076177 115.0165470994 212.9466679221
205.3670324830 112.1559589568 252.5433125535
224.3535174684 67.5893638529 234.1838843250
207.9805160759 105.6603782522 252.1671803283
227.5062059091 80.6934344680 245.3140878532
211.8305387906 91.0844616241 254.6893470926
217.2092968940 91.6033013730 255.7298955827
236.6044079411 78.4016069680 239.0383038107
217.4871181012 84.6579266495 254.4920104204
232.0402115352 89.3601962222 227.5746057968
213.2449312612 97.0285573309 210.6653080148
222.7806123814 83.6830062919 213.1452677032
203.2484426795 116.9778557662 252.5941405384
194.0561342543 117.7713055031 260.5089612002
209.7638669733 119.1263061449 226.5612657973
223.1905818945 80.1513290529 242.9244711752
214.4967838299 120.0302738495 208.0415862598
211.2727696389 126.5308182702 226.0620741256
230.9465429438 74.9544765147 242.3758409949
228.2660207872 85.6741515870 221.0539145954
211.1934827308 94.4461341650 255.1165499827
217.0298398640 152.4386642812 223.0997978633
209.2123545840 105.9031365324 206.1177800549
214.7136516623 94.8644333625 259.2003469400
208.6580088670 126.8166845161 228.1962957433
215.0070532872 91.1962297071 250.3193758726
219.8246191545 153.9294680582 221.8956868613
210.7281890854 135.5732474680 223.2905686922
217.0272678502 109.5845140675 208.2992921120
226.8832329894 87.9698161415 226.0541698513
220.9442537259 93.4901266925 213.0292966961
228.0593472307 80.7379488529 230.6814619211
231.9564104595 76.6453211571 244.7214000282
218.0863963091 85.7882107775 213.1594028333
216.9576066665 152.3662000107 221.6406559701
205.1055409877 127.3671497971 227.8406913120
195.8476127110 118.0911292452 254.7460006121
219.7920993635 111.8770164876 208.1290237177
217.9987931356 142.0735930155 220.6480622123
198.1567506316 113.8364550924 251.1948689896
229.4618959831 75.8325515815 231.3602555216
224.7129706694 77.8252881718 250.3308158768
227.1929821777 76.2895603112 228.8564328287
209.2022501560 120.1176230476 225.5355743182
204.2456744571 118.1623460778 251.4698307677
216.3713947951 112.5168132535 213.2276389922
206.3595197007 103.8023466924 247.8613823761
219.7013504339 150.0930605376 217.1975956205
220.0143408398 79.1195894019 249.2180510920
214.9082200032 107.8760135362 206.6872899791
204.2138356137 133.0115772030 227.8400098691
219.9087567096 79.2461181897 228.4936193332
212.1411421461 88.6420769951 211.1465569136
226.6583870281 76.0089343168 248.0054259624
223.6431680823 85.3731044171 209.4392727024
217.5143617957 139.5251141271 223.6998531962
208.6793510690 129.7297491643 223.3378084583
219.5804477570 147.7441490352 223.1277526959
217.6549298171 119.0152844448 207.8067412471
215.5125154733 143.9712565383 217.7323303347
211.0045958479 97.8524491106 210.9238263052
211.4316766519 104.0391820672 218.7474216157
211.9957108599 125.3879695219 220.6797158419
212.1785566012 131.1834978518 225.9121325329
201.0108785133 111.3015146741 248.1486188457
207.9805160759 105.6603782522 252.1671803283
211.9563630523 139.2167078687 232.6249070273
210.0170375893 106.6990134667 252.8929528026
191.5004444250 121.7973773269 257.4764501690
216.0455897428 128.4241240482 221.0068088713
234.2737602903 77.5990765382 237.3413711992
210.8807738810 92.3269342523 260.5488434131
215.3689169742 113.7322938910 207.0645532523
210.7636513794 108.3358080740 213.2311815251
219.4806552373 144.1690564143 217.6465130841
229.5345701612 79.0773936769 231.0831756258
220.5598155834 84.4671976302 227.3162945453
206.9423063663 128.0962145336 228.4967651019
215.3368962462 144.4108753309 224.2915916181
219.6771052441 87.8621351811 221.0193262875
216.7541161273 92.1772515081 253.6974484779
217.3340867852 120.8837822909 212.1141909501
223.9472573401 73.2482793875 239.3979619453
198.8490298152 117.4809762826 255.0881365442
213.6860231117 98.3300546990 252.7068131024
217.7540300272 102.3136543268 216.6046765333
212.4599137273 126.0458361126 221.3314060717
200.9749578587 109.3902158356 249.1582309092
208.4748050271 137.0565047373 226.5308713303
193.7072834941 115.3675141118 259.3983725183
227.4150097467 80.3142399278 232.9248705674
206.3595197007 103.8023466924 247.8613823761
208.7516381477 134.6861090140 227.2051343136
215.9918351112 85.8012350013 223.2461815005
197.8969798216 120.6470044533 251.5391062473
209.0364218445 136.0651878346 227.5565628094
218.4264840981 76.2237335623 253.7200433801
217.6829903221 86.1117089549 224.7271602055
228.9642639142 74.7807198149 247.1167922231
211.7685331999 133.7133816355 229.3316457462
214.3245874347 109.3065982955 205.4988694397
208.8529720334 118.8667406919 212.6778939844
208.6984344627 131.8104006784 225.0715079362
215.9921247097 102.2804431736 258.2077719821
208.6926010006 141.1806639710 227.8416103107
228.9315274992 85.8856256843 226.5803012324
211.5717151732 87.4328421220 209.6249900306
223.0788875816 73.1811298872 233.9498215801
227.5371356571 88.0608720774 221.1043704564
217.8853017574 97.0113325688 258.4134733738
233.2306444152 75.8247093560 244.3954465726
223.1142988020 85.1584615241 223.1850071929
212.7565703338 89.3661990775 249.3962872311
229.1310134133 74.3911370886 237.9696626742
193.7455805927 121.8979486493 256.8807780198
219.8515288138 90.0475239818 220.2811359613
218.9086783600 85.6055993170 253.7234948999
222.3474004863 77.7352726343 247.2414255636
201.6328822735 111.1070013122 246.0054683484
205.8649568225 103.7344328989 249.8584729713
206.5411305373 118.0322743400 209.9714686428
208.9194067524 104.6510230193 253.9384348803
208.3075801955 137.7802552427 229.0714112893
213.8719158357 108.5567627531 201.0101283667
211.1787133891 131.5105843984 224.7970082412
212.5376086349 108.3110037412 249.8234318457
213.6139557594 98.1428677009 218.8990741963
230.8975777976 74.9825785457 238.7375839626
214.0125830274 88.8738492242 254.2741394513
219.1685757155 77.0941902500 250.1126298666
224.2948340756 92.0189983706 252.3253155881
220.3561339191 84.8668482597 253.6539421540
210.9122113704 134.1319727493 223.2272733827
211.7646853128 118.5405736696 207.7985541586
209.2216833311 109.4107279904 205.6415919809
214.0831502274 97.8292946676 254.4801087424
194.8146183270 122.4916954851 254.2038894183
213.5606495680 109.4427266435 201.4878708149
220.7017423850 78.8314869590 235.2205318220
209.0978934563 123.6705877623 225.3964055057
210.5510389414 109.7032383865 251.8317112559
209.5527655243 105.9306430621 204.7981294300
222.6031686956 88.4889147099 254.1989969343
221.7916932886 88.9422347588 210.3509526758
213.7434808057 105.7621236221 204.0870927985
212.3689674103 137.0691629190 231.8818631492
214.5696508543 92.0166750894 212.7160916505
227.3045334025 72.9731509138 242.1245109439
211.1041765811 98.7905046772 258.9902200821
220.8280147994 148.5047389225 222.0464360471
218.5160595592 84.6789386888 213.6864101000
192.2848900168 117.5718327516 259.1638733050
213.6919147166 101.9825742664 207.2648057268
223.9458467710 89.9270666400 211.7611021367
224.6310414800 89.0304472515 216.7112610099
222.7318731258 92.4068053375 253.4447435803
196.0242163028 116.6407205997 257.7568846576
223.0893135851 91.3524126152 211.4479360958
212.2454678961 123.4395855256 221.8112761706
225.1338879041 67.7997460667 238.2884593940
220.1599906055 81.8965107731 229.3427391354
222.9181142881 88.5424797582 211.9559860753
209.7059664937 134.5287422405 229.2801794356
227.3308570250 80.0350322090 225.7594248892
213.8816266519 109.8651412764 203.5209848955
205.8985078989 109.2051710983 248.8147771910
218.3049887729 89.5671753579 252.4993416264
223.9600032499 78.7932211861 244.3296643876
223.0082953857 145.3951464744 223.7463574906
211.2074430238 109.4926144641 248.6742460502
226.9662301100 86.0993658092 219.6042561642
224.0558221606 83.2950139370 249.4979719379
217.0817223043 91.3862156503 215.6000960293
231.9564104595 76.6453211571 244.7214000282
214.5188521795 135.1175197667 225.5889958087
223.3871951706 84.4858336160 253.3053099726
202.1446994173 107.1030323737 252.1256865432
218.4151311454 87.1886457046 222.8021383746
207.1710644428 96.9124681458 248.1907845754
211.3812374017 137.3236875937 221.0458879409
211.9563630523 139.2167078687 232.6249070273
215.8190523867 141.9082840559 224.4914988134
206.9041350058 117.4045593706 211.1950184812
217.5992652647 153.6478956787 224.6213647595
212.9600809158 149.9101524347 217.2830287946
218.1896062682 84.6036937349 218.4380967260
224.8262721733 87.0023385784 252.6241774893
224.7810106241 89.5027411885 253.7162579920
214.1228397503 93.4190345393 213.5212961120
220.3532907597 86.7128290882 215.6893587515
225.7023346702 81.6996792594 222.7217215225
214.5007100825 107.3175059381 203.0776670422
213.4731940881 98.8879347815 253.9524406498
202.7063162347 106.1117154710 253.1513780223
222.7684753928 91.0665502577 216.9120183323
199.3360107460 112.1746404179 250.1109242104
217.0817223043 91.3862156503 215.6000960293
214.3385427444 89.1489846132 215.9031681352
226.3183778891 87.4580863265 214.9940190646
223.0893135851 91.3524126152 211.4479360958
203.8525590724 114.7742424896 247.3584125497
210.6355954020 84.3663096208 249.6531966116
218.1114811770 79.9671961017 248.1236115896
211.7646853128 118.5405736696 207.7985541586
197.7968591778 121.6956238699 254.6920843823
219.9181824677 153.2134966622 225.2952175358
232.9773544756 76.9076892907 243.8741683695
212.5778788601 130.8223770348 226.7389010328
215.6248163003 90.8927434608 249.8812510245
206.2343348052 123.5416916128 224.5646935607
220.7139599029 82.6937949809 247.2344497995
214.4337802413 141.0421033897 225.0424450033
211.2544686921 108.1688182166 251.4978293279
209.9509970483 101.6547055065 257.3874113211
200.1336787934 121.4626342561 246.9310057948
206.7984435013 100.9207743374 251.6527394509
211.4795614012 96.5666888378 204.6128666906
226.2042104887 84.2217242544 227.5709551902
219.0769589278 144.9915926741 217.2727257720
217.6515762901 96.4662425911 210.0615982039
215.7578254491 113.5365326196 204.7661332506
211.7685331999 133.7133816355 229.3316457462
210.3534686102 104.6243062271 205.5091026249
212.6612289082 132.0283444200 227.6291760604
212.4312792703 111.5316876754 213.5929015654
211.5651112519 136.6293987510 222.8315181903
197.7968591778 121.6956238699 254.6920843823
203.3187241094 121.5395668195 247.2525749229
214.7356539609 90.9671935808 258.9595246048
223.9139553887 82.3039095681 247.2616411945
209.5378293167 135.3074980155 228.3887155048
216.7882914711 152.6775806053 220.5290514878
232.2475079063 85.1756669935 223.7633342381
212.1197611311 97.9851029632 217.0698781067
216.0929459130 99.4658593095 255.3885224215
218.4306419601 92.2854724119 214.8708509804
218.0532348530 115.2223352505 213.0173426067
213.2522277260 114.6707578815 209.0118640215
213.1312547809 117.3795865455 223.8439258576
219.0873208139 90.3287067249 214.2056385830
223.6154006151 144.6937844840 223.0722014266
212.5243692689 97.5513907914 260.7901047019
211.7709648629 117.8112658626 216.9136488442
216.3829533344 142.2206225259 219.9856489784
203.2484426795 116.9778557662 252.5941405384
222.3925896311 69.3676342071 232.5622352066
207.2260379681 118.0870838473 222.9288294726
217.5073118310 107.9316817471 214.0790757696
230.0954465386 89.1146151434 228.0149619089
214.0585820782 86.4399350379 246.8145101492
223.7945040378 83.0726624470 223.3752726218
206.6790103964 110.4050279594 251.2377814561
217.4908674587 109.3217987723 213.9450788278
209.4487621554 92.9067143955 256.0230164923
219.1087026412 119.0942413456 204.5958016609
224.7134792473 87.4074232840 212.9819514170
215.2301765551 87.9303839509 256.2307114431
205.4151485699 122.1839014099 217.7490789481
216.7632842795 138.1010816470 223.7059258205
211.6409595363 86.4255875051 210.0873133441
210.9205375955 100.2760235380 247.6704288654
227.6537541027 76.9159747266 238.0446884125
219.9810520096 148.1710145635 224.8895751311
209.1506697818 132.3822570754 223.2096017355
218.1896062682 84.6036937349 218.4380967260
208.0726538448 102.0988368163 255.7540794341
209.1322441369 131.1879670108 224.8431067502
208.9862482820 140.8637954567 231.7117329251
217.8036640224 92.7868751656 255.8758904962
210.6479095448 102.6627150084 254.1623567221
224.0099300661 92.1612592489 250.1063270140
210.0871829543 122.8659436469 218.2506473944
223.7072931104 80.6612564453 245.7531016991
214.0831502274 97.8292946676 254.4801087424
218.7202421222 90.7940641103 209.5062683707
222.6035722983 150.1460062131 223.3285261330
227.5396138653 82.4888905192 229.1491215656
220.3296247846 80.2049438896 253.0806557380
208.5537149362 108.7611242310 254.2379946408
212.2438810305 113.3786577924 212.3431661804
210.4993551047 119.3666256170 221.9823489592
194.1587582092 122.2376967669 253.3170468657
233.9935994431 77.0369091488 248.0777004882
208.6273704030 121.5557862382 205.5715509178
210.1235758777 136.3648534412 231.0756274186
192.6622526406 115.3508214574 255.3059643038
203.7891783342 119.1850907668 245.9345137382
216.9750097807 101.3741628650 258.0725295597
212.7702440831 118.3146208641 224.3367310908
229.9486117485 76.7592899924 236.3990485223
226.3636791721 90.0136037756 220.6753455333
210.7802934010 137.4175721444 233.4937189390
221.5449715409 144.8982855381 223.1383438296
206.8172400751 117.8275583677 206.1686208860
231.2655431886 74.0386045873 247.7638366845
221.0008683970 78.2246807615 233.8606522275
221.8662381167 115.7553600929 215.4991991151
216.3955799425 151.8436304760 219.4796978448
219.4752216849 153.7720396431 223.3173329917
223.8762140430 89.3337860503 221.3878963412
223.8830268228 85.1426342061 208.6090813187
230.4308068951 73.9659216064 239.4193233636
211.6698275724 95.2911934457 256.3642646577
213.2449312612 97.0285573309 210.6653080148
210.4309752943 104.1984173171 254.1060633062
213.5697247381 100.1736014556 213.3294444732
209.6472316337 105.8591469626 205.7019870827
224.3521830707 76.1969377458 236.3795994079
204.7125122808 130.2304996468 224.4441367653
219.5188708573 155.1966110001 217.3813596920
214.9091239410 139.3616614200 219.3425622181
207.9769202600 140.9071080553 229.0281226648
210.4495780662 122.8118617820 218.9916025558
213.4478710978 96.5387872268 214.7389256745
197.3873308484 115.1945664349 249.7896757638
218.0303539568 90.0534808162 254.1640507924
217.3894661428 148.1545842345 222.4910750041
214.1585714497 139.9259375571 219.5050222766
210.8864577221 104.6598952547 205.2784054135
221.3592423397 111.2396047374 212.3656827631
210.0219521089 136.8080882034 223.4834531498
217.1439328516 81.6589265825 248.3878707198
224.7089869047 81.3042186107 246.6081911397
229.0553394176 89.1830562127 223.5642955626
208.5999415729 110.4310617061 252.8745805438
210.9540293108 103.1301058905 254.7501318749
212.8769652516 85.1352547162 253.3854998607
202.8650843193 100.7371236153 254.0689958174
208.4124090345 140.2493385134 232.0525336673
195.8476127110 118.0911292452 254.7460006121
221.6115652410 77.2255511177 236.8821551822
218.3145160757 97.2342827847 211.0509938642
211.5897560454 116.5849396968 225.0466220249
218.8765382773 117.3150650350 203.2966266656
228.7347292880 81.0714950995 246.7049417809
192.3687167619 118.9182640890 258.7533767142
205.4010603920 129.5676480020 230.8910984269
207.2647328701 100.8174016725 206.9288877033
233.7812055474 76.8046535719 237.4989216046
211.0344027864 106.7732348362 249.6498886420
203.9057614817 108.4855664129 245.5210226654
208.6466991569 138.5981208678 226.8006447538
216.3281170033 106.5310423823 215.4085497754
219.6877668759 91.8082153398 214.0219748441
217.1888031051 91.8099854422 252.9084361314
210.4755252429 96.0191745186 206.7030870622
212.0636313129 99.9570081987 252.8826767923
218.4151311454 87.1886457046 222.8021383746
210.7887009922 95.6781301762 208.0699457540
220.7017423850 78.8314869590 235.2205318220
208.0533371658 129.0552433912 225.8309872293
223.7674213641 91.2902093726 215.0464951827
222.5740688683 85.0994427303 218.0616588274
211.3431320413 112.7863952807 208.6135231863
213.8395171165 144.6803879471 220.2768619457
210.0326834902 122.5919147403 217.7516545096
208.6273704030 121.5557862382 205.5715509178
210.5985012365 104.9775142638 251.0434505473
224.2161527673 78.1024062676 243.9847100620
213.5241928509 90.5863966332 214.4159205104
224.4471175736 80.8351920624 225.6543880639
210.0344525745 104.6298064349 207.0314497729
225.2305101443 76.1499632556 248.0510402993
223.2130044898 75.1728782121 250.3651839413
203.6049391839 103.7559489470 253.6531936647
217.1863716404 87.7371746308 256.1682127428
221.1000577069 80.9958386771 245.8850290291
202.7706377764 129.9227908339 225.5779104544
213.6214709471 100.9695843978 218.5153270494
207.0456837929 117.5093607762 222.1017017564
214.2983810958 147.3728221770 217.2756241877
190.7094753692 119.1390093392 257.4463332726
208.4612370850 99.7541968015 205.5080739276
217.7936633722 109.3616641280 208.2769702926
219.8927232962 74.8595933484 252.7850602721
230.7914061134 87.5987564199 223.2309546676
203.4850072386 117.4332835849 244.3376643495
210.1839319730 117.7748466526 208.8671549930
214.3385427444 89.1489846132 215.9031681352
200.6239951063 119.9053859482 244.4405861767
214.7445949158 100.6344732888 213.8054724273
216.0109162616 93.8090438531 254.3469716358
212.6527317779 129.9681016905 221.0332859816
214.1542787996 120.1414009020 222.1349654914
199.2240073858 112.2890247749 245.4994136560
225.0720071914 78.3821937432 236.0135969644
228.5809682944 75.8928331219 244.9014524541
220.3532907597 86.7128290882 215.6893587515
233.9830237491 77.1735796185 248.6658126431
223.9556711686 80.1213079830 253.2189926046
231.0100752313 83.7058587680 225.1584577262
199.6716595797 119.8556940686 245.1834509338
213.6036417942 87.5291336326 216.2590866468
220.7306519426 85.5179013872 218.2995697267
197.5961451687 120.1258841916 256.7008717742
214.2716764255 145.2475878013 218.0319923296
230.9465429438 74.9544765147 242.3758409949
213.8817229728 118.1551794415 206.5051475512
227.1095211540 80.6994431132 231.5608064570
205.3298777640 116.9444405898 247.8671384372
220.7563845361 88.3292136477 210.5494103254
222.4188776554 91.8948544061 253.6293473560
217.2185713840 113.3532203697 208.1287732632
219.8043436097 115.6232132670 211.4964027191
226.6583870281 76.0089343168 248.0054259624
207.6444665795 122.2820047981 210.6834384932
217.1662212637 141.3731694294 222.2667757461
204.1877723687 113.8177736313 253.6272573327
215.1257783015 95.6954636726 259.4409420288
224.0099300661 92.1612592489 250.1063270140
225.6234307787 76.5823436098 229.6442006759
215.8494741022 109.9618145831 218.4140877953
224.0977046658 145.6993491319 219.6088087910
210.3176922819 109.9370725936 253.2843710174
210.1177346709 127.5077775141 221.5783427599
211.4735787257 102.2231024532 206.9419825570
211.8222854422 95.8879760637 257.1029041813
201.8897568651 111.6457590607 241.3330415854
233.7812055474 76.8046535719 237.4989216046
221.5281671882 149.2637210807 221.3169680538
213.0032723027 127.5908327914 220.8851172738
192.4612160532 117.7149284821 252.6742339999
216.5055280632 100.7097703870 210.1248147834
218.3991657685 152.0632209600 218.4138427673
219.4860129240 113.9808460034 209.3153773001
225.1652288301 76.3812242785 245.9564595328
210.4188511317 95.6581654861 260.0600722046
221.9435924497 84.2390204833 230.3251090530
222.8009803760 116.7446527139 210.4482543141
213.2394371075 119.9178350066 219.8415124864
229.3312928029 79.5366591843 228.4428035125
217.0031495598 114.2275544083 203.6368412652
214.7153580114 135.8327003533 225.5788463733
195.6828623647 116.2048002655 259.5720536743
213.6139557594 98.1428677009 218.8990741963
223.1444144984 91.1278867079 212.0598972341
213.4478710978 96.5387872268 214.7389256745
210.2474035317 102.4025618076 247.6994988325
206.0315217012 106.1195291416 253.3102668921
231.2655431886 74.0386045873 247.7638366845
207.9568686376 121.9294172541 216.1356472055
230.2912112590 74.5995515142 234.7640559857
230.5879930825 84.7244216386 222.3788272760
199.9733510697 121.2182995071 252.4838298322
216.5761324929 151.5261397296 221.8781445830
209.9304195827 102.4017919057 207.5939175166
205.0146295109 108.3500386379 246.9977599793
191.2339412101 119.5495769232 257.5111616418
215.7780039137 134.2804616897 217.7226280850
223.7829667283 83.5558890590 220.9009876295
210.4136890763 139.0154180745 221.3101470711
215.0191386829 94.4792267014 260.5644110638
221.4725005950 114.1548859953 209.0295205805
222.7502731352 115.6297470265 214.1191729893
215.1355899832 118.4675007934 211.8612604051
220.6590641095 136.5780340081 222.0199241508
217.9098872252 130.9894711902 223.4819207857
212.2454678961 123.4395855256 221.8112761706
225.2528080169 84.6945237100 210.1368089789
233.0728779498 85.8591568069 224.5892889507
225.0128180689 78.7696886710 229.5127920743
224.7804028186 82.1126543902 250.7653686960
221.3396433999 149.8432228628 220.4936708244
210.0632345860 136.4094900850 229.5141423500
218.3321921079 134.0206636097 221.7522237796
209.6638777522 100.4462383107 246.9849336464
211.2383217634 126.0201437845 219.7170519118
207.5133947802 99.5749267093 254.7132130684
214.7967631398 128.4450082755 220.2297784504
218.6514195022 96.1391560447 211.1767224956
223.4376820536 78.1674183520 227.7245755926
221.5927362869 80.9679801755 231.7738955955
194.2611484315 118.8429495260 251.7567821194
224.9624240478 79.1035172973 228.3074659699
216.9947552648 84.0867981389 248.6227602151
211.0639861817 94.8701532088 255.6249677747
230.4491169603 80.4292179989 245.9207823826
215.6416382941 142.4872718342 224.1946788904
196.1161314237 121.3892053198 255.0211504666
195.4389327864 120.6199971215 259.9032658043
212.8105832832 103.5919007378 210.1457119475
220.1287374791 119.7426830996 204.8309348127
211.4032804762 122.7669020003 213.9791335869
213.5305568993 110.3962135996 217.7402350189
209.6638777522 100.4462383107 246.9849336464
215.3441203959 101.7806358136 209.4651398260
207.1885418816 117.0838221344 211.0611785019
210.5609689846 137.8025095655 223.3791248434
211.0045958479 97.8524491106 210.9238263052
232.9313687053 77.7102588847 243.0008901337
221.6575493099 70.0572362886 233.4525942234
222.3925896311 69.3676342071 232.5622352066
213.7829580972 91.9428944285 210.4142257134
221.6347284312 78.4127728652 247.7990553374
211.9233118770 99.5890460138 212.1316713794
227.3431873278 73.0092626391 232.2913553423
204.1951593535 127.5836321513 225.5783817532
221.6575493099 70.0572362886 233.4525942234
189.6879219641 119.8045080306 254.1495845901
214.4246624765 130.7421985435 220.0031688248
210.2341498268 102.4171350816 207.4778954850
215.1355899832 118.4675007934 211.8612604051
219.9976516990 133.3138102993 221.3869400588
208.5112636499 94.2882494033 260.1110886852
215.0499009385 113.7377940989 208.5869004002
224.7753799122 88.5465995574 217.8346186656
219.3685268856 88.4279663043 250.9022910722
219.9045672472 81.4635631449 222.3881320390
211.1398697385 109.6819157075 249.1047311743
220.2409161849 90.7203261066 209.4873812159
225.1768219086 87.9244870849 251.5877739339
226.3532056761 75.2065900494 239.0838238892
215.2753078535 116.6451238000 214.8402113371
216.1259154899 93.1239992955 214.8049502095
213.8270811234 93.5154275134 251.8122023945
215.3071074867 113.8502310384 206.8507167510
234.2084578011 74.8638650593 247.3548465394
216.7145212421 90.5401918176 214.9848993210
208.6540054536 118.5566231042 206.8246946758
222.3501776842 82.0186353887 225.9658977899
224.0836101100 86.0317684371 228.2886767916
221.4146845588 87.2117185692 248.4767035382
216.9791595093 135.9100465054 221.5102490598
207.8348558264 128.1339506973 230.2624258090
213.2238138781 99.0903792942 204.1027813634
206.9409056835 131.4387803037 225.9183911570
