78.0116577148 254.3493499756 141.2404022217
97.6216583252 184.3593597412 160.3704071045
40.4618721008 246.5575256348 169.6819915771
101.1891326904 210.8958587646 173.7039947510
95.8317642212 192.5968017578 159.0810089111
108.8627243042 204.5801086426 175.8190002441
59.9997558594 250.3600006104 135.8100128174
45.5042991638 254.6740722656 146.5923919678
90.3367614746 247.5620117188 149.8946075439
69.8172225952 251.1653594971 132.3700103760
58.2640800476 247.4128417969 141.4099884033
99.8416595459 228.9293518066 169.8603973389
88.6140823364 256.4928588867 142.3099975586
50.5427894592 243.9389953613 145.1161956787
95.7022018433 241.3398742676 150.9100036621
43.9255867004 248.7559051514 160.1289978027
91.4697952271 185.7657012939 161.5418090820
51.5357666016 236.1659088135 182.6630096436
62.0482559204 255.0173034668 140.9510040283
45.1820640564 243.0080413818 175.7220001221
93.8455886841 185.3159027100 162.3090057373
90.4097518921 247.7599945068 143.0800018311
96.6647796631 232.7553253174 154.0209960938
71.6086044312 253.0556182861 137.6976013184
94.8367614746 224.1520080566 166.3446044922
66.9926452637 247.4067993164 137.5829925537
70.6440048218 248.0522003174 134.2600097656
91.0397567749 186.6499938965 146.8300018311
46.3546638489 241.7223510742 167.1699981689
67.0867080688 253.6097412109 136.4799957275
40.3874206543 251.3698577881 151.4100036621
42.4039993286 245.9222106934 153.0500030518
38.7067070007 249.2597351074 170.6699981689
85.0186157227 260.6017456055 139.6660003662
92.7317657471 191.0268096924 145.3209991455
93.0779190063 249.3776092529 150.8170013428
52.2542991638 250.4940643311 144.0523986816
39.7340011597 249.5922088623 148.6999969482
95.8606948853 223.8810272217 168.3502044678
73.0740814209 250.7228546143 140.7699890137
69.0597915649 250.9957122803 139.2218017578
44.8716659546 255.6693572998 148.8603973389
101.2588195801 233.2740325928 160.3899993896
104.6516571045 215.9493560791 171.7804107666
108.2318725586 214.7975311279 172.7919921875
102.2572174072 226.8253479004 162.6200103760
91.6308670044 182.5829772949 162.0999908447
108.2427215576 208.1000976562 175.9489898682
96.9572219849 190.2653503418 144.0900115967
95.3843002319 185.6740722656 143.9024047852
98.0972213745 228.1753540039 167.4100036621
101.2625885010 234.4499969482 152.4580078125
93.9116592407 244.7593536377 157.1804046631
59.2497901917 248.0057067871 141.4817962646
99.8033828735 199.7598571777 172.6926116943
104.2272186279 199.5753479004 168.0800018311
85.8821411133 258.1769409180 135.3631896973
34.1646652222 245.1623535156 170.1799926758
72.6767120361 254.9797363281 139.9299926758
96.9874267578 226.8998565674 163.8200073242
88.7159576416 246.0588073730 145.4468078613
48.6240005493 244.3522033691 169.1200103760
54.8308677673 255.0229644775 139.8899993896
102.2016601562 217.3693542480 167.8003997803
93.6797561646 243.4900054932 149.2200012207
88.2908706665 252.0029754639 147.6999969482
69.1686096191 251.3956146240 140.2776031494
81.2125854492 254.5099945068 132.7180023193
98.8386077881 222.7956237793 163.0675964355
100.1639633179 196.3999938965 164.0938110352
90.1308670044 248.9029693604 151.5599975586
95.0339660645 179.9600067139 160.3238067627
96.8086090088 225.8056182861 166.5776062012
94.2882614136 244.0773010254 158.6710052490
101.5489730835 212.4592590332 164.0390014648
89.9799957275 249.4352264404 141.5074005127
90.4933853149 187.0498657227 156.3825988770
96.8516616821 192.2793579102 165.2004089355
66.1297531128 252.3200073242 134.8000030518
102.1921386719 225.0069274902 166.4731903076
103.1088256836 232.3240203857 155.4499969482
101.4307327271 199.4700012207 170.2326049805
101.4672241211 236.6653594971 155.0500030518
52.7331962585 240.5045928955 178.2179870605
48.5336227417 244.4869842529 178.4595947266
106.9940032959 198.8922119141 171.2900085449
106.9982604980 203.2073059082 176.6310119629
100.9447784424 207.4953155518 169.7209930420
46.3304786682 247.3369445801 151.0773925781
45.8955879211 250.0659027100 154.5590057373
50.0489501953 240.2781829834 183.9570007324
46.4517631531 243.6567993164 180.1410064697
97.5474243164 237.8098602295 159.1100006104
56.3340797424 254.9128417969 140.1699981689
100.3222045898 206.9798736572 172.1900024414
39.6752929688 242.9969329834 168.0839996338
71.6038055420 251.2171936035 140.7312011719
45.7559547424 242.6688079834 165.8468017578
98.8663024902 188.7987060547 159.0249938965
50.4952926636 243.8569335938 167.6139984131
37.9146652222 244.8523559570 165.2599945068
87.1589660645 260.9792785645 139.3889923096
84.5197525024 253.0000000000 143.0500030518
99.4140777588 234.7228546143 164.4199981689
62.4932785034 253.7881011963 134.5039978027
83.8446578979 253.1823425293 142.2599945068
45.1631965637 250.2645874023 154.9579925537
47.6486129761 250.5617675781 146.1159973145
54.1640777588 248.3828430176 145.6799926758
102.5272216797 215.5753479004 174.5800018311
96.6236267090 195.3969726562 159.4995880127
95.5857620239 209.8359069824 163.9130096436
58.0927886963 243.8690032959 187.0861968994
89.6314010620 247.2700042725 143.1788024902
99.8379135132 190.8876190186 161.8669891357
40.1674194336 248.8298645020 156.4799957275
104.8852920532 210.5569305420 172.4040069580
78.9808654785 257.3229675293 139.5899963379
77.7040023804 250.8122100830 138.0200042725
106.2082824707 204.0433807373 174.2959899902
40.9482803345 242.5333862305 167.4160003662
63.1042976379 254.8940734863 136.2124023438
59.0646667480 247.9123535156 137.4199981689
97.7621383667 182.6669311523 157.6731872559
77.7040023804 250.8122100830 138.0200042725
96.7425842285 227.1100006104 167.1780090332
60.3157653809 254.8059082031 139.0429992676
96.8608703613 226.1829681396 165.2200012207
105.1992111206 212.5875854492 168.1582031250
97.9897537231 216.9299926758 165.8300018311
101.1936264038 198.6969757080 168.3795928955
59.4382553101 254.0973052979 138.3610076904
69.3736267090 252.5569763184 138.0095977783
101.3940811157 207.5728454590 176.0000000000
45.5042991638 254.6740722656 146.5923919678
37.1947822571 241.5853271484 167.8009948730
96.5225830078 244.6699981689 146.9680023193
59.2433013916 242.5026855469 185.3280029297
98.4722061157 218.9598693848 162.6600036621
100.8692092896 188.8075866699 163.3181915283
76.4588241577 251.7540283203 135.9700012207
78.9316864014 250.8373718262 142.0599975586
79.0986099243 256.7055969238 140.2776031494
91.4520645142 184.6780395508 157.2420043945
100.9886093140 197.5356140137 170.6475982666
50.9238052368 244.7872009277 167.8112030029
106.2016906738 221.6573638916 163.3899993896
93.7613983154 242.7200012207 154.5688018799
49.9838066101 241.0072021484 184.0912017822
93.9386062622 189.6356201172 165.3876037598
59.0646667480 247.9123535156 137.4199981689
97.7238006592 193.5471954346 162.9611968994
95.0952911377 182.8369293213 146.6240081787
102.7846603394 219.6123504639 163.6799926758
53.5888214111 244.5140228271 144.5299987793
104.8586044312 206.5556182861 177.0175933838
86.5382614136 181.6472930908 155.1710052490
95.4514007568 189.2700042725 159.7187957764
39.7579116821 247.2976226807 159.8470001221
63.8297920227 241.8557128906 185.7017974854
38.0797882080 247.7457122803 166.0118103027
100.6488189697 218.9340209961 167.1100006104
93.7747802734 181.7153167725 148.9309997559
93.8767623901 187.1620178223 149.1946105957
96.7452850342 179.2169342041 162.4840087891
48.1927223206 251.0801086426 175.0189971924
39.8646659851 254.8923492432 149.5500030518
81.4807205200 257.7566223145 140.6160125732
46.8051414490 249.2100067139 172.5830078125
99.9538040161 240.9171905518 157.3211975098
52.0799980164 245.8308563232 148.7500000000
38.0720634460 246.5380401611 163.8120117188
39.6782798767 242.3633880615 157.8759918213
95.1074218750 246.7898559570 152.9799957275
56.2139625549 237.7599945068 178.9638061523
101.1738052368 216.0872039795 169.7111968994
94.4221343994 249.1869354248 147.5231933594
107.3308639526 206.3229675293 177.1399993896
40.2536239624 250.6169738770 153.8595886230
94.7686080933 245.3756256104 154.5276031494
101.5459518433 213.3088073730 176.7568054199
94.5140075684 242.2722015381 152.7400054932
40.3874206543 251.3698577881 151.4100036621
61.0286026001 241.3056182861 182.2476043701
52.9622001648 244.6498718262 140.9299926758
44.1367073059 250.1797332764 157.4100036621
91.0382843018 247.2733764648 148.6060028076
90.8486099243 185.4856109619 148.6576080322
52.9239997864 244.3822021484 143.1300048828
102.0284576416 210.7562866211 170.5597991943
96.0751419067 234.6999969482 162.2330017090
46.5959548950 239.8688049316 181.1268005371
50.9847831726 242.3653259277 164.4810028076
101.5392150879 229.6275939941 159.1582031250
106.1627273560 218.2100982666 174.2489929199
47.7559547424 240.0888061523 178.9468078613
93.5549926758 188.5569152832 161.9253997803
93.9313964844 233.7200012207 163.3287963867
39.0482826233 243.9533843994 165.0260009766
98.4240798950 181.1228485107 162.1999969482
95.6317596436 245.1567993164 148.9810028076
53.0182800293 245.5133819580 140.0260009766
78.1184539795 257.0762939453 135.0897979736
87.1983871460 256.9579467773 138.7559967041
51.3972206116 250.7953491211 142.8000030518
44.5136260986 249.2069854736 175.3795928955
81.9564743042 252.8012390137 138.4199981689
101.0532760620 246.8381042480 147.7940063477
95.7022018433 241.3398742676 150.9100036621
103.5467071533 217.5797271729 177.9100036621
101.3197555542 212.4299926758 170.8000030518
65.7288208008 239.7340240479 179.5599975586
59.9997558594 250.3600006104 135.8100128174
97.9020614624 237.1380462646 156.3520050049
78.5586090088 255.5256195068 139.4476013184
46.4814033508 242.8000030518 179.8188018799
90.6120605469 184.6680450439 146.0620117188
107.3583908081 202.8379669189 170.2160034180
85.5497589111 180.7500000000 151.8400115967
55.7982826233 239.7333831787 178.7760009766
40.1008682251 255.9829711914 150.3899993896
36.5334739685 247.5530548096 171.5859985352
84.2855834961 246.9559020996 147.4290008545
95.6963043213 181.1287078857 158.3350067139
91.9667663574 188.2420043945 160.7746124268
47.3939628601 250.2500000000 142.0138092041
52.9622001648 244.6498718262 140.9299926758
96.1491317749 244.7358551025 155.0839996338
47.5988235474 243.5440216064 146.6900024414
46.5188217163 243.7940216064 178.6100006104
51.2997550964 252.2200012207 138.4700012207
89.8708648682 184.7329711914 155.3199920654
66.5838165283 243.6784667969 185.2014007568
51.7194023132 249.8525390625 148.2740020752
60.6459541321 239.5388031006 180.8868103027
108.9027862549 201.8489990234 179.9461975098
75.3936462402 256.1978454590 135.0339965820
102.4713973999 207.7899932861 170.4888000488
38.3286018372 244.8756256104 160.5975952148
52.4392166138 241.9375915527 175.6181945801
89.5646591187 180.8923492432 151.3300018311
81.5614013672 256.5000000000 132.1988067627
62.5227241516 257.7601013184 139.4489898682
102.6774215698 202.9098663330 172.5200042725
106.4482879639 199.0033874512 171.3260040283
46.3167076111 248.6697387695 168.2899932861
64.3027877808 244.5989990234 188.1862030029
49.3959541321 248.5388031006 138.7068023682
56.0333862305 244.0198669434 186.7026062012
74.2992095947 249.6575927734 133.0581970215
99.6013946533 226.3999938965 162.0688018799
36.6014022827 244.3899993896 167.0487976074
91.8888244629 181.6640319824 155.5000000000
108.3352890015 198.9369201660 175.9640045166
106.1627273560 218.2100982666 174.2489929199
48.6379127502 242.7476196289 184.8970031738
49.5383911133 244.7579650879 171.6759948730
40.3988227844 249.7240295410 150.0999908447
107.1817626953 204.2468109131 174.6010131836
91.8888244629 181.6640319824 155.5000000000
109.5742950439 207.9140777588 172.6824035645
54.4016876221 245.3473663330 143.6900024414
94.9282836914 241.8933868408 151.3959960938
48.9767074585 247.1397399902 171.9599914551
40.8186035156 250.2756195068 157.1775970459
36.5419311523 244.9089813232 154.7580108643
38.4567070007 248.4197387695 158.9900054932
41.3867073059 256.9297180176 149.8300018311
100.8652877808 224.0969238281 171.1439971924
49.4882812500 239.3433837891 177.5859985352
98.4582824707 237.0933837891 154.2959899902
98.8020629883 187.8903961182 163.8269958496
46.8051414490 249.2100067139 172.5830078125
46.8589363098 246.2658233643 179.6620025635
69.6536483765 253.1478271484 133.3040008545
87.7120590210 246.2680511475 145.1620025635
54.8308677673 255.0229644775 139.8899993896
57.5116882324 241.7473754883 178.7299957275
45.0447807312 244.0153198242 148.8309936523
96.4121398926 184.1869354248 145.2631988525
89.7647857666 178.6353149414 152.5310058594
47.8986129761 248.9817657471 167.1660003662
55.6840019226 246.5522003174 140.5299987793
97.3414001465 225.2500000000 162.9488067627
62.1386032104 251.0756225586 139.2776031494
45.1340026855 244.8222045898 144.0000000000
60.5808677673 256.5029602051 138.9799957275
75.1667633057 258.7420349121 135.6146087646
37.3740005493 244.0722045898 155.8099975586
95.1743011475 245.0540771484 149.8224029541
92.5286102295 183.8756256104 159.1676025391
41.9852943420 243.3669281006 155.8540039062
74.9933853149 257.7598876953 137.5326080322
71.8136215210 254.2169799805 135.4295959473
92.9140014648 249.0922088623 144.0400085449
102.8797531128 198.8999938965 167.8000030518
46.3167076111 248.6697387695 168.2899932861
101.1292572021 201.0491943359 171.4842071533
108.5579147339 206.5676116943 177.1669921875
94.6726379395 183.2268066406 151.1529998779
90.1116638184 253.3393554688 145.3204040527
107.3589477539 213.7181854248 173.4570007324
103.8367080688 200.1897277832 169.4799957275
108.6294021606 204.7725372314 174.6640014648
49.9399948120 246.4852294922 140.6373901367
63.4382820129 247.0833740234 136.3860015869
38.8708686829 243.3929748535 162.9299926758
73.4249877930 249.9069213867 139.4053955078
104.6132965088 204.6226959229 174.3780059814
96.8086090088 225.8056182861 166.5776062012
78.1946640015 253.6423492432 138.5899963379
44.1747817993 247.4753265381 152.3910064697
45.8014030457 246.8200073242 166.2987976074
52.4534721375 239.9830474854 184.3959960938
98.7786178589 237.1417694092 154.6759948730
49.0052909851 242.1869201660 176.3740081787
97.5708694458 193.6829681396 167.8499908447
100.7464675903 231.0312347412 160.2900085449
97.0513992310 234.3999938965 152.8388061523
104.3479156494 216.2076110840 178.4669952393
73.0513992310 253.7599945068 133.8488006592
100.2747802734 231.2153167725 151.8309936523
96.5225830078 244.6699981689 146.9680023193
86.1374206543 185.4298553467 153.0000000000
104.8349914551 219.6269226074 176.7353973389
101.1346588135 212.5523529053 175.7100067139
107.2716903687 203.9973754883 172.0599975586
101.2916870117 231.4373626709 164.8899993896
100.6488189697 218.9340209961 167.1100006104
105.5142974854 217.7640686035 174.2523956299
53.5888214111 244.5140228271 144.5299987793
57.8240013123 239.3922119141 181.9600067139
91.3782577515 243.3273010254 159.0610046387
105.7308654785 199.9929656982 179.1799926758
48.7847824097 243.9053192139 141.0209960938
89.0246582031 183.5723571777 151.0299987793
51.9197540283 237.7299957275 180.6500091553
60.3886032104 254.3556213379 139.3876037598
56.4839630127 243.5500030518 183.6338043213
45.8940811157 253.9028472900 149.1199951172
61.6208686829 246.4829711914 181.1199951172
102.1682586670 216.3672943115 178.0610046387
59.5733871460 249.4998626709 142.6325988770
43.6108665466 248.1129760742 147.0699920654
74.3574218750 256.2998657227 137.7799987793
47.5114021301 241.0800018311 178.8587951660
88.7959518433 249.8588104248 148.8368072510
61.6208686829 246.4829711914 181.1199951172
56.3249855042 251.3969268799 144.7753906250
45.8646659851 243.8723449707 146.1300048828
52.6552925110 245.7069244385 140.2440032959
102.8942947388 226.8940734863 166.7124023438
39.5872192383 244.2253570557 151.8600006104
49.4442977905 246.9840698242 164.8524017334
101.5899963379 190.8052368164 168.4473876953
69.5567626953 253.4720153809 138.4546051025
50.9847831726 242.3653259277 164.4810028076
44.8926467896 248.9268035889 154.7229919434
93.9116592407 244.7593536377 157.1804046631
102.3799972534 218.0552368164 163.3674011230
94.8446578979 229.1323547363 165.1799926758
97.5240020752 218.8422088623 164.6500091553
87.7463073730 179.3986968994 152.7350006104
90.7716903687 252.6773681641 143.2400054932
105.3940811157 222.1328430176 164.7899932861
101.5188217163 231.8240203857 158.0899963379
49.6042976379 245.8440704346 172.4223937988
104.1149902344 223.0269165039 161.3053894043
47.6572189331 244.4053497314 180.8000030518
93.0308685303 183.8829650879 161.0800018311
100.7720642090 207.9503936768 170.9770050049
98.8213958740 225.1000061035 162.4387969971
92.2439651489 186.7899932861 159.6238098145
78.4308700562 254.7329711914 139.4299926758
99.7882843018 223.8833770752 168.8759918213
40.5136260986 254.9569854736 148.5195922852
97.5713958740 220.4700012207 162.9387969971
77.9455871582 254.2459106445 138.9290008545
94.6031951904 182.3845825195 146.4279937744
83.9959564209 259.5287780762 143.5268096924
95.3397521973 189.4700012207 167.3100128174
41.1816902161 242.8073730469 161.8099975586
97.1459579468 214.7888031006 166.9868011475
107.4182815552 204.8733825684 171.9059906006
86.1374206543 185.4298553467 153.0000000000
69.7508697510 246.3229675293 138.9799957275
39.5872192383 244.2253570557 151.8600006104
47.6246643066 243.1223449707 177.3000030518
103.3313980103 216.6699981689 173.7987976074
78.1184539795 257.0762939453 135.0897979736
101.9286041260 215.0756225586 178.1175994873
108.4716873169 199.8573760986 171.8500061035
107.7498016357 205.5367431641 170.5699920654
55.8497886658 246.6957092285 144.9217987061
93.7572174072 250.9753570557 143.7600097656
98.5591278076 215.0158691406 169.6340026855
96.8436279297 213.9669799805 164.6396026611
96.8916854858 185.9473724365 146.8500061035
99.1225891113 235.3399963379 153.2480010986
91.9967117310 187.9397277832 148.5099945068
80.0716629028 257.3693542480 137.1004028320
62.1716651917 247.2893524170 184.4504089355
92.5482635498 189.9873046875 147.3509979248
98.0416870117 188.2673645020 169.6499938965
97.6613998413 221.9199981689 163.2987976074
51.6118698120 246.7675170898 167.6419982910
63.4716873169 242.6173706055 182.6199951172
96.6316909790 184.4873657227 145.5099945068
93.8494033813 183.6925354004 162.2340087891
92.2697525024 239.8200073242 153.8000030518
105.0838012695 198.4171905518 172.9512023926
93.7747802734 181.7153167725 148.9309997559
102.2455902100 237.0959167480 158.5090026855
100.8508682251 215.2429656982 176.5399932861
86.7188262939 179.6740264893 153.8000030518
40.3457641602 254.5159149170 149.6529998779
104.4752883911 210.4969329834 174.6340026855
44.1559562683 245.2687988281 145.4968109131
96.8216857910 185.8873748779 156.8800048828
40.5799980164 241.5008544922 162.1100006104
103.4716873169 213.0373687744 166.2799987793
101.6208648682 209.1929779053 175.1399993896
94.5742950439 186.9640655518 143.6623992920
96.1692123413 185.5675811768 154.7381896973
97.4517593384 235.2468109131 153.2410125732
53.9467048645 249.4397277832 144.8399963379
84.9416885376 258.4573669434 132.2599945068
97.0408706665 236.7029724121 158.8699951172
88.7179183960 181.4876098633 155.5769958496
40.5436248779 249.7569732666 156.8195953369
54.1916656494 250.5393524170 142.9804077148
86.3916625977 253.2393493652 147.5304107666
57.0340805054 251.7128448486 141.0699920654
98.6613998413 192.4499969482 163.3688049316
58.0927886963 243.8690032959 187.0861968994
37.6508674622 247.1329650879 167.3099975586
85.9763031006 179.9987030029 151.9750061035
42.8679122925 255.9376220703 151.2769927979
47.6246643066 243.1223449707 177.3000030518
40.9352912903 244.6469268799 163.9840087891
105.0922088623 210.5498657227 171.0299987793
98.7386093140 216.2656250000 169.2575988770
62.4932785034 253.7881011963 134.5039978027
85.2040023804 255.8822021484 144.1100006104
42.0338058472 244.8672027588 170.5912017822
104.7799911499 205.6452331543 168.9373931885
71.7197570801 253.6900024414 138.2500000000
82.6839599609 248.4299926758 144.7438049316
99.6607360840 228.3000030518 160.5525970459
59.7467689514 250.4820098877 140.7145996094
44.0216903687 255.9873809814 148.7899932861
39.6674194336 248.8898620605 160.6600036621
99.3247833252 242.5053253174 151.2109985352
92.4927215576 253.1401062012 146.9089965820
93.0940017700 184.7622070312 143.4799957275
53.6574211121 250.1698608398 141.6199951172
98.8239669800 229.9600067139 157.6238098145
48.0939636230 245.5599975586 140.2537994385
95.2443008423 184.4140777588 155.9924011230
48.2521362305 247.5869293213 177.1031951904
46.5722007751 242.4098663330 174.6299896240
102.2040023804 212.0922088623 174.8700103760
44.5765953064 252.4516906738 154.3057861328
99.1106948853 197.1610260010 168.6502075195
58.2255859375 246.2459106445 145.6889953613
100.9886093140 197.5356140137 170.6475982666
60.5936241150 255.5169830322 137.1195983887
100.2513961792 213.9299926758 164.5588073730
57.3147811890 246.0653228760 143.7709960938
97.9020614624 237.1380462646 156.3520050049
51.1683883667 245.6679534912 174.6660003662
103.0902938843 212.6198272705 177.0749969482
104.8816604614 218.7593536377 176.5204010010
43.4938087463 254.7971954346 151.3912048340
99.0579147339 233.2176208496 166.3069915771
54.0579147339 237.5876159668 184.2870025635
74.3574218750 256.2998657227 137.7799987793
36.5908660889 246.9229736328 155.4700012207
44.3399963379 246.8452301025 166.6673889160
95.6708679199 211.2429656982 165.4400024414
49.0988235474 247.1840209961 148.3499908447
39.4108657837 244.1229705811 169.8600006104
58.8983879089 241.9379577637 179.2259979248
95.6808700562 188.6029663086 148.4899902344
40.4618721008 246.5575256348 169.6819915771
100.2140808105 222.5628509521 166.4199981689
97.6940078735 224.6322021484 163.5400085449
78.4316864014 250.4373626709 139.3300018311
107.7572174072 193.3153533936 169.4199981689
64.1682815552 240.0033874512 178.9160003662
36.6014022827 244.3899993896 167.0487976074
52.2542991638 250.4940643311 144.0523986816
52.9216880798 246.6973724365 146.7100067139
95.4946594238 187.7623443604 169.9299926758
78.9907226562 257.9466247559 136.6860046387
92.2439651489 186.7899932861 159.6238098145
49.6247825623 241.9653167725 142.4309997559
108.3399963379 195.9252319336 168.5573883057
96.6559524536 219.2588043213 165.2068023682
101.4292144775 188.5075836182 165.7281951904
58.7272224426 251.6253509521 137.4400024414
55.3584594727 245.2462921143 178.5897979736
76.9540023804 249.4721984863 138.7700042725
38.6346664429 242.3023529053 162.0899963379
44.0021362305 245.9769287109 159.9531860352
89.4216918945 256.0173645020 140.9100036621
42.5564689636 243.7212371826 162.9700012207
106.2443008423 203.5140686035 170.0023956299
91.4240036011 182.2322082520 149.5100097656
44.4159545898 248.1788024902 177.6468048096
98.7716598511 213.8593597412 164.6903991699
91.7279205322 252.5176086426 151.0769958496
94.6988220215 182.9140319824 145.2799987793
42.9327888489 244.8890075684 156.6361999512
99.4042968750 212.8640747070 162.4223937988
88.0622024536 250.3198699951 140.7099914551
108.7989425659 199.1181793213 174.8069915771
64.2672195435 246.7953491211 182.7900085449
48.0751419067 243.5500030518 163.6730041504
57.4767074585 254.8397369385 139.6699981689
77.7279205322 251.8976135254 143.4169921875
95.5539627075 241.3800048828 147.4138031006
86.9436492920 254.6978302002 144.2039947510
99.3479156494 242.4676208496 150.9369964600
62.2433853149 244.7498626709 187.8026123047
102.8039627075 221.2599945068 159.0037994385
87.4066772461 251.8899993896 139.9819946289
88.3840789795 253.5228424072 148.0399932861
49.8088226318 244.8940277100 146.6600036621
87.5452880859 256.8569335938 143.6640014648
77.9067077637 252.3697357178 142.6199951172
105.4482574463 200.5272979736 178.6910095215
55.3616905212 247.1073760986 140.2799987793
47.9282798767 241.9733734131 174.1060028076
105.6388244629 198.4240264893 173.6100006104
99.9246597290 205.7423553467 173.3999938965
42.2742996216 246.2040710449 153.1324005127
62.6314010620 243.1699981689 178.0388031006
103.4346618652 198.5323486328 175.3699951172
46.6288223267 242.8740234375 170.6299896240
81.1816635132 258.2393493652 139.3704071045
98.6567611694 245.3520050049 154.0846099854
83.0746612549 257.6423645020 144.7899932861
45.5516891479 250.8773651123 149.4700012207
103.1988220215 233.9040222168 156.1900024414
88.1816635132 254.7593536377 146.5904083252
63.5040016174 247.3222045898 137.7900085449
96.6967086792 188.1197357178 159.3600006104
94.2821350098 184.1769409180 151.8432006836
60.0797882080 246.2957153320 139.7317962646
90.4746627808 185.9023437500 148.2299957275
101.0563049316 223.7187042236 168.5249938965
73.0513992310 253.7599945068 133.8488006592
45.0308685303 247.7229766846 168.8499908447
61.6651420593 252.2799987793 134.5830078125
96.9140777588 187.0628509521 160.1999969482
67.2889480591 241.3981781006 178.9969940186
96.8186111450 194.1317749023 168.4659881592
109.3747787476 205.5953216553 173.4510040283
99.1967086792 235.7797393799 163.5800018311
65.5442962646 254.8740692139 137.3824005127
84.1513977051 255.2799987793 138.4188079834
101.3840026855 220.8522033691 159.1000061035
90.0208663940 252.2329711914 151.1900024414
59.2419319153 251.3689880371 136.4080047607
65.2537994385 242.3372039795 182.0912017822
40.3889503479 244.0881805420 152.7969970703
91.7046585083 239.0723571777 155.1999969482
93.0120620728 188.8880462646 163.2420043945
98.3589706421 211.8992614746 162.2890014648
78.9808654785 257.3229675293 139.5899963379
94.4943008423 189.4240722656 144.0323944092
65.7288208008 239.7340240479 179.5599975586
48.4227905273 242.0690002441 173.7861938477
48.0146636963 241.9323425293 165.1799926758
81.9097900391 247.4057006836 146.6618041992
100.3216629028 221.7493591309 166.1103973389
82.6839599609 248.4299926758 144.7438049316
46.1274185181 251.9898529053 175.8000030518
86.3082885742 247.4133758545 146.8959960938
52.2489471436 246.1781768799 167.0869903564
36.8857650757 241.8159027100 160.4430084229
102.6274261475 215.4298553467 171.3899993896
52.3647804260 242.2553253174 174.3209991455
83.7582626343 258.5573120117 146.4410095215
49.0052909851 242.1869201660 176.3740081787
37.9797554016 246.7899932861 165.0700073242
50.2299957275 245.3508453369 169.0700073242
96.7227859497 223.0189971924 168.6461944580
36.8659553528 243.5288085938 167.1768035889
78.5214004517 255.2799987793 134.3787994385
38.4567070007 248.4197387695 158.9900054932
45.4340782166 250.0328521729 152.3600006104
53.0863037109 235.4987030029 181.4450073242
61.5197563171 239.8099975586 179.7200012207
43.6316871643 246.8473663330 157.7100067139
84.2859573364 258.6487731934 142.4268035889
41.6238059998 246.4871978760 168.5211944580
88.0789413452 259.6481933594 140.6069946289
98.3821411133 187.7969360352 162.5231933594
49.0214004517 244.4100036621 163.7288055420
87.9038009644 256.8272094727 143.2312011719
54.0821380615 241.5269317627 178.1831970215
72.1216888428 249.0173645020 134.8200073242
91.9836273193 190.0469818115 144.9395904541
37.7874183655 246.1898651123 151.8699951172
42.5267066956 248.1297302246 163.5800018311
45.6682815552 243.0433807373 168.6159973145
51.2042961121 245.5040740967 164.1824035645
50.9397544861 246.9400024414 145.5900115967
95.1121368408 246.2769317627 146.8531951904
50.4621353149 245.9769287109 145.7031860352
64.6579132080 241.1276092529 182.2169952393
93.1138000488 249.9571990967 149.7911987305
97.7767105103 214.5897369385 168.6300048828
86.7188262939 179.6740264893 153.8000030518
72.5579147339 250.3676147461 140.8769989014
47.2820625305 241.4104003906 171.0870056152
101.4749908447 198.1669158936 166.3954010010
55.1838073730 238.3871917725 184.6412048340
97.3574218750 194.4298553467 168.4900054932
84.4257583618 180.6659088135 153.1930084229
97.5067138672 246.9597320557 149.6100006104
77.5365905762 257.9916992188 137.1757965088
102.3088226318 223.7540283203 170.8000030518
99.6607360840 228.3000030518 160.5525970459
103.0916900635 192.9773712158 165.4799957275
58.9121322632 240.0469360352 180.0131988525
96.4467086792 247.0897369385 151.5099945068
103.6382598877 199.9573059082 177.5610046387
104.4759521484 204.7888031006 175.6567993164
49.3672218323 246.5253601074 170.5599975586
102.7247848511 223.9153289795 167.0410003662
100.6827926636 211.1089935303 173.9561920166
98.7586059570 213.9656219482 169.2976074219
38.0238075256 246.5471954346 172.5111999512
98.8538055420 194.0571899414 162.2211914062
44.8031959534 247.1345825195 155.4879913330
54.7652931213 245.8569335938 144.6439971924
52.0697898865 243.0357055664 181.6018066406
73.0740814209 250.7228546143 140.7699890137
78.0046615601 253.5823516846 136.1300048828
40.9351425171 251.1699981689 146.7530059814
71.4740066528 245.5422058105 135.9499969482
98.0972213745 228.1753540039 167.4100036621
100.8839645386 205.0800018311 170.0138092041
107.0916900635 211.7473754883 173.7500000000
95.3951416016 189.3999938965 167.7030029297
57.4672203064 240.5053558350 178.3600006104
88.2113952637 181.2799987793 151.3388061523
91.3508682251 242.2929687500 158.8099975586
60.0059547424 252.5888061523 138.0268096924
56.9047813416 236.1053161621 179.7310028076
62.2188224792 242.2540283203 185.5599975586
84.7682571411 182.2472991943 154.4110107422
102.5772171021 194.4253540039 167.0200042725
99.9940795898 193.2128448486 160.2200012207
42.4039993286 245.9222106934 153.0500030518
41.3149871826 252.1869201660 160.8053894043
96.6872177124 190.1453552246 167.5900115967
47.9282798767 241.9733734131 174.1060028076
84.2855834961 246.9559020996 147.4290008545
91.6288223267 247.4840240479 151.2799987793
58.9121322632 240.0469360352 180.0131988525
99.5066833496 195.2299957275 166.2120056152
62.6314010620 243.1699981689 178.0388031006
75.8846588135 249.9323425293 139.6100006104
100.7532958984 232.7326812744 161.0180053711
58.8942985535 243.3440704346 179.6824035645
89.7317657471 253.7167968750 148.6410064697
85.4121398926 255.9969482422 135.2131958008
78.0116577148 254.3493499756 141.2404022217
46.0139999390 242.1522064209 166.0599975586
72.9516906738 246.5073699951 136.5099945068
101.2131958008 237.7945861816 155.9879913330
65.2240829468 251.0728454590 139.2399902344
37.9634742737 247.5230560303 156.6459960938
83.6632995605 255.9826812744 143.2579956055
42.9936256409 255.2969818115 147.4995880127
52.5667686462 245.5120086670 180.8346099854
101.3189468384 191.2281799316 168.7169952393
49.8140792847 246.2028503418 147.2200012207
91.8822021484 180.6998748779 151.7299957275
45.0167694092 245.2520141602 171.8846130371
41.1591262817 248.9158630371 162.1240081787
97.9067077637 241.4697265625 158.4700012207
101.8246612549 212.3623504639 173.9700012207
95.8420639038 223.2780456543 165.6420135498
90.6667633057 188.0320129395 154.4645996094
52.2542991638 250.4940643311 144.0523986816
104.5782852173 193.9733734131 167.7959899902
84.7608642578 261.0329589844 146.3000030518
42.7388229370 245.7640228271 163.8600006104
52.6686134338 241.2017669678 182.0159912109
44.2959556580 243.9888000488 175.2568054199
76.6372222900 253.5053558350 134.2900085449
47.3516654968 248.9093627930 169.0204010010
86.1022033691 254.5098571777 139.1199951172
100.4721374512 191.0069274902 159.1831970215
85.3625869751 258.7999877930 138.2380065918
55.5542984009 253.7040710449 135.7523956299
38.4797554016 245.6000061035 163.8600006104
52.0316886902 249.8773651123 143.6399993896
104.6516571045 215.9493560791 171.7804107666
93.8236236572 191.8369750977 161.1095886230
91.1836242676 187.6969757080 147.4895935059
65.9072189331 241.4853515625 177.8800048828
38.1786155701 248.7417755127 154.2659912109
92.7208709717 232.7129669189 167.1999969482
59.6708679199 250.7029724121 138.0500030518
70.9697570801 246.7500000000 135.3899993896
84.9416885376 258.4573669434 132.2599945068
97.5708694458 193.6829681396 167.8499908447
64.6579132080 244.8576202393 181.5769958496
64.3427276611 246.3901062012 180.3589935303
95.4897537231 192.1499938965 168.1100006104
109.5742950439 207.9140777588 172.6824035645
109.4289703369 203.6892700195 173.7890014648
98.1167068481 246.9097290039 152.0599975586
63.4716873169 242.6173706055 182.6199951172
89.8189315796 184.0158233643 155.1119995117
98.4582824707 237.0933837891 154.2959899902
88.4466781616 247.2400054932 143.3419952393
92.7546615601 182.2323455811 156.6900024414
104.0116882324 234.7373657227 155.3500061035
45.0167694092 245.2520141602 171.8846130371
81.2597579956 253.5000000000 133.6800079346
104.2684555054 206.1662902832 170.0997924805
97.4618682861 186.6975250244 146.3419952393
88.4466781616 247.2400054932 143.3419952393
44.8836250305 246.9169769287 174.3495941162
96.1564712524 185.7012481689 163.0800018311
38.2314033508 245.9100036621 164.1188049316
93.5307388306 187.0599975586 158.9826049805
98.6893997192 236.2925415039 164.5540008545
97.5897903442 196.2757110596 167.5917968750
47.9063034058 238.8787078857 183.1450042725
59.7974205017 251.4198608398 136.6500091553
100.1621398926 193.2869262695 159.9531860352
45.3597564697 247.3800048828 166.6100006104
53.1089363098 251.7658233643 142.5019989014
99.5147857666 228.3053283691 158.3910064697
98.7625885010 245.6900024414 147.3180084229
50.6216888428 245.7273712158 145.8200073242
42.5267066956 248.1297302246 163.5800018311
93.9020614624 186.1280517578 162.3520050049
51.6449851990 252.3169250488 138.1253967285
93.9386062622 189.6356201172 165.3876037598
42.2742996216 246.2040710449 153.1324005127
66.5621337891 241.5669403076 179.8231964111
108.8140792847 208.8328552246 173.2899932861
81.0922088623 252.6298675537 136.5999908447
42.1539993286 245.8822021484 157.1500091553
90.7397537231 245.2299957275 143.7600097656
73.4536209106 255.9669799805 137.3495941162
73.0740814209 250.7228546143 140.7699890137
101.9088211060 209.9440307617 164.3899993896
40.2439994812 242.5722045898 168.1800079346
63.1240806580 246.3728485107 181.3999938965
46.1959533691 242.7187957764 175.4668121338
98.0333862305 222.8898620605 162.2026062012
57.3104782104 248.6869354248 145.6974029541
47.8046646118 240.4623565674 178.0099945068
99.8139648438 242.8200073242 147.2238006592
99.1225891113 235.3399963379 153.2480010986
73.4249877930 249.9069213867 139.4053955078
53.0863037109 235.4987030029 181.4450073242
104.2272186279 199.5753479004 168.0800018311
55.4942970276 251.2840728760 135.9723968506
59.8074188232 253.1898651123 135.0200042725
105.5672225952 222.5753479004 162.5500030518
100.3299942017 223.3452301025 159.5173950195
101.3264694214 223.3512420654 166.5100097656
95.1017608643 190.9367980957 168.9210052490
96.9874267578 226.8998565674 163.8200073242
102.6197586060 195.7599945068 166.1600036621
98.3540039062 237.4322052002 153.7299957275
53.5940780640 245.8228454590 145.0899963379
97.3936233521 237.8969726562 157.9895935059
100.1639633179 196.3999938965 164.0938110352
49.2399940491 251.1752319336 142.3973999023
96.8186111450 194.1317749023 168.4659881592
52.0889358521 248.0558319092 149.7019958496
94.4221343994 249.1869354248 147.5231933594
103.1192092896 227.1875915527 161.1781921387
98.3566818237 228.8600006104 160.4120025635
78.0046615601 253.5823516846 136.1300048828
95.6967620850 235.8620147705 154.4046020508
100.3216629028 221.7493591309 166.1103973389
100.4840774536 231.9128417969 166.2899932861
92.7546615601 182.2323455811 156.6900024414
51.0088233948 246.0240325928 148.8999938965
97.0466766357 231.5700073242 158.4019927979
108.0697555542 207.0700073242 169.9100036621
49.1452941895 244.6269226074 147.0639953613
51.0008659363 251.9229736328 142.3899993896
62.4555854797 245.8459167480 140.4989929199
35.4897537231 247.3000030518 168.1100006104
94.2099990845 179.6708526611 162.7100067139
103.4621353149 213.5369262695 166.3731994629
92.7899932861 187.5052337646 153.6973876953
40.0340805054 247.3628540039 169.6199951172
95.4936218262 194.8869781494 160.2395935059
74.0986099243 252.2656250000 143.6376037598
39.3717613220 254.3068084717 148.9410095215
98.1338043213 190.6472015381 171.7611999512
100.4433898926 214.4898681641 171.4026031494
96.5040054321 209.6921997070 163.7600097656
100.3227920532 189.1589965820 167.6461944580
100.5746612549 224.0823516846 170.2400054932
104.7583923340 207.5179595947 170.4759979248
108.5579147339 206.5676116943 177.1669921875
54.0821380615 241.5269317627 178.1831970215
49.8831939697 243.6145782471 170.6679992676
94.7686080933 245.3756256104 154.5276031494
46.7779121399 247.2776184082 180.0970001221
105.2116622925 210.5393524170 173.9204101562
45.1631965637 250.2645874023 154.9579925537
92.0836257935 242.3469848633 154.8695983887
82.4886093140 256.7955932617 142.4776000977
100.5346603394 192.8023529053 171.3399963379
39.0889358521 247.3658294678 172.0619964600
96.8608703613 226.1829681396 165.2200012207
106.2082824707 204.0433807373 174.2959899902
93.3667068481 251.5897369385 145.1600036621
93.7140045166 244.9222106934 146.5800018311
101.1632766724 228.4681091309 166.4040069580
73.7159576416 250.4988098145 142.2768096924
48.7867050171 246.8297271729 177.0800018311
43.7152938843 247.4869232178 152.0339965820
91.8151397705 241.6799926758 154.0729980469
92.4852905273 244.3669281006 146.7440032959
46.1399955750 252.4652252197 152.2574005127
94.6151428223 191.5299987793 159.7030029297
66.9926452637 247.4067993164 137.5829925537
46.7016906738 253.4273681641 147.7200012207
97.3536224365 227.7869873047 165.4695892334
92.4846649170 231.6223449707 166.3600006104
75.7340774536 255.4728546143 139.4599914551
95.8546600342 237.5823516846 156.8399963379
51.6049880981 245.7869262695 166.0153961182
86.3342971802 256.3740844727 138.8724060059
98.8882827759 231.9633789062 155.7760009766
47.0697555542 248.4299926758 172.5000000000
97.0625839233 234.1000061035 161.6979980469
101.3452911377 232.0769348145 158.7740020752
98.6616897583 189.6273651123 161.9600067139
45.2152938843 251.8369293213 149.3139953613
69.0972213745 253.3753509521 133.5700073242
96.5697555542 241.0099945068 152.8800048828
56.3249855042 251.3969268799 144.7753906250
97.8767623901 190.5920104980 162.9346008301
68.2138061523 251.7771911621 138.0012054443
95.8338012695 234.0971984863 167.4111938477
101.0997543335 193.5500030518 169.9400024414
54.8242988586 249.5440673828 140.7124023438
94.0436248779 187.0569763184 157.0795898438
102.8039627075 221.2599945068 159.0037994385
104.3552856445 212.7769317627 177.6640014648
100.5132980347 214.8726959229 169.9980010986
45.8089485168 254.2081756592 148.7070007324
53.8264656067 244.8212432861 142.7500000000
98.8663024902 188.7987060547 159.0249938965
80.9852905273 253.2269287109 138.9940032959
95.4067077637 192.0997314453 145.7099914551
39.0482826233 243.9533843994 165.0260009766
72.8247833252 250.8053283691 131.9909973145
68.7392120361 247.5975799561 135.6282043457
51.6049880981 245.7869262695 166.0153961182
53.1339645386 253.5700073242 134.9638061523
86.1022033691 254.5098571777 139.1199951172
66.1297531128 252.3200073242 134.8000030518
43.8049888611 247.6869201660 168.5853881836
100.7397537231 211.0200042725 162.4300079346
97.2667617798 196.2720184326 159.4746093750
49.9986152649 250.9017791748 140.0859985352
77.1997528076 252.0200042725 137.4600067139
47.3649864197 249.2369232178 149.7453918457
69.5146636963 245.2323455811 138.1399993896
55.0706939697 248.8510284424 145.2802124023
48.4116897583 244.3773651123 145.8500061035
50.0567665100 252.0020141602 136.9746093750
104.9521408081 221.3269348145 161.1931915283
59.6217613220 255.1368103027 136.3310089111
69.6525878906 246.8000030518 135.1380004883
72.1216888428 249.0173645020 134.8200073242
53.1339645386 253.5700073242 134.9638061523
84.7389450073 254.8481750488 135.7469940186
58.5138168335 247.9784698486 143.6114044189
58.2082824707 247.2033843994 138.4759979248
95.9997558594 210.8999938965 163.2000122070
107.2852859497 204.2569274902 176.5639953613
65.9836273193 253.1169738770 135.2796020508
103.1726379395 197.8668060303 173.1529998779
98.5167083740 194.6597290039 169.3300018311
42.9964675903 242.6212463379 170.0500030518
41.0236244202 251.4369812012 154.9095916748
74.2992095947 249.6575927734 133.0581970215
101.7716598511 209.5593566895 174.4104003906
68.2536239624 252.6469726562 133.5395965576
37.6282806396 241.8633880615 156.7760009766
93.2282562256 232.9573059082 167.2610015869
84.7672195435 260.0753479004 135.1800079346
86.1267623901 250.1420135498 144.1746063232
59.9151420593 253.6000061035 135.1130065918
45.4174194336 247.2598571777 171.0400085449
100.5355834961 242.4259033203 155.6190032959
42.8216629028 252.5893554688 152.3003997803
40.3740806580 243.2828521729 163.2099914551
49.3959541321 248.5388031006 138.7068023682
38.2397537231 243.5500030518 151.5800018311
99.2316894531 180.6473693848 160.8000030518
56.9047813416 236.1053161621 179.7310028076
70.3586044312 249.2656250000 140.2176055908
98.4763031006 231.9587097168 152.8350067139
52.3597908020 252.5457153320 136.8818054199
99.3247833252 242.5053253174 151.2109985352
44.7136230469 249.6969757080 176.6495971680
69.3982849121 248.9733734131 133.0859985352
96.3194046021 190.4625396729 147.6139984131
92.3613967896 242.6699981689 154.4588012695
94.3565902710 186.7516937256 150.7357940674
50.1672210693 248.5553588867 167.6999969482
53.5467071533 241.1097412109 183.6699981689
55.7208671570 242.0729675293 184.0999908447
61.6651420593 252.2799987793 134.5830078125
95.0108642578 189.8129730225 169.5500030518
94.4342956543 248.8240661621 144.5323944092
68.6240081787 247.3222045898 136.5800018311
97.7067108154 228.7897338867 168.8099975586
107.2852859497 204.2569274902 176.5639953613
52.2872200012 247.6153564453 145.8700103760
95.6317596436 245.1567993164 148.9810028076
99.2821350098 181.8769378662 159.4631958008
87.7463073730 179.3986968994 152.7350006104
40.3688240051 241.9740295410 162.6499938965
98.1582870483 223.2933807373 163.8560028076
97.5027236938 183.2400970459 161.3289947510
97.0513992310 234.3999938965 152.8388061523
39.6782798767 242.3633880615 157.8759918213
95.3572235107 231.3253479004 163.4499969482
93.5567626953 189.5720062256 159.2746124268
95.0589675903 188.0892639160 144.3789978027
53.0542984009 243.0140686035 176.8224029541
58.4516639709 251.9593505859 139.0204010010
94.8367614746 224.1520080566 166.3446044922
42.4052925110 244.7369232178 163.5240020752
96.8608703613 226.1829681396 165.2200012207
41.9867057800 251.5997314453 156.6100006104
92.7464675903 180.8712463379 153.5500030518
73.4449920654 254.2269287109 133.5253906250
104.3552856445 212.7769317627 177.6640014648
95.7964706421 184.3512420654 161.1200103760
94.4717636108 245.1168060303 156.6410064697
67.2889480591 241.3981781006 178.9969940186
90.4933853149 187.0498657227 156.3825988770
39.9716873169 244.8873748779 152.1499938965
84.5716629028 258.3293457031 141.5704040527
86.3342971802 256.3740844727 138.8724060059
52.2608680725 240.1629791260 184.2299957275
96.8174209595 221.1098632812 164.9300079346
98.4722061157 218.9598693848 162.6600036621
98.4813995361 243.1399993896 147.0288085938
44.1436233521 249.0369873047 145.7895965576
74.9727249146 255.5801086426 139.9789886475
94.5833892822 180.4298706055 163.3926086426
53.0863037109 235.4987030029 181.4450073242
61.3114013672 242.9499969482 178.2788085938
101.2621383667 240.1469268799 155.0531921387
102.1318740845 245.2775268555 149.2220001221
94.2225875854 192.6499938965 160.1380004883
48.0146636963 241.9323425293 165.1799926758
69.7140045166 245.5122070312 135.9300079346
46.7447814941 245.8153228760 148.2109985352
50.7686157227 253.1717681885 139.6459960938
91.2286148071 252.0517730713 145.0159912109
37.0382575989 244.9373016357 154.4210052490
41.6040802002 255.8728485107 150.6699981689
84.0952911377 254.6469421387 136.5740051270
102.5782852173 220.0133819580 161.7259979248
87.8225860596 183.6199951172 150.8280029297
55.5297546387 241.9900054932 177.6100006104
94.3120574951 241.9380493164 152.0020141602
53.3434715271 240.7830505371 183.7859954834
101.4672241211 236.6653594971 155.0500030518
84.3772201538 257.3953552246 139.0100097656
101.8246612549 212.3623504639 173.9700012207
73.7297897339 250.0957031250 143.2817993164
100.4994049072 229.5125427246 168.7840118408
103.5783920288 216.1979675293 166.8560028076
50.3746643066 246.1923522949 146.9900054932
66.8716888428 242.3073730469 178.4700012207
77.5363082886 249.7087097168 138.5350036621
101.2167129517 228.2897338867 165.3999938965
38.2774200439 246.6598663330 164.6999969482
72.1121368408 249.4769287109 135.0031890869
98.1002960205 209.3598327637 164.7250061035
101.4187469482 204.0460052490 171.7686004639
100.8938064575 234.2071990967 161.1011962891
99.8316879272 238.3973693848 154.2899932861
102.1198043823 232.3967437744 153.4100036621
50.3440017700 245.8922119141 147.5000000000
97.9240036011 231.8722076416 152.6500091553
106.4482879639 199.0033874512 171.3260040283
91.4459533691 241.4588012695 156.7268066406
38.3286018372 244.8756256104 160.5975952148
82.2333831787 248.8998565674 147.8126068115
43.4852943420 252.6769256592 150.4840087891
52.0908660889 245.9329681396 144.8099975586
98.9467086792 218.2197265625 167.5099945068
90.4659576416 183.7187957764 147.2968139648
37.9897537231 245.1300048828 151.0299987793
100.4433898926 214.4898681641 171.4026031494
45.1833038330 245.3726959229 171.5379943848
74.6016616821 255.8493499756 136.5704040527
61.8689689636 254.5792694092 135.5189971924
103.0472183228 192.7653503418 169.4600067139
42.9351425171 254.5599975586 147.0830078125
92.2227859497 246.4290008545 152.1961975098
42.1322021484 242.4498748779 168.2299957275
75.3940048218 251.0322113037 136.7900085449
93.7613983154 242.7200012207 154.5688018799
98.3589706421 211.8992614746 162.2890014648
49.6316642761 242.7193603516 182.7304077148
66.0272216797 254.3453521729 138.5100097656
50.3114013672 249.7500000000 136.4387969971
95.0619277954 190.3789825439 169.6679992676
42.1322021484 242.4498748779 168.2299957275
69.5567626953 253.4720153809 138.4546051025
50.0016899109 245.6073760986 171.3999938965
73.7227859497 248.4589996338 140.5561981201
79.9288253784 253.3140258789 139.1499938965
44.0021362305 245.9769287109 159.9531860352
92.5897521973 185.9700012207 142.9199981689
93.7747802734 181.7153167725 148.9309997559
98.2067642212 218.7520141602 162.6446075439
89.2884597778 254.2762908936 139.3598022461
95.1051406860 193.6799926758 160.1130065918
93.4446640015 242.7323455811 153.5800018311
63.5197525024 251.0599975586 134.4100036621
87.5140762329 184.6028442383 154.6799926758
49.6247825623 241.9653167725 142.4309997559
55.5308685303 251.8229675293 140.7899932861
41.1336250305 254.0769805908 147.6895904541
98.4186172485 247.4917755127 148.7460021973
49.7834739685 249.6830596924 142.4660034180
96.6967086792 188.1197357178 159.3600006104
104.9267120361 201.5297393799 177.0299987793
102.6286087036 201.9156188965 173.8076019287
96.6208648682 240.5229644775 159.0299987793
53.8840026855 246.1422119141 139.7200012207
52.6552925110 245.7069244385 140.2440032959
91.8151397705 241.6799926758 154.0729980469
90.6755905151 178.8159027100 154.4490051270
104.6318740845 234.0375213623 154.3619995117
89.9974212646 185.4498596191 153.9199981689
84.5818710327 254.0975189209 134.6219940186
37.2282562256 243.3972930908 161.6610107422
108.1516571045 208.9193572998 173.7203979492
99.4042968750 212.8640747070 162.4223937988
105.3888244629 196.1540222168 171.9400024414
69.0972213745 253.3753509521 133.5700073242
44.7440795898 251.3528442383 150.8699951172
43.2140808105 256.4628601074 150.1899871826
109.9949874878 209.0169219971 174.9853973389
62.6688232422 246.8840332031 137.1299896240
82.5826416016 253.2568054199 141.9329986572
53.3267059326 250.5497283936 143.0399932861
92.7208709717 232.7129669189 167.1999969482
106.4097518921 192.6399993896 169.1399993896
43.9386024475 247.8756256104 148.0576019287
51.8955879211 242.5459136963 166.3990020752
52.0889358521 248.0558319092 149.7019958496
96.3136520386 225.6278228760 164.9140014648
93.0406951904 187.5710296631 162.3202056885
95.7974243164 211.9598541260 164.0400085449
47.0882797241 243.4933776855 144.1860046387
87.7463073730 179.3986968994 152.7350006104
40.2274208069 256.6998596191 148.9900054932
49.4882812500 239.3433837891 177.5859985352
95.6808700562 188.6029663086 148.4899902344
75.9857635498 250.3759155273 139.7530059814
36.6014022827 244.3899993896 167.0487976074
80.9217605591 256.7868041992 133.1809997559
101.3264694214 223.3512420654 166.5100097656
105.1440811157 200.4728546143 177.8699951172
