217.4768637653 89.9783156859 211.6426102663
214.2296881682 64.6348620179 244.5952413065
212.4853621869 145.4687802660 236.2235965505
218.5941075862 98.4327195719 209.6219372436
215.5606809152 77.4305949316 228.3939658726
220.3811410242 140.1693200572 220.1057835137
211.3671728711 148.3623009426 221.0566427385
225.4975245252 135.0656389935 219.2701795333
221.0699504666 66.4490022412 259.6195007108
236.1159356297 73.0267041416 267.8294301263
185.1940823685 119.8166191142 239.9806233005
217.1703190103 66.7425121479 246.9438193962
218.2169024640 68.5370803421 248.1867032501
217.1950887508 88.3774316012 217.0576865449
233.9611344978 73.1219984841 266.8366005298
218.2434667128 117.5038558301 206.9654680052
192.1609176559 115.8003629294 238.6750076559
216.6583102455 80.9978533149 234.8006270449
220.9163501053 112.7627250402 204.0482915474
218.4908086082 98.2572502017 210.7683773556
217.1824999875 75.4875132865 229.1434783932
209.7884296734 73.9468614118 243.6312821602
198.8599358943 145.0569989253 238.1307188543
215.1167136887 147.4146392062 228.1054593871
223.2524531476 122.1167462669 207.2060168343
190.6702401087 118.1758675199 241.1916174247
226.1732344686 124.3325772424 213.4682479062
216.9083042041 146.4302843941 235.4200772862
216.9861503245 112.2196355680 198.7842877818
216.4289233403 77.8668941375 234.4037696013
220.7284049918 99.7067761391 209.2084864961
215.8762707687 86.5238687825 215.8491007846
223.7307063452 65.0446209546 254.2065449271
213.3844047100 73.2146369789 243.1606715635
199.7401604685 135.9689300887 241.4920411088
214.8465341825 91.5995577104 204.9567012857
193.2448232062 127.6234665691 245.2952454137
227.1688783657 131.3649405100 212.1873158949
218.0955321258 94.8262394838 207.8368654002
216.2824020446 104.9561720156 211.2775329078
220.0606818014 136.4868945070 224.9950715083
230.5929364290 69.1832025969 255.9176835763
215.1912598630 76.6242570520 243.3258121407
214.8187909416 109.1623321800 208.5528545447
211.8828745431 146.8363478162 226.3109036152
213.3844047100 73.2146369789 243.1606715635
217.6916136200 141.7704562199 224.3016906450
223.1287994341 119.1033449950 209.6823082961
224.7804549838 138.3388552817 226.2429297188
218.6528223821 110.3579828928 204.1207513798
213.4225902533 79.5743411688 242.5072804994
219.7734177481 135.5758039539 219.7555089690
226.4602443557 118.3776039193 205.1756233327
209.8016872823 84.2805350868 228.6445362297
221.9804640815 135.8284799349 224.4421785810
200.6987930354 133.2012658197 233.7886799332
230.5182306840 69.7116614957 254.5728867085
202.6555282476 132.6605917850 234.3208052581
221.4137394094 139.2252549141 221.5241411641
232.6685589448 70.5578956557 251.8336431669
213.3844047100 73.2146369789 243.1606715635
196.9905122766 137.9218398688 240.4621674172
208.6090777000 71.1164538685 236.7798980496
219.3708810486 64.2949360614 251.8505082673
193.3615160236 134.4376706558 235.9671426131
219.4048018879 93.0258947657 212.4241179096
214.8023320703 144.6542656431 232.5237788960
217.4614269988 144.3368372284 226.0047989630
231.7020415520 68.2933525793 255.1199783059
209.8288962647 86.4215015350 221.9979234663
222.9680984105 140.7384983903 218.7455419943
189.7131480460 135.7625579777 240.9657132612
226.4194929111 125.7725685591 214.3094076858
213.7814436533 82.8523666503 229.4153182644
216.4036293065 81.2496365539 228.9731981465
201.5551396541 139.3043291215 235.3850415954
245.5097722661 73.3143786038 257.4961963918
209.1984478031 146.1940594430 231.0481539713
217.1639452120 146.7665526292 227.3784680355
190.0955858993 116.7948699494 239.5193446171
215.9029277920 108.7358474904 202.0369917980
216.7729476940 113.3068134883 202.9387303958
233.5334019388 70.6422663484 266.1583920899
212.2813525453 65.4799858880 251.7405098902
204.7213094206 145.6646098221 238.3350544948
221.3349707240 111.2185972276 201.0909443347
217.0634035353 65.4060418573 252.7938452679
214.9178176966 143.2492438484 224.8056073413
212.7125942407 78.5301517437 236.1466071286
202.2655393392 132.1026862256 235.3846504942
214.8944780413 150.1030196654 224.9794257456
216.9837496006 97.8464409533 210.8508797757
218.7432215411 135.7004377612 225.2502805281
193.5542273376 120.0678201966 239.4598139623
212.7157790414 96.1634714136 210.6064672011
249.8523226613 77.0551958610 254.2398760885
218.9533286783 111.5909085608 204.4285604162
218.1649048798 68.7182068903 249.9905941031
213.7934276525 147.0043006778 229.2557396047
194.0766154373 125.1510915339 245.6634687911
223.6135816941 70.4101487506 256.4529505825
215.6887982737 63.8799296001 247.9369591816
191.7702436330 121.9215773492 237.0903786936
221.8505752092 111.4686540507 199.4008438567
215.1912598630 76.6242570520 243.3258121407
189.2496976212 133.1546090159 248.8197540785
203.3522821963 146.1736850820 235.7984397767
201.3479506887 145.4040764236 237.5098797202
225.1576146013 126.3720110253 213.9339535626
190.0829096368 131.6962129856 249.3796103483
213.2034832372 103.8258390852 206.0709302047
184.9751712684 121.1192540045 240.6199740263
213.7742097128 144.6604235354 235.9054023611
226.3417162882 128.4861804037 217.5212896956
223.3084434281 137.3487047991 211.7046317274
212.0536875403 109.6533099887 201.1922240813
218.2480710342 109.0622629335 207.1419018052
213.7030183089 87.8687018056 214.3469795398
212.6818215311 74.5320535037 242.9983384466
215.8107071980 91.0569264089 218.5203770561
213.7704316005 83.5797316950 217.0334506301
206.6623187539 145.2540674488 229.7063954039
221.5687743264 61.1880269358 253.4923127287
210.9468613506 79.2437843358 231.6179574528
220.9211979108 114.7286734893 195.6580322953
229.8736502778 70.6866866504 257.4327598083
212.7062228206 149.7057504476 226.1769163654
221.3349707240 111.2185972276 201.0909443347
197.0048804972 137.5768168587 240.0513429831
199.5135890605 136.6548636347 233.7502584609
203.8511434289 145.8087377940 237.9825860620
190.8233953966 128.7894362551 246.2851617365
217.1435012199 69.0525151959 245.3679189734
219.7549288901 131.9960735815 209.2960367445
244.4512093856 72.4571224600 253.7891411036
217.1409158225 79.6202313286 233.9333956981
240.4633847429 72.2359900372 262.8974223720
214.5387265171 88.2543232570 214.7698770054
211.8408634009 88.5065858683 210.0028941549
225.5100782923 133.0185253713 213.4913285750
217.5116640868 143.5319296050 226.0541204464
221.3376333351 67.7139644819 258.3814675464
224.1243070639 68.0134481461 253.0848999706
245.8719900135 75.9702852544 249.1783597514
193.0001698356 134.6442367949 241.7965353395
225.7230743939 124.0137685695 206.5223060019
216.5435201702 138.6289996524 221.7434069698
210.3763385627 147.8170340887 233.9765883487
204.2180462710 72.6374859729 238.3271023248
211.4459106270 79.9776558784 232.6569249380
210.9242575366 69.5221444527 242.8640685036
229.1901533028 75.4808677919 254.2858478126
192.8460066802 126.6459814574 240.0974886883
217.9941387224 70.4524935883 246.6822642270
222.7351829322 114.6880853675 205.4787388557
225.6567510344 133.5179824840 210.3203489279
214.9239685390 148.3542667367 233.1271829131
215.4144427841 102.8418104921 207.1691097308
211.1656212301 74.8944182589 241.8474563915
222.2299692262 118.1554693168 208.9866500529
215.9947429152 95.5820967090 207.1893832070
193.5681978229 135.0961475310 237.8629435222
219.6169198970 99.0465500552 209.5645501927
224.6404852704 129.7594121895 208.2826475572
205.3603171838 135.3213277595 234.9535870303
218.5060676595 143.3658294410 224.8012169926
191.5917751341 138.7048683240 240.2582893558
220.2688418112 102.1995885964 206.1217043906
209.7864095082 88.2193003582 218.0628049654
221.9833408974 62.2201065281 251.4663292641
213.8673106388 83.7126182793 227.0129470757
245.3071302452 78.0896468884 257.5482581429
224.7050561369 141.3387882676 217.2724616347
227.5683041324 68.9412841880 254.2787057082
222.7030478818 117.9898208597 207.7173019881
209.9371301880 82.7765717482 226.3198218453
242.9300241592 74.4777876241 252.3184338383
201.3565844448 141.1243743637 242.2512289917
214.0346450935 94.5810126060 215.5401793984
193.9670694246 127.4270573316 243.9185135646
194.3633338694 128.0257375422 243.6340503121
212.7655769836 61.9123350661 251.9923267521
192.0031359821 124.2267240147 248.7281659065
211.9848107637 76.0907733789 231.5165678235
215.4169211345 106.8093277396 210.8871076007
216.5351365326 80.8311317578 234.5342956854
220.0320089115 109.2094980838 203.5974438190
212.7480807459 65.4087460335 248.0519286451
222.4989607064 71.3899115112 261.9077464367
215.1947960259 82.8938633462 216.4511559458
221.1308236849 106.9964624345 202.6691640336
212.5143253977 78.0531943505 231.8099116418
228.2798910032 66.2058857558 258.8994824879
240.8948301618 75.6742630729 258.1089361779
210.6947598197 63.4911428373 246.5049378106
217.7763470100 89.6873543867 206.7658888389
203.8535100202 139.7066633779 239.0394296226
209.2527997629 68.7053175974 238.4285918270
223.5329642576 114.8472903782 194.8600344882
229.2267337634 120.7054131130 205.5007629573
226.1783231934 121.8000441412 204.2703118299
211.5648156633 63.6694513240 246.8971765361
207.3534383050 79.5929376453 233.0243740712
225.9812701881 129.9850585381 216.0304823233
190.0989984644 121.6344728352 243.8221142387
218.2913436240 79.1477999793 230.9844061976
212.2587468822 62.2377845477 254.1217819788
226.1311427555 114.2411316958 201.0556799092
211.0165728235 64.9965084877 248.8862301253
217.7667761465 85.0750951331 215.8173836678
221.5360515935 113.2621724908 195.0795387957
194.1197990938 132.3616391928 245.7588029934
222.9829832023 134.0726087021 212.4584886325
211.5039159860 109.8597996036 199.0647575105
225.7796343412 122.4186471408 213.3902507796
201.5640004410 146.1107763190 243.8839540312
227.0303401171 122.9767539288 212.4186743417
222.0815355207 127.6646547115 208.7682288840
195.6108082047 132.6050912974 243.5651457204
222.4989607064 71.3899115112 261.9077464367
222.7424216240 69.9533364804 261.9115532730
189.1866573954 125.9088262196 243.7857176958
224.8282886018 70.5968207694 254.4031667472
195.0029535035 138.2970969807 239.4343308826
226.7891585225 120.3325233736 205.0755295249
214.8465341825 91.5995577104 204.9567012857
229.5601373806 71.3047567981 257.0420145433
217.9545866375 79.4507097069 228.2749384598
218.0159816479 115.4442981489 202.6968854265
222.8316568350 122.4955464118 204.0089380371
216.2826416448 83.3053360265 229.6704857683
213.3351370485 91.9662864852 206.7403626080
224.7417439911 118.0532121319 210.2176567404
215.6843288432 85.4621455059 223.3844148171
244.0296583729 76.8212993947 250.8464367226
218.1537316043 65.1185210820 249.8833851235
213.7704316005 83.5797316950 217.0334506301
208.0140488022 147.2408397488 233.9387512402
216.2358067983 138.6680654969 225.1653788161
223.5476434842 116.4407165996 204.4208252403
221.3376333351 67.7139644819 258.3814675464
209.3899417974 148.1624756509 233.4492406545
217.5006655777 78.9887478624 234.0080686903
218.3699497495 134.3840695374 217.8871757140
218.7962755306 141.5311517081 228.8205193781
192.1893802262 119.5784778085 242.1745860762
197.3385761435 146.1119005972 241.5810350402
215.1067393543 81.3975341460 226.9672532445
196.9905122766 137.9218398688 240.4621674172
220.5065642442 133.0298897422 221.8808920723
192.9693422560 126.3768780243 245.7436181521
219.2898837149 75.5818835899 241.9299780828
187.8267434113 131.5764040484 246.1382681136
215.4115522931 109.0207642691 201.5608748777
222.1869351787 67.7082383102 256.9264938479
195.4928926020 129.0005801906 243.5030499033
220.0606818014 136.4868945070 224.9950715083
244.3650106018 76.3277180531 249.4803512985
213.0611725369 84.3548680131 231.6285089491
188.9982705733 126.4981111676 242.1372711272
220.7328663923 113.3597845120 204.6732241477
214.8847648955 109.7378129935 206.5346098867
228.3063778775 128.9420268735 215.1861884847
236.9785036381 73.4731595240 263.9281786713
215.6805865776 85.1988953280 223.9542774746
222.0996373453 139.8721558883 228.2882137106
238.6679500294 69.0656333343 261.6520029628
212.3689138638 75.9398631907 246.3060064669
221.2030238111 123.6013526009 209.7135875201
213.3556376536 88.5011478809 211.9119387237
239.9768008472 73.1557515146 257.2628574724
222.6950206056 120.8485810567 202.7619110568
216.1945210214 76.8105205934 233.9790752199
209.1070803971 66.9357908701 246.9852214336
192.8529051475 133.9453496677 242.0767533894
201.4486947569 136.5838652688 240.0030974587
192.1971694428 132.4327349888 240.8072396480
215.7756349306 149.6161823254 224.9140127872
218.7733598415 80.4192495193 241.8061451210
211.9848107637 76.0907733789 231.5165678235
192.2440671292 115.4459145319 238.7702180350
185.3924852579 119.5412452379 235.7369724624
214.1544466391 111.4484936075 195.1515134150
209.1435866288 86.2177285856 221.0187950082
208.1956111547 94.7251732952 214.4915713181
221.3870124328 141.8247679164 221.6599681362
218.4095124955 143.6498297516 225.1824485072
215.2100737925 89.0171744511 216.3680033564
215.7234529364 108.5955293046 197.1384450883
217.3228141737 69.6509380907 250.2103222185
218.7158349439 114.6792820748 208.4776357979
220.1115357111 85.5584235524 219.1858494036
222.4962302844 61.6313546689 254.1654974279
221.5406959802 141.5799561307 228.3904669840
227.1872841045 138.1972037862 215.9028698610
210.1629719570 96.9536263649 217.2957165499
227.4497485129 120.3414408425 210.1335768571
199.7772931098 141.5207237428 241.1704561732
211.8382943285 144.0366691657 237.7494057351
217.9638849185 112.3425359346 199.3949415753
191.6141808932 124.8514609039 238.9155530570
239.3810878995 70.0178507643 261.1371939432
212.3189121611 89.7974136471 218.0649575272
206.4704684200 84.2098856113 229.8097721869
193.9134559626 125.3670887804 248.3581018690
216.7585796527 112.3627201811 200.9519019134
213.2922126734 77.2948873573 241.9838855265
222.7670096776 130.9828674603 217.9047372719
213.1019038322 75.6962811413 232.3059476627
206.1841710198 78.5018404231 230.5750804237
213.7116119957 91.0542848932 206.1877278795
203.6177816187 137.9648327887 237.0531887166
190.6044271681 131.2054668699 242.2275847892
227.0141777239 139.7045353137 220.2664142205
223.0236734338 139.9427144995 227.6633979615
220.7284049918 99.7067761391 209.2084864961
216.5897296988 147.7367012211 233.1552208619
210.3021392741 68.5533882308 240.9744691536
204.8212716688 143.9107108844 232.9023209652
226.5859202564 71.4429633286 259.1506842123
234.6765496012 73.5172186651 265.9634480834
209.1222144281 67.9307155840 249.0790503108
203.6142650579 73.1852436748 240.4342388258
222.7465661291 114.7467621863 207.1866787063
222.4040703710 136.8459329939 218.2380625262
233.6517141969 74.9496753057 263.2495904198
224.2870411760 112.4325520027 196.3921059299
187.8060125960 130.3838772599 246.6235051866
222.9329905751 111.6102818577 200.2931866440
185.3057706095 122.1855264585 239.1206621824
231.7042328708 72.6277086226 261.7972360489
207.9271554339 83.8415653682 226.2571858379
240.8274383497 74.5557299070 258.5772027260
208.7890662081 95.2542907494 216.7695604940
220.4740823549 116.7303338811 202.1949236199
214.3370833656 71.6407195001 244.2849067086
216.9012806627 105.8742118976 201.7780379122
191.9371515982 135.1235390046 236.5494372973
219.7731980737 131.1471290464 210.9559424812
226.3776131418 69.0389041850 259.8904940172
231.0529127704 69.7164069437 261.4836162192
219.5508102007 65.0463884722 258.6365305049
211.5777096032 91.2153574414 217.6029772479
195.5232510763 128.7010695597 242.4634988200
216.3835689714 81.7783151434 232.4680824466
243.2281646368 74.2289014599 265.8973085807
224.5629348237 134.3291186611 219.7228376384
244.3149996459 72.3427697555 257.2359473713
213.1019038322 75.6962811413 232.3059476627
219.2076217776 63.7638185301 254.3660734611
220.1691383420 132.4843322137 211.1626079443
209.2527997629 68.7053175974 238.4285918270
223.9158907791 66.7917072225 257.1065314321
216.4389313490 76.0474090076 229.3525168968
214.8023320703 144.6542656431 232.5237788960
190.9700437346 131.5853079995 241.2810256933
226.7043015494 133.7161159344 214.8448625006
190.7481848838 126.9137962748 248.1620574969
216.4826026153 86.4522022527 221.1405773726
245.9316691687 75.5218060448 262.8465214088
214.5024132186 112.3933912676 199.5890659725
206.1391819354 141.0418052120 235.0757297598
223.2779159927 124.4980537792 212.4906167174
216.0184500997 107.6582013988 198.1045399273
225.6567510344 133.5179824840 210.3203489279
216.3826006030 110.3886503504 204.4064921445
228.2187635707 130.7746763589 212.0911041465
223.1218313296 129.8600472935 213.2958906419
211.8382943285 144.0366691657 237.7494057351
194.4980871523 123.2463054552 245.9537879550
214.5110948665 71.9366954060 244.7576166200
223.6906438132 116.8295181326 207.2969698980
219.1054288925 116.2706583649 206.1687452372
228.9597598484 74.5083053935 260.1479477780
220.6861007178 109.3107224498 200.7314405889
215.6754371824 79.6788015182 239.1653806677
231.9124181855 73.3318888152 252.1325270709
214.4933891173 71.4022334122 239.3317887501
214.2697690887 146.8901606308 221.0776354689
196.1079361974 137.5055185203 237.9261777885
211.2590513826 148.0471278562 231.6746439838
228.3313306110 73.5190581765 260.9026158867
210.3252162116 86.8773678250 221.2429701402
205.8342980391 78.1903238762 232.0414038653
204.1336135346 137.3725757142 234.7971933695
208.5810403704 87.5115541200 221.4255488679
214.5211484377 78.3450743922 228.4662460461
218.9563885013 115.4117226424 207.3482495162
217.9545866375 79.4507097069 228.2749384598
208.9061818230 148.3499022240 234.2152653126
224.3358479870 70.9333199458 254.5189272011
249.5615844601 75.3949338523 257.0646983316
213.1019038322 75.6962811413 232.3059476627
227.4132730228 128.3865713142 211.5582731636
205.5384061842 134.0449590499 235.5713771873
192.1777053041 135.8559830526 235.4200525702
239.1344455150 75.1648569670 258.0554158270
239.1130867018 72.1015345934 260.3053062847
209.6594944039 71.8902362787 237.8220071031
229.8522914646 67.6233642767 259.6826502658
221.1967213937 78.7294346014 241.9167125863
211.3855920297 87.9358493856 214.4710862251
213.9984435500 149.5320417963 223.1901012751
211.0594289501 89.7782439984 212.2549246067
211.9587165743 74.4803813402 238.1682779110
209.8043415405 69.0254239357 243.1965827544
216.1581950353 91.3706778354 204.6406230958
218.2859920409 117.5204828406 208.1213242002
221.3492808468 116.0663822498 198.9532140230
225.2085091529 136.3398081004 221.8602648816
215.4115522931 109.0207642691 201.5608748777
225.9856221527 115.3340827151 197.8824753052
217.5658911682 101.9000582087 203.7073987290
215.2137238842 90.5426060195 212.7220147264
207.7791855620 91.1880194954 214.1056173309
218.8423390462 137.3293636565 225.9245658647
188.1957071979 131.5704368486 244.7938973353
193.7344725032 122.6929488036 242.0550622793
203.1277421260 135.7171278551 233.2430087470
221.7125573564 143.2653807461 227.7693284472
220.0876213754 117.1692288794 200.3590690849
231.2308950227 68.9967770600 259.6511820793
214.0344212660 73.4454701447 247.0160533883
228.6877190562 124.1816178357 206.3908463897
201.0116671389 133.8785687496 242.3206432373
212.8641481919 67.9296797200 248.6995875061
206.6409600892 142.1907485556 231.9562874161
218.2434667128 117.5038558301 206.9654680052
206.1122781904 86.9977464230 223.7130333866
221.2002036954 76.7222483555 241.5599140452
217.6139346388 142.2567669658 224.5247029201
201.6282074581 139.2120867354 236.6700076954
233.1222665318 75.5509710711 260.7344807540
222.8817478720 130.4866402965 213.4076592694
213.0161930745 68.6121689030 243.1231461141
217.9545866375 79.4507097069 228.2749384598
213.3698877358 72.7877116712 249.2802877661
191.3094871929 116.5174202740 236.5740081237
221.0556944055 133.5974649258 208.3081406534
192.6928984786 134.9356129061 243.1682098629
224.3612123844 66.8375370523 258.1302598236
230.5182306840 69.7116614957 254.5728867085
218.8935848728 116.3346881018 202.3631403144
207.7734950963 146.5083957008 235.0681359673
215.1321985982 111.2478996297 195.7213575252
222.3895943366 139.4397957811 221.3499768046
226.5534028790 132.0111307135 210.0696017215
198.1997379147 133.6782538537 238.0475468606
196.8416186467 138.0980629190 238.7049720432
246.3119620871 72.3223870396 253.2184860147
222.6667089987 69.5717770698 257.0736735546
190.1537139921 127.7966738421 244.9928327896
221.6257048455 131.5572915767 219.9259024655
215.9083008412 144.7429840453 234.4458487881
211.8394661988 76.5411589560 243.7908968011
221.1361104426 109.2020627794 201.7059651071
230.1679437003 120.7286448446 208.1935664055
211.9423476339 142.6696562746 232.8567887657
208.6183266763 142.2182650306 232.7569409859
194.7527076256 130.6536198189 246.2332599487
194.8410192549 129.8901448940 245.7171554407
222.8316568350 122.4955464118 204.0089380371
220.2176779123 134.6821313142 222.3588197995
208.5539002049 87.4387485309 221.5703964603
190.9730958707 117.0799728577 235.9880138078
218.5060676595 143.3658294410 224.8012169926
216.9184897445 145.8208169022 235.5623142917
205.4833998472 78.7296772267 231.5696163511
221.5684370512 111.2217448570 202.1681261601
207.2119083019 80.8886901596 228.4240050319
201.2481773126 135.0047555450 232.3452343299
220.0773324471 137.5807663629 226.5569978703
219.2065615390 116.7863778738 201.6109200657
219.1703257743 85.5351918209 216.4930459555
226.8033845492 115.2196690632 198.9101796664
200.6722798759 134.7790126978 237.5907365694
213.2633747172 61.4402993612 249.7702131513
207.8079820690 142.4784735207 239.9284322351
214.3646802643 98.0121931089 211.6292730764
197.7796167095 132.2991187063 239.1513522452
193.1577001249 125.8910870262 248.9298031532
212.3954808093 83.5080940763 228.7769829133
220.1122472934 113.3192775072 205.1790375977
250.4108863037 75.3892076805 255.6097246331
213.9856712956 144.3891410371 221.7113564604
227.6141590654 125.4245383422 210.5530496213
190.0955858993 116.7948699494 239.5193446171
209.6594944039 71.8902362787 237.8220071031
197.1492094672 138.2355747909 238.5941230499
189.2235529669 119.3611401941 234.6306636082
221.1395275405 79.8280324604 241.4124763384
245.9921287529 74.9304338106 248.9876854077
210.6323921945 76.0166598376 245.5059091324
234.4058621824 69.5831187694 260.6549192910
213.0678443393 65.1689223915 242.5710694601
211.4588186411 93.7132336312 212.3817082477
225.0622711309 139.6772669352 214.4600166286
216.4325194301 141.1163069394 224.8185341627
223.5375242842 111.2340140870 199.4983948973
216.8305935527 70.4603248829 248.6755869938
213.9004777441 89.1414277064 211.2706100698
222.2768739807 64.9461970261 258.7605661852
212.8404941291 149.2010595831 220.7933206935
212.6585402942 73.4547345948 249.3731169576
192.3931396969 127.1926917192 239.5075038306
188.3713621219 121.2283754202 243.0617217379
212.1968115167 144.8328485441 238.8036680359
227.8589211531 66.6050688596 260.7786769708
224.7832758179 122.4263295849 203.4038216923
216.5554687296 102.3959637900 207.7272071869
194.1633090341 137.9256082595 242.1323001491
218.0203945825 109.5442190738 204.3464470807
204.1942372716 146.6664352478 235.3762990299
192.7409494042 127.4044805441 248.1579646322
213.0361498965 97.4883632107 212.3325914760
216.8391388279 69.7748775518 251.6689229371
196.8341867117 135.0377558898 236.5126141592
213.8798574790 88.6935996357 221.9952512213
219.0292722432 94.2180730453 209.9464622530
208.0140488022 147.2408397488 233.9387512402
232.0752508787 69.3857680965 253.3078823215
204.6596728320 132.6164478374 233.4236553092
216.5310206152 85.5197105785 215.4365149511
209.6144938030 67.9986149629 248.2537391251
211.6378996296 68.8637257598 240.8365520315
196.8449905442 135.0196384255 242.4524628492
199.5416627577 143.0283372258 240.3408997140
214.8455590285 74.5067541402 236.7340211115
191.2575012374 138.8278745874 235.5517233248
193.0515424576 115.7302595753 238.9925761219
186.4273814087 120.6064247707 241.6461505703
201.4919656366 144.4375158867 234.4336326672
207.9345117770 142.6723689576 231.1269011779
248.0093638240 73.6771598358 259.6310802414
217.4323065371 143.0370143288 229.4892387839
219.9241912541 98.7551739441 208.1928756692
222.4040703710 136.8459329939 218.2380625262
233.7271291018 72.4347098943 267.0053714304
209.4772351807 90.4784776579 214.9975527481
220.0267221539 107.0038977389 204.5606427454
218.9563885013 115.4117226424 207.3482495162
212.6992726472 88.3877228893 222.1698202642
190.5401673829 127.3577776076 246.8286720957
218.2832869009 66.7699828260 250.1279985655
213.9996458745 149.9253532834 222.5152394421
218.8756714236 115.1582170308 199.8872347433
192.2037164201 130.8561722641 248.3066936287
217.9857092543 139.5378941304 220.1080386293
207.8496577065 83.8051786760 228.3983916485
209.2189880163 68.9878639143 239.9412866313
193.8563927814 127.2544844381 241.6943854953
216.9126328647 88.6331374655 209.8083376512
215.4187345855 76.7890647609 233.2873056523
216.7729476940 113.3068134883 202.9387303958
189.3141587963 125.3767282262 240.1211267445
217.1703190103 66.7425121479 246.9438193962
198.5093351660 138.8571023996 237.8036758354
216.1933338537 137.4157889408 224.3477365553
207.6392179680 72.0631060894 244.2254374709
188.6792917045 134.4988744316 245.9286343143
212.7655769836 61.9123350661 251.9923267521
216.7769038637 112.7822841639 204.4472293345
192.3931396969 127.1926917192 239.5075038306
212.4547216014 77.6517370661 233.1546106687
229.4149398821 69.8103289774 256.5923043168
217.1064666973 113.7857331203 202.8999638384
212.4490140977 112.4841960641 198.6429551426
211.9420267799 78.0473230706 231.1281765306
216.8613142904 101.7963554258 208.4599440163
198.6863050526 135.6123911842 232.8586396405
243.7529204797 75.0550091810 255.9036427119
223.6512734408 63.1791418541 257.6789757211
213.5007436431 89.1992002078 211.7656791415
208.7428806529 84.7266961815 230.8014777784
238.7506479988 69.2483507578 263.3579516111
222.9077840974 121.7634354896 206.6739641679
225.2818409119 114.2468578675 202.5106536077
215.7749012778 84.0853988450 224.7628730117
213.3966423338 149.4521823085 227.1075434879
220.1229144924 107.8079020293 203.3239382632
227.7362515900 121.3927559772 211.1536895217
221.9853633809 65.4383494999 259.1706997696
209.2342223411 90.4319517690 214.2854229225
205.3100133325 135.0725615697 237.9857236674
215.6754371824 79.6788015182 239.1653806677
222.0415374397 134.3113628566 224.0539455166
217.7667761465 85.0750951331 215.8173836678
212.5575942308 78.1065553853 235.6729902549
212.0911177366 102.2663366881 208.5230658593
208.1152534260 142.1870974095 238.5567577115
213.5354437196 108.2823157482 201.3536638183
215.4980947554 98.0814885861 206.6097488445
211.3634979631 64.9144415413 251.3598357520
227.2326192292 131.7764383731 214.7690989916
220.0290721818 113.6196052896 195.3815303427
217.3297764270 97.1111986512 206.8034270239
213.5867492068 93.4249499716 207.1393171400
217.6139346388 142.2567669658 224.5247029201
200.8332422270 147.0908578611 242.8685714992
209.9690079164 146.6460049542 231.1774340175
222.0024480488 70.9325509869 258.1921600782
183.5417240788 118.4467784020 238.0492912248
196.4050513975 135.2439870785 237.1775056954
211.8284469554 147.4692066655 221.5668672597
208.7304192913 69.2006604586 240.7604363186
221.6387024730 68.5867534336 255.1750963390
211.7257639399 108.9213858392 200.0748872182
215.3267031574 67.1663656704 244.4785698401
223.8310058412 72.6068927665 260.9550614407
221.4137394094 139.2252549141 221.5241411641
208.2896751574 84.2531517851 232.0591217894
210.3082064740 96.6569045185 217.7525306999
237.8173125270 67.6656549418 260.3376577092
207.8307827875 92.6101108343 213.9130882063
223.9482956817 140.0885172203 216.0671340647
234.0271770546 71.2087004160 255.2332646646
243.5746698746 73.5840552652 251.8703749827
213.5522936571 147.8440239935 220.6187395297
227.1367288451 73.0602773842 260.0071534599
218.5957804188 107.9244244688 206.7644738690
221.5777520134 139.6462327436 215.7827060138
215.7992288437 66.5518829114 253.0093775593
220.2865353443 137.0656660601 224.4646801201
206.7101771664 143.8199433334 238.3669184394
232.0752508787 69.3857680965 253.3078823215
216.1629777376 69.4384835318 249.3735804480
224.8649530985 112.9743436085 194.9778061562
232.0752508787 69.3857680965 253.3078823215
211.6899927582 142.8515676709 224.5606607941
187.8427637200 132.6294214630 248.3543654856
209.1435866288 86.2177285856 221.0187950082
192.6622488823 132.4834174929 240.5516350743
194.9071304741 128.8852218049 246.7233297525
215.4115522931 109.0207642691 201.5608748777
233.1926198896 74.1269640422 255.4141372397
224.7506185063 117.1602633499 210.4318208168
218.2433475657 77.7437841542 239.1185773051
220.6030297642 110.4985747999 202.5288104568
218.0894229499 103.6186798026 202.3318824131
195.0029535035 138.2970969807 239.4343308826
236.1926913210 69.7271045720 267.8529595772
226.0479822417 70.8417511411 260.3700350696
188.2526191374 118.1750242653 236.5716978198
216.0303450505 90.1812487940 205.5037928831
209.4154888268 89.2768183099 224.1358911775
250.1357907742 74.2610533608 256.9629428905
203.8347920146 138.0114015054 235.6476236177
216.4541007947 78.4852153603 232.4583528134
209.8043415405 69.0254239357 243.1965827544
218.2434667128 117.5038558301 206.9654680052
236.5270588426 66.4762284602 263.4944682125
212.0401443650 100.0349583850 208.7496653062
218.8571673345 111.3236109211 198.7002749246
218.8423390462 137.3293636565 225.9245658647
198.5765622691 138.8557787054 236.5661551009
223.7332501758 127.0578793741 214.5162482469
190.0989996134 133.1488863246 247.3647819346
187.7745394145 125.6181788710 238.9339078674
205.0868838547 70.7813064812 239.9897154440
200.3193842713 139.7489480473 235.0041744332
228.6877190562 124.1816178357 206.3908463897
206.4139667627 81.9068008709 234.3257800442
215.7985026718 144.6788525124 235.3738238489
197.4492924298 146.6068634781 241.0866882837
197.0215597224 144.1271278620 240.4084782891
186.1826095175 115.5058285387 238.0531788082
234.4410356208 68.8089765051 264.9590333656
220.7309539830 136.4493020701 213.0156406706
218.4758817852 78.3408917040 229.2945693174
211.8828745431 146.8363478162 226.3109036152
209.2573306239 89.6575737338 215.5384596126
204.3544457751 133.6658799003 233.3994024077
221.3870124328 141.8247679164 221.6599681362
231.9000584965 74.0315472387 260.3556642082
193.7303116848 139.4790439925 237.2333156852
186.5680193305 121.8352286869 236.3437416658
203.1031681627 138.5814821358 235.0101637317
204.5489810457 83.1170625863 231.4403269900
214.0426578647 88.5181011398 213.8774858172
219.1197767354 98.4808527462 208.8922248557
199.1241254201 133.2203937493 237.0120377561
193.9670694246 127.4270573316 243.9185135646
230.6075500343 74.4354378986 260.9071742141
222.6845898769 132.0667862851 219.9629742561
211.9172119516 66.6136118177 242.1514517587
210.6043924504 84.6982922616 232.3885529531
213.4725527624 96.8354299001 215.3316859215
211.6378996296 68.8637257598 240.8365520315
204.8284060509 144.0366361213 239.9650505961
216.7615301374 75.8866963904 231.0226728760
227.4115815396 129.4462291015 210.8439159548
225.9076927028 68.4066289858 262.1075976452
213.5324590335 75.9320318960 244.3126837001
209.1004607673 88.4627360661 215.2073105326
240.7257903038 76.3401127271 258.4869138004
209.5220075526 65.6356746725 247.4861870269
227.8518666259 73.6841805556 258.5694785971
206.7451290235 73.5972704390 244.1222692903
195.6801738465 129.4971455493 244.5232160761
223.9910075190 113.5891908055 203.1308419815
220.0267221539 107.0038977389 204.5606427454
220.1115357111 85.5584235524 219.1858494036
209.8043415405 69.0254239357 243.1965827544
210.0305263066 145.7603204431 227.5717975010
210.2743407947 70.4237410048 237.2435014837
210.3874884627 63.7825189484 247.8766123341
203.6896306933 143.9599447194 241.9048731154
210.1633839944 86.4164255533 214.0922696793
215.1067393543 81.3975341460 226.9672532445
197.7226932152 138.4809059557 237.4531468565
186.5474973831 117.9803285134 240.3283528642
217.7667761465 85.0750951331 215.8173836678
212.1021650723 79.6250251168 233.1197177348
222.3775932568 67.8382740193 261.3330701612
205.8007216499 146.0884334513 235.8714319976
239.9768008472 73.1557515146 257.2628574724
218.1649048798 68.7182068903 249.9905941031
216.6718677517 76.1752899817 237.5463862302
197.3590167265 130.8043377587 242.4114856010
215.3822135171 89.1735927750 208.7268840238
244.0198399204 78.0797384864 261.2515206553
212.3852159470 64.2748867302 247.0727923293
217.7667761465 85.0750951331 215.8173836678
216.3721301633 82.2273261236 216.3090922095
234.4617267889 67.4707285194 264.3388020645
211.7602590119 145.5609767923 239.3566987556
196.8449905442 135.0196384255 242.4524628492
212.0862831589 64.0789988704 242.8761294559
205.3798192882 145.9383292162 237.1453429811
201.7586314938 142.9214768900 242.4448178039
232.5496666212 70.0187554966 260.3007962022
221.4868834860 106.3020394086 202.6552188574
213.0825010204 83.5250473352 230.7425300068
243.3537464149 72.8790957498 261.2325863308
223.8600019270 126.1220195075 210.4725930812
224.6803076848 72.6011665948 259.5000877422
214.6901183610 79.5182914514 243.0912961733
199.4502037775 139.6244539702 240.6518252567
208.3250549744 97.0348929117 216.4489063503
208.7690960729 72.3344845335 244.2165390192
227.0812346778 124.7596196321 205.8957134221
227.3085537781 123.5300675908 213.6033127338
224.8503432443 126.6633871365 215.3056280860
184.9700874335 116.3345576926 237.9548354426
213.0152549615 147.5276111379 236.8563105052
209.1687465959 85.9722532570 220.9918908408
218.5754957780 80.4725895353 229.2343127960
239.1344455150 75.1648569670 258.0554158270
213.4403487188 94.3344773109 214.1142700037
217.2137404256 93.1078700634 206.2715579127
220.6060826719 116.3427024164 203.8201438782
192.2621544256 122.5535873961 247.4924807789
217.0415312880 91.8121505321 205.8965123649
198.9471281375 147.2577008349 238.9585705415
233.8295488855 71.2163742002 259.0166974699
214.0078141817 148.8965119596 233.4308937133
221.9853633809 65.4383494999 259.1706997696
206.0125773949 90.1131752289 227.6266303942
230.3455299577 68.6827192612 259.6036385695
195.5232510763 128.7010695597 242.4634988200
222.4012757351 122.2677112767 206.8517698080
222.1730617408 60.5704785513 255.0145805724
211.1747356268 74.3663153443 238.9648387394
216.2469774263 110.3141566233 195.7629166526
199.6620909726 133.7011798408 236.4742710658
208.6010124317 81.3297279051 227.5724625127
205.1218644050 81.0107819636 230.1933196794
208.2069181210 93.6677516311 214.7838257709
247.2412479280 73.1770341966 258.7167286553
214.1379148532 142.0952226933 228.1223345687
212.3689138638 75.9398631907 246.3060064669
213.6126867874 92.1561448769 216.9371046154
214.3871759637 86.2538165495 224.4885777217
217.6139346388 142.2567669658 224.5247029201
218.6935928001 119.8835192249 208.7676098003
212.7480807459 65.4087460335 248.0519286451
218.5990706286 76.4861154047 242.4867897209
244.2211360275 79.2274314150 261.6125330560
214.8158082243 82.3310154586 234.9046936554
213.4403487188 94.3344773109 214.1142700037
209.3247059128 80.6460937648 228.3693416926
207.2990568667 84.7364217074 233.2749429239
190.6767649066 123.9930437162 247.0476024800
226.2870354792 71.2082109041 259.1863130688
213.6126867874 92.1561448769 216.9371046154
210.4612449212 84.4253140033 220.2169620320
217.9857092543 139.5378941304 220.1080386293
221.6509737392 119.8261873427 210.3328471230
209.7368352136 83.2024952772 227.5359624380
222.8339783998 63.6200849206 252.7806745176
215.8287949008 90.2492886272 217.8070245712
213.2177097661 73.8467921652 242.2203294208
197.3590167265 130.8043377587 242.4114856010
221.3317469810 112.0142467775 199.6721810286
213.0163899497 84.5299739047 229.7363572495
242.8126130732 73.3765976883 258.9952070286
220.4191675878 139.8297506424 218.5641759056
214.6303606960 107.5582912932 210.2733866416
214.7707933413 110.8382446742 202.7047584570
220.6742378209 103.5651106956 207.7561000818
227.3085537781 123.5300675908 213.6033127338
217.3387343868 107.7058572537 198.1494734701
205.2346130257 88.1390125813 225.7270959614
214.4396816511 80.1234169635 238.7845119510
217.8665462766 80.1410700319 231.7410118694
209.7864095082 88.2193003582 218.0628049654
199.3916657180 140.7438748665 240.5302503768
211.3260974449 89.7566939550 217.2040227159
215.9939465086 73.4548042453 238.8322133433
223.7567548839 115.8245915629 208.3031426553
199.1292005352 143.6637505936 238.9253027976
213.4600290242 102.0155220114 203.3335863417
237.8832920009 68.7993131824 266.3123884304
214.3977039298 61.8637613657 248.0028326220
242.6761854705 80.1203345570 266.1453155178
211.0037957839 64.9248568078 253.5556735691
215.9083008412 144.7429840453 234.4458487881
209.1155947982 89.4576607800 217.3011394097
216.7729476940 113.3068134883 202.9387303958
225.9918337714 70.5889894747 252.4098439804
215.5549562978 90.7720282824 210.2232289261
218.9380822420 66.7492875754 256.2336951513
225.7732241446 118.3606506605 203.2100762392
223.3084434281 137.3487047991 211.7046317274
209.6709716065 142.0997098678 231.4864977652
203.8535100202 139.7066633779 239.0394296226
219.1759324931 133.4085286232 218.3707409342
219.6509914151 63.4856923203 252.6060418780
217.0186075344 103.0682469545 208.1634621438
217.6370477840 96.8198225401 205.4317525005
210.6748807518 89.2047307123 227.2973908599
243.6896161178 80.8308573773 266.4088678077
225.2153739252 138.3181040336 211.7260764501
243.7048481840 72.2369299511 257.8458417558
206.6473472473 145.8822760185 237.7293571004
211.8284469554 147.4692066655 221.5668672597
208.2896751574 84.2531517851 232.0591217894
216.6206597261 72.2187164995 247.8896222313
217.5251804422 144.0039646279 226.9976902984
228.3961761431 123.3033640421 210.8699003341
211.1656212301 74.8944182589 241.8474563915
217.1073793566 96.7604217958 208.8614701560
216.2824020446 104.9561720156 211.2775329078
213.0041904758 105.0640973381 207.7441247836
193.1047934375 118.5678320280 241.7257882441
226.1298297084 136.0302419131 222.2437453812
227.4501697631 130.1993260339 215.3872493190
219.6567993397 68.9795069081 254.6137952459
195.1322767317 133.9972463099 242.7842389029
215.5035676013 65.0008065351 254.4328819972
190.2670126247 132.6561123281 248.2159031711
213.2156639284 82.5860451471 235.1584460183
218.0697674006 66.7658563825 248.3702594930
247.4630856918 75.3584313719 252.2077550458
203.7076744693 145.7396404597 241.9612248966
212.0148535642 74.9135067637 236.9304716046
205.0868988117 145.3641188682 238.3634532242
192.5573515568 122.8436735075 239.8750786158
223.8366919380 125.1177519164 208.8503574957
219.8114505948 61.9069211296 255.6437003963
220.3638384201 103.7526252432 207.4527717853
210.9870421978 74.4742146483 247.4143465892
225.1576146013 126.3720110253 213.9339535626
186.1709366556 114.7906591513 240.5835424461
215.0599099054 139.9308501710 227.0409664600
221.1842241339 140.8828016688 228.7370115427
213.8798574790 88.6935996357 221.9952512213
209.5456484899 80.0013792992 232.6264722240
224.9556986985 133.8291698719 209.8293357250
226.4945492633 114.8206870321 199.8392012703
220.4465935364 102.7097143488 206.8726092151
216.8523785252 146.8257399915 234.5561399799
213.1680059162 64.1234390535 244.4348206820
188.9982705733 126.4981111676 242.1372711272
233.4441594507 72.4057659749 253.4677972619
220.3147719910 118.5895278293 210.3874722863
222.7997419421 140.9508410693 227.6515053108
227.0054173502 119.0254707666 212.6423881582
216.8424641643 64.0582739777 248.2268766859
222.8858971630 112.0081981224 201.9129155856
184.7639319656 119.9661987539 238.4281062160
198.1841321250 143.5508074023 240.0663046974
219.3411385497 135.8090675999 220.4400552332
222.7030478818 117.9898208597 207.7173019881
220.7309539830 136.4493020701 213.0156406706
200.7728166207 148.1373949359 240.8966145739
219.9945705823 137.4918175961 223.9888971964
217.9857092543 139.5378941304 220.1080386293
219.1487652983 118.5413939722 205.0223682842
212.3736274752 78.5935525263 238.2436123620
195.3826588346 137.6936516688 236.0339315343
219.3736614418 136.4699377677 223.0295228603
209.9844590969 62.3240070308 251.7571483122
213.3388573449 95.8242819664 213.6096096987
208.1179979719 146.0398007749 239.6321703268
216.4104750015 139.2053111448 224.9995705151
213.4931967570 99.2642302128 209.1555568595
218.3073232112 112.2418288544 205.5286829618
211.4705239845 64.8536169534 249.8670923241
244.7594345293 72.3156044969 260.1945883160
212.3409930480 79.2743723298 227.5754780256
212.6840782713 103.2150601007 203.5479088113
231.0380667019 75.1506809042 257.2732929100
195.6801738465 129.4971455493 244.5232160761
243.3537464149 72.8790957498 261.2325863308
217.3387343868 107.7058572537 198.1494734701
194.3028914988 117.5216394102 237.7311927902
222.9395454804 123.5245559540 210.5136848547
230.7160056100 68.6775811979 256.6402014537
227.4458852678 123.1885284444 203.9721241132
212.6141810326 79.3259930939 237.1142260804
213.1709780950 78.1156776824 242.1083259673
207.0284441538 145.3471112033 239.3111680748
211.0183479185 102.1776846731 204.8534260523
207.2119083019 80.8886901596 228.4240050319
207.7475568172 145.4922875902 234.6859227762
211.4198935508 88.9057689721 211.8820886377
201.8000329128 140.0246909382 236.2512369282
213.0161930745 68.6121689030 243.1231461141
220.0401380745 114.3458224837 196.9098832761
217.8733381510 79.4084999438 243.0298270515
223.2450248120 124.0225474973 208.5994844516
209.0853620340 91.0826340515 214.9799771505
217.1320457943 78.2410971673 238.7054157394
200.6063247677 145.8460521025 243.6664831978
241.3519391563 74.8012018671 257.2738666914
193.6819823583 116.4997595818 236.7718184541
194.0193561179 126.5467095177 241.0567256283
219.7885186245 112.8871647220 196.5109166243
216.1514674618 93.9971348312 206.5056167226
212.1021650723 79.6250251168 233.1197177348
216.7113361773 103.3596230656 209.5351366673
209.8021841886 70.5088108031 236.9851477783
214.1299576538 77.3002022135 234.3928170287
214.7610160994 91.8731589364 211.8891549795
213.4188038750 92.8861760094 213.0078107617
225.2818409119 114.2468578675 202.5106536077
235.4589702053 73.7728358409 264.7084827877
213.1585121895 148.9022346509 234.8858658572
212.7295760056 79.8582780209 239.3913275870
197.0215597224 144.1271278620 240.4084782891
206.9425011588 144.3316292447 239.5380069278
212.2233274308 103.6070800373 206.7602318460
216.4325194301 141.1163069394 224.8185341627
217.9857092543 139.5378941304 220.1080386293
216.5351365326 80.8311317578 234.5342956854
207.3329662470 84.7191019416 225.4607420104
230.5589543497 70.2000924261 255.2984725007
224.6813735628 118.4770460479 201.1614645130
213.5756906059 92.6987270529 205.6109763263
241.7291986849 72.5993660168 261.4113036442
243.3376249185 76.8408240083 252.9647194382
186.5823946637 122.7793162694 238.3305822678
209.1435866288 86.2177285856 221.0187950082
222.0212409294 72.1671309244 260.7903266881
218.8581296893 114.7038554626 205.7939021699
215.7448422188 66.9881767648 246.4318579379
191.9158930988 137.7963469311 242.3910034635
191.3329275116 135.1905481785 242.1103047827
227.8518666259 73.6841805556 258.5694785971
225.9749659077 66.2061769795 255.0875206867
214.0762568038 148.7564349326 221.1741999754
226.0953766217 127.7032869554 215.3210739294
220.6489857152 143.3621345576 223.8778713201
222.5850436700 115.6217610798 199.3340948595
195.4956799171 132.3523712624 243.4017378694
184.0602990410 116.5277721062 238.9208001479
213.5531371147 145.0910137814 230.2297346638
193.5542273376 120.0678201966 239.4598139623
219.6555091951 67.3446104600 258.5131296620
224.8188875795 133.3408498131 219.5495266178
224.7738945312 117.2928354246 201.0726760208
212.9368101475 94.0271759598 213.4160193319
218.2549876733 88.8261146438 220.4399363417
224.2323806841 119.7404987085 201.5599759710
208.2100291179 144.2755760470 240.1220210472
226.9889176172 128.1555701277 215.4413975046
217.2951731709 79.1232165903 228.1343627992
207.0090421995 83.6909081302 225.0135614421
233.3343161258 71.3050269470 262.1079541991
215.5813775801 97.3436099056 206.7171851956
218.9747953357 65.7133031731 255.3826074400
219.3091591792 121.8684553579 208.1545997169
218.4055046829 146.4195931746 226.1150901548
218.0492746371 66.2752796320 249.4098705528
220.3474195501 78.7351607731 243.3716862848
190.7032859836 127.7942435141 244.2557665636
192.1158226710 135.5998796753 236.5091363316
202.8639628408 138.7674678096 237.0508748576
217.8665462766 80.1410700319 231.7410118694
215.7893483849 87.9936040353 220.7702675138
208.8169981070 140.4511071139 235.6527161415
222.3439993629 134.0429805766 212.9298499591
222.5925467292 130.7288081472 208.1974674732
214.0971059019 88.9897037730 213.1838241872
204.6440422732 135.1716511775 239.2769054112
204.4000911502 142.0297018352 238.8761715921
209.5070148422 73.1764652605 239.3020247727
220.5065642442 133.0298897422 221.8808920723
212.6348323836 74.4013471535 248.1735730253
196.4050513975 135.2439870785 237.1775056954
216.8599303636 95.6033844654 211.9535543388
210.3021392741 68.5533882308 240.9744691536
223.5441771074 64.8071225156 256.0489827290
213.1230804996 141.6775513714 234.9398700881
194.8884936104 123.7683640590 244.1693754259
202.9602497704 142.3669179331 235.8151261387
217.6939485740 103.2356707004 202.8889079042
214.2655323288 105.4432288322 209.6949035298
209.8518827443 80.7032458187 233.9840639755
207.6680843668 80.5222229154 233.7109154721
214.0724192672 71.8014165161 241.2109832329
212.2587468822 62.2377845477 254.1217819788
212.5710907481 148.9118378816 225.2180692241
200.4500355245 142.0648305311 238.4778508392
210.5224893160 84.5974311203 220.7343625498
209.6564627050 79.5532059316 232.1556205214
190.8269574433 129.7537874503 243.4150100595
236.6168854646 74.0174175903 262.9557638713
223.9411627082 138.7273087751 227.6674859641
191.8274175685 136.7887686301 242.7777845557
209.3302750843 67.8130893567 246.5977038657
216.4937450448 144.5067427642 228.9888393936
233.1926198896 74.1269640422 255.4141372397
220.1093276181 114.6951402735 209.2998276730
236.9535983816 66.6114380207 263.3801065215
233.3343161258 71.3050269470 262.1079541991
212.4456754842 84.0358145905 232.9560443721
218.6869540791 142.6187384502 228.7961843832
210.3092808200 84.4351708123 232.7607612249
228.9138260962 122.1132228001 208.8084309777
212.6389884603 75.9896799795 236.5940561008
218.7700424264 133.1066829088 221.0807931833
217.6916136200 141.7704562199 224.3016906450
221.2863110104 134.8439844086 215.7594482191
224.2228466876 118.3508925381 200.6575735170
214.2655323288 105.4432288322 209.6949035298
221.0556944055 133.5974649258 208.3081406534
219.3078524214 75.3838444409 241.9151869237
226.2388112634 122.6640293261 205.6871364445
241.8516991353 80.9121239241 265.5620576081
213.2034832372 103.8258390852 206.0709302047
192.2621544256 122.5535873961 247.4924807789
213.0041904758 105.0640973381 207.7441247836
205.5384061842 134.0449590499 235.5713771873
210.3013099893 86.9188375248 217.8360175361
234.2379717543 71.4214099694 258.2666157756
221.2508424092 130.9124235886 207.4656922641
187.5932025013 131.5796940296 245.9687124204
227.2987304483 130.7715152840 215.7752733034
220.1116592647 119.2236311141 203.6441319448
203.8309141421 131.9472617867 234.7749202782
227.5683041324 68.9412841880 254.2787057082
190.4193563869 127.3907441052 242.7687213503
237.8832920009 68.7993131824 266.3123884304
217.4485674654 78.1763765711 237.2499453238
213.3774746316 89.2641661277 219.6086395418
246.1564320888 78.0839207167 256.0932844444
216.7769038637 112.7822841639 204.4472293345
215.1323073469 149.6506379670 226.4632088932
200.4500355245 142.0648305311 238.4778508392
228.6387967639 121.7877184740 209.9702656162
217.6139346388 142.2567669658 224.5247029201
191.6141808932 124.8514609039 238.9155530570
226.1732344686 124.3325772424 213.4682479062
213.5401190045 144.8116382579 223.7002849432
215.8773433495 72.8788651688 240.8613378688
220.8385515970 141.1545679319 219.8790213040
224.3888525270 67.7698090304 252.8484262873
217.5116640868 143.5319296050 226.0541204464
213.5063140534 80.4350555691 237.3907401528
213.0182437391 96.3118864151 209.8566980247
226.5901089786 132.1110505969 213.1734171679
215.6772623061 102.5779040351 207.3036108089
205.2346130257 88.1390125813 225.7270959614
210.8587360973 67.8539189372 249.8791476452
211.6754038111 73.1104768547 249.3820817156
