15.9227247238 97.4300994873 132.5589904785
44.7151412964 93.6500015259 132.6029968262
84.0666809082 124.6800003052 106.5719985962
46.9308662415 101.3529739380 97.7900009155
58.1940803528 89.4628448486 100.1700057983
61.3007164001 108.0066452026 111.8059997559
55.2797546387 86.0500030518 98.5199966431
37.0267066956 89.6397247314 134.6499938965
49.1914024353 93.2600021362 91.8688049316
46.8339996338 105.5522079468 99.9600067139
46.9336242676 97.9569778442 136.6095886230
83.1651458740 121.0000000000 104.9329986572
53.9416656494 97.3493576050 148.0104064941
42.7846641541 91.4723510742 140.2799987793
82.7738037109 121.4172058105 112.8311996460
64.6699905396 95.1452407837 126.2873992920
66.1189422607 87.6281890869 135.9570007324
69.8916854858 100.5273666382 121.1900024414
84.1640014648 118.9122085571 106.4900054932
80.1240081787 131.3622131348 98.5600051880
62.8833847046 100.5398712158 122.5625991821
51.2389488220 90.7481842041 95.1069946289
37.7282562256 101.2973098755 97.3209991455
77.0472183228 116.6053543091 108.9699935913
45.5839996338 91.6622085571 134.3800048828
50.8019294739 103.4289855957 106.2679977417
57.6779136658 95.2776260376 118.5870056152
80.1616592407 136.0993499756 102.6903991699
85.2438049316 142.8771972656 98.0212020874
65.8749923706 114.2269210815 113.0154037476
43.3414039612 104.8099975586 97.4888000488
92.5288238525 128.6440277100 107.4799957275
49.1492156982 96.3875961304 97.7182006836
68.4689331055 101.5158386230 123.6619949341
51.2459564209 93.2588043213 144.1468048096
20.9197540283 96.0199966431 126.0999984741
47.1783905029 104.4779586792 97.7060012817
65.2020645142 103.9203872681 111.3170013428
27.8255844116 83.3459167480 138.4790039062
63.1592597961 96.1892013550 121.7341995239
66.7897567749 94.9499969482 112.8699951172
66.0638046265 101.0872039795 123.5512008667
61.3839645386 97.9800033569 117.7938003540
15.7240018845 91.9722061157 129.8800048828
66.2840805054 92.0728378296 131.8699951172
53.3586044312 105.2256088257 112.0475997925
69.8418731689 100.7075271606 121.2819976807
82.0072174072 135.2353515625 103.7899932861
82.2636260986 135.8069763184 99.4296035767
43.0872192383 98.1853561401 136.4400024414
28.7763023376 96.3087005615 131.8350067139
65.7040786743 99.0328445435 124.5999984741
78.7902984619 130.6998291016 97.0950012207
24.4546642303 93.6823501587 131.7200012207
42.7106933594 106.5010223389 103.3201980591
70.7589416504 109.3981857300 113.5469970703
51.1289710999 102.3692626953 96.3290023804
25.7733860016 85.2898712158 138.8626098633
59.7842979431 99.9040756226 135.4824066162
47.1227874756 100.1889953613 103.9361953735
28.0499973297 96.7908477783 136.0400085449
82.7267074585 138.2997283936 95.6500015259
63.4367065430 93.1897277832 130.0599975586
29.0383872986 89.4879608154 132.0760040283
56.8174209595 90.2898712158 98.4900054932
32.4336242676 92.7269821167 132.9995880127
77.3138046265 115.6972045898 114.1111984253
46.2008666992 102.5829696655 102.8000030518
38.7540016174 97.5222091675 96.4900054932
53.4819297791 85.7789916992 100.0380020142
48.7521362305 106.3869323730 102.5831985474
84.3708648682 128.0929718018 105.9600067139
64.4333877563 93.8398742676 130.2725982666
28.8007183075 93.1366424561 133.9260101318
87.8638000488 144.3071899414 87.1212005615
74.7022018433 107.0098724365 109.8299942017
55.7840003967 84.8422088623 99.0800018311
41.8608665466 96.4629745483 99.4800033569
36.5408668518 94.8329696655 139.8499908447
62.8740005493 103.7822036743 110.3600006104
39.8786125183 98.7117767334 139.0260009766
82.2817611694 143.9667968750 96.3109970093
72.1208648682 111.0229721069 113.3100051880
57.9127235413 90.1400985718 99.7490005493
45.0991249084 108.2658615112 107.1240005493
66.4572219849 92.5153503418 129.6300048828
78.8802947998 106.4298400879 115.0149993896
48.6387481689 91.8059921265 102.5386047363
55.2759552002 96.8087997437 135.7068023682
40.8597564697 89.5100021362 93.6899948120
87.1827926636 136.9790039062 95.1761932373
43.0147819519 103.2753219604 101.2910003662
69.0099945068 85.5708465576 132.8300018311
78.3547821045 115.5353240967 106.5910034180
48.2292098999 99.5375976562 102.0181961060
41.8497543335 91.6600036621 90.8499984741
54.2852935791 93.5169219971 148.4640045166
16.7125816345 93.9000015259 127.8880004883
83.8397521973 145.7400054932 84.4700012207
83.0167617798 131.0020141602 109.0746002197
84.6438064575 135.9371948242 98.1011962891
59.2957649231 85.3259048462 137.7830047607
52.9114036560 94.0699996948 139.7987976074
47.8314018250 110.0199966431 99.0788040161
60.6418724060 94.3275222778 135.4019927979
52.9821319580 101.2269363403 98.7032012939
79.6259536743 142.6988067627 85.6268005371
80.2916870117 130.4373626709 93.4400024414
84.1346588135 127.0023498535 105.1200027466
77.9186172485 125.3917694092 110.8660049438
56.6859550476 97.5988006592 137.2968139648
58.4159545898 85.3488006592 136.6768035889
15.0174207687 94.2398681641 130.1600036621
51.6888237000 103.5340270996 102.9699935913
51.3074188232 95.3998641968 143.8399963379
53.5987472534 89.8159942627 111.9686050415
53.4136505127 108.9878234863 109.2040023804
53.2117614746 104.4668045044 112.6210021973
80.0972213745 123.1353530884 108.1199951172
44.5842971802 94.7240753174 136.9523925781
77.5313949585 132.1000061035 92.8288040161
47.2982826233 89.0533752441 98.2559967041
34.0282821655 87.1233749390 131.4360046387
71.7972183228 98.2453536987 127.1299972534
85.2988204956 132.3040313721 102.4899978638
46.3508682251 97.7729721069 134.3000030518
38.1522026062 90.0998687744 136.7799987793
55.8825798035 94.7200012207 105.6679992676
80.2663040161 132.3986968994 104.1149978638
81.7927856445 117.9389953613 109.3561935425
58.9555854797 94.8959197998 142.6690063477
37.2388229370 87.2740249634 134.9299926758
51.6633872986 108.5698699951 113.0525970459
42.6722030640 91.2198715210 136.6199951172
43.7167701721 92.2120208740 100.2946014404
84.2092590332 130.7491912842 108.4341964722
48.2799949646 97.6452407837 96.5674057007
69.4140777588 97.8528442383 131.1499938965
58.0946655273 101.6723480225 117.6500015259
45.0982551575 96.0773086548 135.0910034180
49.7327232361 112.8701019287 100.8990020752
28.2997531891 99.3199996948 129.9300079346
56.3967056274 95.7197265625 112.1899948120
63.2799949646 102.0752410889 115.4973983765
26.7340774536 88.9028396606 139.5999908447
46.5808677673 103.0229721069 97.6100006104
43.9067077637 99.5797271729 142.7400054932
56.8733024597 95.4026947021 143.9479980469
88.1752853394 139.5769348145 85.5940017700
33.7274208069 92.9698715210 141.5200042725
75.5488204956 106.0840301514 112.8999938965
44.0949859619 109.1369247437 102.3153991699
49.0302925110 91.4498443604 136.7350006104
51.5155868530 92.1759185791 143.6089935303
28.1514015198 89.3499984741 131.9087982178
29.9233856201 90.2998733521 138.8726043701
84.2916641235 137.6493530273 96.7403945923
69.0516891479 98.6873703003 122.4199981689
64.4293975830 90.8725357056 135.8040008545
60.2482795715 100.1833724976 114.5659942627
53.5786018372 106.4256134033 112.9876022339
36.2447814941 84.3553237915 128.6410064697
85.5167617798 131.4520111084 108.7246017456
84.5138015747 143.7971954346 89.6311950684
32.2797546387 91.6399993896 132.6500091553
84.3340759277 139.4628448486 95.0699996948
51.0688209534 93.5140228271 138.9299926758
82.3088226318 119.8140258789 112.5699996948
44.9146652222 108.0423507690 100.6299972534
79.1855850220 109.6159133911 111.9390029907
59.0938072205 93.8972015381 141.7312011719
54.9219284058 93.4489898682 108.0479965210
84.6736221313 125.0369796753 105.0596008301
58.6239624023 108.2900009155 108.7338027954
81.0802917480 131.4098358154 94.1949996948
63.3867683411 108.1320190430 112.5145950317
45.4416656494 96.2093582153 141.1103973389
64.4851455688 86.9000015259 127.2029953003
70.0918731689 94.5375213623 114.9120025635
85.2040023804 126.5422058105 104.2800064087
83.6586074829 127.2056121826 110.4576034546
62.0740776062 93.2428436279 136.8099975586
85.8526382446 134.8868103027 94.0429992676
51.0767059326 95.3297271729 99.2900009155
81.8336257935 138.0469818115 94.1796035767
77.8894042969 111.0925369263 114.1739959717
65.2727890015 106.9989929199 114.8161926270
47.1040000916 89.9122085571 97.6300048828
77.0186080933 117.8856124878 112.1276016235
66.3552856445 89.9869232178 117.7940063477
63.6639633179 106.6800003052 111.3638000488
63.2382812500 102.2033767700 111.8959960938
58.6089706421 99.9992599487 134.8589935303
66.9139633179 92.1500015259 112.2938003540
77.4727859497 123.7389907837 116.7861938477
40.8852920532 91.3569183350 138.1840057373
23.0846652985 93.5323486328 134.0299987793
54.0882797241 88.1133728027 105.2659988403
87.0627899170 132.6889953613 100.3861999512
79.1572189331 115.6053543091 108.4499969482
89.3843002319 144.3740692139 83.5023956299
35.9572219849 94.1353530884 141.4199981689
78.4182815552 131.1333770752 100.7760009766
53.5786018372 106.4256134033 112.9876022339
52.5946655273 85.7923507690 101.1200027466
50.6827888489 93.8189926147 105.3161926270
57.8588218689 88.1240234375 109.2299957275
52.0502929688 100.9098434448 114.0749969482
44.6739616394 96.7300033569 94.3538055420
59.8921356201 104.8469314575 109.9031982422
35.5472221375 93.0453567505 131.4000091553
82.0657577515 141.6759033203 95.0429992676
43.0097541809 95.6100006104 95.7599945068
46.0074195862 97.9798660278 138.3600006104
46.8257637024 111.0659027100 98.9530029297
66.8288192749 108.4340286255 117.3699951172
31.9146652222 88.2723464966 129.1499938965
56.8074188232 97.1098709106 137.9400024414
68.0267105103 100.2197265625 122.9799957275
25.8214015961 86.3600006104 132.3188018799
83.3286056519 125.8556137085 111.0576019287
88.2872238159 125.6353530884 108.2199935913
59.8217620850 87.9468078613 136.9710083008
40.7074203491 95.7198715210 137.8800048828
54.6747817993 88.5753250122 111.9810028076
56.4274215698 96.0798645020 108.3899993896
75.7497558594 110.0800018311 108.9599990845
81.5474243164 145.1998596191 84.3100051880
56.4838066101 107.3172073364 112.4812011719
85.2988204956 132.3040313721 102.4899978638
49.9316635132 98.2193527222 139.9104003906
77.1140823364 114.6428451538 113.9000015259
55.6840019226 91.9222030640 140.8700103760
89.7816925049 124.8673706055 106.6800003052
57.5714035034 90.7600021362 105.1987991333
49.1440010071 103.0522079468 106.4000015259
84.2779159546 142.7676086426 98.7470016479
76.4336471558 117.5778198242 111.7840042114
14.0582561493 96.0573043823 133.3710021973
85.1683883667 141.4779663086 87.8460006714
61.0772209167 92.3753509521 106.5000000000
83.3232955933 135.2626953125 98.2679977417
64.2259521484 110.6588058472 113.4667968750
71.0799942017 95.5808486938 128.7700042725
86.0831985474 130.7345886230 102.1279983521
39.4952926636 90.9069213867 137.8540039062
82.5108642578 139.1629791260 92.0900039673
59.8386039734 106.1356124878 113.9476013184
43.9714012146 103.4100036621 97.5688018799
69.8052902222 96.2469177246 129.1340026855
25.5240020752 93.2222061157 130.8800048828
60.3008689880 94.3729705811 117.8000030518
42.9691238403 99.8458633423 102.2340011597
48.2308654785 90.9929733276 101.4400024414
66.3979187012 103.6476211548 125.1770019531
50.5667686462 94.8020172119 101.1846008301
46.3491249084 95.2958602905 141.8540039062
81.8288192749 133.4840240479 105.4699935913
26.7557621002 98.8259048462 132.0630035400
35.1563034058 86.1487045288 128.1549987793
62.7540016174 98.9622039795 113.9900054932
67.9967117310 99.8897247314 129.6100006104
55.2079124451 103.2676239014 115.0570068359
67.4517593384 99.8768005371 128.6010131836
40.1219291687 89.8689880371 96.3580017090
47.7449874878 98.4869232178 98.4854049683
81.6016921997 132.3273773193 99.1200027466
79.4879150391 124.4876251221 114.4270019531
52.1140785217 94.1528396606 93.8800048828
57.2736244202 100.5269775391 136.3896026611
55.2797546387 86.0500030518 98.5199966431
27.9567070007 101.6797256470 132.0099945068
81.1667098999 122.2397232056 108.4899978638
53.8572196960 92.4053573608 101.1499938965
77.4917602539 125.6868057251 111.9909973145
67.0316925049 90.5473709106 128.6199951172
63.5972213745 100.8453521729 113.7099990845
30.0967655182 91.2820205688 136.9546051025
76.1808700562 119.2429733276 115.0300064087
30.0867671967 92.5320205688 134.7246093750
63.3339614868 100.0699996948 119.4938049316
38.9363021851 99.0487060547 94.8850021362
45.8427886963 93.6089935303 103.0561981201
49.1040802002 94.9728393555 99.0900039673
51.8846664429 103.1723480225 106.8700027466
58.5659561157 103.3688049316 113.2967987061
62.3108673096 88.2129745483 139.8799896240
48.8559532166 100.4088058472 99.1567993164
37.8397560120 100.2099990845 94.1299972534
43.1340026855 103.5722045898 98.8899993896
77.1582565308 133.7272949219 105.6709976196
54.6747817993 88.5753250122 111.9810028076
37.5499954224 86.5208435059 134.3399963379
46.4814033508 91.0100021362 97.3488006592
52.5946655273 85.7923507690 101.1200027466
79.7067108154 123.7497253418 109.5199966431
50.6499938965 110.1052398682 100.0373992920
47.9836235046 94.5069808960 99.2296066284
49.3208656311 106.4529724121 102.9000015259
82.5946578979 138.4823455811 93.9499969482
70.3082885742 104.8033752441 111.8959960938
59.0036239624 88.2769775391 135.7695922852
25.8214015961 86.3600006104 132.3188018799
66.4855880737 91.8959197998 129.8889923096
59.8616905212 92.6173706055 115.1900024414
61.5272216797 103.9953536987 116.4399948120
28.0451431274 98.0599975586 131.0230102539
88.1140823364 125.1928405762 110.4599990845
42.7846641541 91.4723510742 140.2799987793
82.3921356201 120.0569305420 108.5531997681
50.3782806396 93.2233734131 138.0059967041
47.7520637512 92.2480545044 101.4319992065
62.1508674622 92.2429733276 130.6199951172
87.5532760620 142.7881011963 93.3239974976
52.4107170105 110.3366470337 110.0960006714
62.9767074585 92.1897277832 137.0800018311
48.0536231995 97.8469772339 138.5495910645
61.6627883911 96.2989959717 114.4461975098
55.1318702698 104.2875213623 105.7919998169
66.0649871826 107.6569213867 111.4854049683
46.8367080688 114.2597274780 100.8099975586
59.6798057556 100.3067550659 113.2900009155
84.0666809082 124.6800003052 106.5719985962
81.0432739258 134.0281066895 98.5339965820
35.5667076111 94.7497253418 142.8199920654
60.5788230896 93.0840301514 141.2799987793
82.2500000000 131.8508453369 94.7600021362
39.2972221375 92.9153518677 134.7300109863
56.6247825623 88.9453201294 110.4710006714
78.5940780640 133.6128540039 99.0600051880
44.0818710327 90.1375274658 94.7220001221
55.0734710693 92.8430480957 109.0859985352
45.0321998596 90.7698669434 98.0999984741
55.3752937317 88.5369186401 103.7940063477
43.2499961853 95.7952423096 134.7373962402
68.8072204590 107.1153564453 110.7099990845
82.8516921997 118.8473663330 109.7900009155
41.0246658325 98.9223480225 100.7099990845
64.6216888428 87.6273727417 138.7599945068
89.5327224731 133.2301025391 107.5690002441
26.8488235474 93.1540298462 136.1199951172
63.4046669006 102.3923492432 123.5400009155
43.6387481689 90.9759902954 100.7586059570
90.3589706421 144.7992706299 84.0890045166
40.9533882141 95.3398742676 137.4226074219
74.8674240112 107.0198669434 109.3100051880
66.3313980103 107.9100036621 111.0487976074
82.3921356201 120.0569305420 108.5531997681
77.2046585083 131.9723510742 105.2500000000
67.5472183228 96.0053558350 122.6800003052
65.2163085938 85.1487045288 128.0149993896
66.0386047363 94.8756103516 128.6275939941
63.6598052979 86.6267547607 133.8999938965
47.7639999390 99.8022079468 96.1100006104
66.9440078735 91.3422088623 124.0500030518
58.6697540283 86.2699966431 135.2000122070
51.7892150879 93.1675949097 103.3981933594
81.4831924438 117.0545806885 109.5480041504
33.9082565308 92.9473037720 143.8209991455
74.8392105103 106.1475982666 111.4581985474
53.2097892761 89.2057189941 113.1318054199
68.1752853394 91.9269180298 116.9540023804
41.7539634705 94.4499969482 93.2638015747
53.4414024353 89.5800018311 97.7188034058
43.6420631409 91.3680496216 99.1920013428
55.7840003967 84.8422088623 99.0800018311
66.5092086792 92.3875961304 133.6781921387
55.4422035217 87.2598724365 106.5999984741
39.1374206543 95.2298660278 136.8399963379
86.7667617798 133.1720123291 104.5345993042
87.0989685059 142.7392578125 82.9890060425
57.0197563171 93.1699981689 136.3800048828
25.9033012390 96.3726959229 136.0679931641
54.3082542419 94.0473098755 117.1009979248
58.8988227844 92.5840301514 136.2500000000
79.2688217163 117.7840270996 114.0399932861
43.7579116821 98.2676239014 143.4369964600
53.9599952698 109.0252380371 110.3674011230
27.0133018494 93.0326995850 135.6880035400
33.3646659851 91.1623535156 142.0800018311
60.5863037109 85.3287048340 134.2949981689
43.6542968750 94.3240814209 93.3723983765
54.4172210693 94.2353515625 139.9199981689
41.3540000916 98.0822067261 95.6000061035
27.1399917603 91.9852371216 130.8973999023
83.5617599487 124.3468017578 105.2509994507
36.1816902161 92.1273727417 132.2400054932
56.3621368408 102.0569305420 110.7931976318
63.8336257935 102.4269790649 120.8296051025
54.1392555237 92.5092010498 111.1342010498
46.7707176208 109.4966430664 106.3959960938
84.4226379395 121.1867980957 111.5230026245
25.8888225555 86.1540298462 139.6999969482
61.7055854797 88.3159179688 138.8589935303
77.7488250732 102.8740234375 112.8499984741
58.5916633606 94.6693572998 115.0703964233
80.0240783691 116.0628433228 113.0200042725
56.2759552002 92.3087997437 139.9168090820
56.7408676147 95.3229751587 118.3300018311
42.2163009644 100.6887054443 94.4250030518
51.3614006042 101.7099990845 107.8888015747
41.4567070007 100.0597229004 137.9900054932
59.5892562866 96.3491973877 112.9242019653
80.5416641235 135.8893585205 95.9804000854
69.0516891479 98.6873703003 122.4199981689
36.3416900635 89.5473709106 134.8600006104
55.3752937317 88.5369186401 103.7940063477
61.3040008545 90.4622039795 131.1900024414
50.0274200439 96.1598663330 93.3600006104
55.5386123657 96.5217742920 107.0960006714
60.7686042786 94.5856094360 118.1175994873
88.7500000000 122.5408477783 107.5200042725
53.1959533691 104.6588058472 111.6268005371
73.7327880859 106.7989959717 113.3761978149
43.0147819519 103.2753219604 101.2910003662
71.4040756226 107.9028396606 114.7700042725
52.7542991638 107.3940811157 101.6823959351
45.5572204590 95.8053512573 139.0500030518
29.2838077545 99.6072082520 135.0012054443
84.2082824707 136.8433837891 90.5559997559
59.5714035034 103.2300033569 110.2788009644
77.1433868408 105.2598724365 115.3526000977
82.5197906494 141.9157104492 92.8518066406
71.6240768433 97.8028411865 129.3699951172
65.5397567749 90.6500015259 113.8299942017
80.1408691406 142.2729644775 87.0200042725
81.1440811157 133.5128479004 106.8800048828
45.1386032104 103.6056137085 102.8476028442
88.7716903687 127.1073684692 107.0100021362
56.9067077637 94.7397232056 119.1999969482
57.1616897583 92.8873672485 141.4300079346
52.2172203064 96.4253540039 138.1200103760
67.8143005371 87.8440780640 127.9924011230
40.3097534180 94.1500015259 139.0600128174
60.9404754639 91.3569412231 139.7173919678
89.0532760620 125.5181045532 104.6640014648
65.2816619873 93.7493591309 131.6804046631
88.6318740845 141.2275238037 94.7519989014
67.5216903687 90.4073715210 114.9499969482
68.1563034058 109.3487014771 110.9950027466
34.9386024475 92.6956100464 143.6175994873
15.5825824738 93.8899993896 128.6280059814
62.1247825623 99.1253204346 111.4410018921
65.2338027954 94.1172027588 119.7312011719
83.9966812134 137.4299926758 90.0820007324
77.3019332886 122.3189849854 111.8180007935
84.0540771484 144.7328491211 88.7500000000
51.1689491272 94.2981872559 95.6269989014
29.7040786743 88.3028411865 136.9700012207
44.4591255188 109.3858642578 103.7340011597
52.0089683533 108.4292602539 101.8790054321
61.3916893005 91.5873718262 113.9499969482
62.8916664124 93.1093521118 136.3003997803
53.5049858093 94.3669204712 107.1653976440
78.4182815552 131.1333770752 100.7760009766
66.3555831909 104.4159164429 111.8690032959
52.1389694214 106.5992660522 100.8590011597
66.8288192749 108.4340286255 117.3699951172
52.5508689880 88.9829711914 108.7700042725
13.7646636963 95.0023498535 131.2299957275
47.8486022949 96.6856079102 140.8175964355
48.9314002991 104.9199981689 105.6188049316
56.7451438904 95.5299987793 133.0130004883
34.4272193909 91.1753540039 128.6699981689
56.0589485168 93.8581848145 144.8470001221
64.6327209473 89.8501052856 136.7689971924
72.3613967896 109.6999969482 109.8988037109
75.5867614746 124.8720169067 114.4845962524
71.4459533691 115.0788040161 110.9667968750
62.8314018250 91.1200027466 127.8388061523
79.4788208008 129.6040191650 94.2799987793
51.8846664429 103.1723480225 106.8700027466
31.6749877930 92.8469238281 135.8753967285
77.1988220215 119.9440231323 115.8999938965
53.6142959595 107.8040771484 103.7723999023
27.2866802216 88.6100006104 131.7120056152
63.8757667542 102.2258987427 123.5530014038
78.5888214111 132.3040313721 98.5000000000
80.5640029907 142.4822082520 84.0600051880
63.4586067200 97.7756118774 123.3975982666
80.1839599609 117.6200027466 105.9038009644
45.5572204590 95.8053512573 139.0500030518
23.9083881378 96.3079605103 128.1259918213
65.9772186279 87.3053512573 127.0799942017
46.2008666992 102.5829696655 102.8000030518
54.6146659851 92.3823471069 141.7100067139
68.9638061523 111.1872024536 116.2811965942
42.2539634705 92.7399978638 133.2438049316
43.9939651489 90.7600021362 99.1438064575
59.9508666992 104.8529739380 115.0500030518
51.7740020752 100.1722030640 108.3100051880
45.6516876221 93.8373718262 137.9499969482
41.6246643066 95.3723526001 98.6399993896
38.4521331787 88.8069305420 130.9931945801
74.3588256836 114.1740264893 109.6199951172
51.9108657837 97.3529739380 148.1999969482
40.7691268921 99.3458633423 99.5139999390
56.4389343262 87.4458389282 101.9420013428
79.4252853394 130.3569335938 96.0040054321
85.1997528076 126.5299987793 106.7299957275
80.9491271973 141.8058624268 89.2440032959
61.8791236877 90.4358596802 131.6139984131
64.0534744263 88.3230438232 133.2660064697
82.5538024902 133.1071929932 103.9812011719
88.1752853394 139.5769348145 85.5940017700
26.1686153412 101.4317703247 133.3459930420
45.8083877563 106.5379638672 99.2159957886
86.7416915894 134.3973693848 94.8600006104
68.8272171021 103.7253570557 121.2399978638
82.0597534180 135.6799926758 92.8699951172
41.1292572021 94.9692001343 135.4342041016
49.2399940491 109.6552429199 105.5274047852
69.6694030762 112.3325347900 113.1739959717
40.9379119873 101.5976257324 99.7970046997
58.2221374512 93.5669326782 116.6432037354
52.6320648193 89.4680557251 110.6819992065
62.3108673096 88.2129745483 139.8799896240
85.1872177124 146.4153594971 84.7500000000
60.8789329529 103.3858337402 119.0019989014
56.3967056274 95.7197265625 112.1899948120
56.3688240051 88.3240280151 110.4399948120
66.4482574463 98.4273071289 128.7409973145
88.8882598877 131.3672943115 110.0709991455
50.4627876282 96.2389907837 143.8661956787
57.6442985535 107.0940780640 107.9624023438
62.5467681885 95.6720199585 127.0545959473
86.1072235107 135.3153533936 94.0199966431
48.9314002991 104.9199981689 105.6188049316
65.1799926758 100.9952392578 119.8774032593
49.5782546997 107.9473037720 104.7210006714
84.0357589722 119.7059020996 105.4130020142
39.1218719482 90.4475250244 141.2719879150
53.0951423645 88.6200027466 98.8529968262
90.2189483643 123.1881866455 105.2070007324
44.6739616394 96.7300033569 94.3538055420
53.9163017273 92.4587020874 144.0350036621
63.1888237000 89.8240280151 137.3600006104
63.7027893066 94.6889953613 124.3761978149
25.9847812653 89.4053192139 131.2810058594
51.6286048889 95.0256118774 145.5075988770
78.9038009644 107.3472061157 115.0811996460
57.4133872986 91.3498687744 139.6026000977
48.6186027527 107.7356109619 110.2875976562
59.7767066956 106.1697235107 113.5999984741
50.6208686829 96.2129745483 148.1799926758
79.7133865356 148.0198669434 87.5326004028
85.9582824707 126.5033798218 103.9059982300
54.8802909851 92.6498413086 146.0650024414
76.4336471558 117.5778198242 111.7840042114
85.8221359253 131.2569274902 101.0032043457
40.6399955750 102.6152420044 92.6073989868
59.7767066956 106.1697235107 113.5999984741
84.8288192749 119.0440292358 107.8899993896
45.4463005066 91.8987045288 133.4149932861
38.4521331787 88.8069305420 130.9931945801
28.9316654205 101.3193588257 133.6404113770
81.1113967896 131.4299926758 99.2388000488
23.3727874756 97.7789916992 132.6261901855
75.7757644653 103.8259048462 112.2130050659
85.4397583008 141.2200012207 88.4899978638
54.3322029114 106.0398712158 108.8399963379
79.8894042969 125.7825317383 112.2939987183
89.6940765381 127.8828430176 106.9400024414
86.5167083740 143.2597351074 97.5000000000
63.0633049011 93.5126953125 134.5780029297
49.2659530640 107.0388031006 104.5467987061
53.2508659363 106.4229736328 112.9500045776
72.6986083984 109.5456085205 114.5676040649
54.9508666992 106.0829696655 113.1300048828
16.0667076111 97.6597290039 132.9100036621
67.2816619873 89.3093566895 131.6404113770
59.6533851624 90.2598724365 139.2425994873
44.6052932739 91.5269165039 141.1540069580
48.0463027954 100.1887054443 95.5650024414
80.5413970947 143.9100036621 83.3588027954
63.3840026855 91.8522033691 114.3300018311
50.0639991760 104.5622024536 105.0800018311
66.5999908447 106.8152389526 109.5674057007
46.0822029114 102.0298690796 98.0699996948
64.5413970947 97.8600006104 117.2588043213
87.2500000000 139.8108520508 96.1800003052
88.4755859375 119.1359176636 105.1490020752
63.1046638489 89.0523529053 128.3600006104
55.6840019226 91.9222030640 140.8700103760
89.1472244263 125.7853546143 105.8399963379
58.2221374512 93.5669326782 116.6432037354
69.8052902222 96.2469177246 129.1340026855
36.8288230896 88.8740234375 142.4799957275
63.9697570801 103.1399993896 122.1399993896
78.0997543335 118.8600006104 112.0799942017
67.3647842407 84.5753250122 127.9609985352
31.9827861786 90.1489944458 139.2561950684
64.1613998413 100.7099990845 119.4688034058
35.9717636108 94.7668075562 141.2110137939
28.0599918365 86.9152374268 131.8773956299
49.8167076111 98.1297225952 140.4799957275
83.9040069580 130.0722045898 99.5900039673
42.4274215698 105.8398666382 99.1699981689
59.4727897644 91.1989898682 139.9861907959
55.0097541809 92.4400024414 106.3399963379
53.7607192993 93.5266418457 104.7159957886
88.1692123413 132.0375823975 98.4682006836
55.4216880798 96.2373733521 143.3800048828
36.5408668518 94.8329696655 139.8499908447
39.1489486694 87.1281890869 132.1470031738
47.8988227844 105.2940292358 104.1199951172
66.3240814209 88.3428421021 133.8699951172
71.6240768433 97.8028411865 129.3699951172
46.8257637024 111.0659027100 98.9530029297
54.1082801819 87.4333724976 106.6459960938
39.4952926636 90.9069213867 137.8540039062
64.1997528076 109.6299972534 114.5000000000
45.3486137390 112.9417724609 100.6960067749
66.3552856445 89.9869232178 117.7940063477
36.2447814941 84.3553237915 128.6410064697
51.0336227417 103.4269790649 109.2496032715
53.7227897644 108.4189910889 113.4361953735
54.6421356201 106.3169326782 105.1332015991
75.7497558594 110.0800018311 108.9599990845
70.1340789795 94.5728378296 127.8800048828
58.2634735107 102.9430465698 116.1460037231
87.8388214111 140.1140289307 95.7099990845
40.4286041260 98.5956115723 141.0375976562
64.1492614746 107.2992019653 111.7341995239
34.1997566223 92.3700027466 131.1200103760
54.4172210693 94.2353515625 139.9199981689
82.0740814209 143.5728454590 89.5000000000
86.1788253784 121.7740249634 108.8799972534
61.1067695618 99.4320220947 118.9445953369
77.0186080933 117.8856124878 112.1276016235
41.3033866882 94.9198684692 96.3325958252
49.3816642761 112.1093521118 101.8003997803
83.2808685303 143.5329742432 89.4300003052
69.5879135132 110.0876235962 115.5770034790
65.9536209106 95.3869781494 115.1396026611
41.6246643066 95.3723526001 98.6399993896
82.0582885742 140.7933807373 86.5260009766
43.2439994812 96.6522064209 95.6700057983
53.0874214172 97.2198715210 140.8699951172
26.6382827759 84.4033737183 133.2259979248
32.9946632385 86.9723510742 134.4199981689
46.8219299316 92.8689880371 97.2180023193
83.1536254883 144.1569824219 93.0396041870
83.4813995361 142.4400024414 91.6788024902
79.3521347046 105.1669311523 110.6432037354
56.9797897339 105.8057174683 112.5618057251
52.0579147339 102.8076248169 114.8870010376
87.6267089844 142.4797363281 95.4300003052
69.5852890015 92.9969177246 127.2740020752
85.6642990112 143.5340728760 92.1324005127
77.4017639160 134.1068115234 99.9909973145
70.3231964111 93.7045745850 124.7480010986
53.5442962646 102.8040771484 108.3423995972
52.9627227783 98.0101013184 148.1589965820
32.4426460266 88.3367996216 137.1529998779
85.4264678955 132.7912445068 100.1700057983
54.4716873169 92.1773681641 145.3999938965
68.5540771484 88.4128417969 133.6599884033
27.3814029694 99.2300033569 130.9188079834
71.8286056519 116.8456115723 112.3275985718
74.7397537231 104.6900024414 109.5299987793
63.5808639526 111.8229751587 115.3900070190
60.8699951172 101.1608428955 118.0500030518
68.7272186279 88.8553543091 131.4199981689
66.3846588135 107.8323516846 115.1599960327
66.0649871826 107.6569213867 111.4854049683
35.7536239624 95.3969802856 137.5895996094
88.1331939697 139.7945861816 91.8180007935
65.5440826416 96.0228424072 118.3800048828
82.4759521484 137.5888061523 91.9168014526
62.7692108154 95.6475982666 112.5281982422
63.8240776062 105.0228424072 115.1700057983
51.1367073059 110.4197235107 108.3699951172
57.6092147827 90.8375930786 118.7481994629
58.8757667542 101.0259017944 113.5330047607
48.2997894287 92.4757156372 103.7817993164
85.5040054321 127.7822113037 102.3300018311
55.5959548950 92.7188034058 138.6268005371
55.5940780640 90.3628387451 104.8499984741
37.5382575989 100.0373077393 99.2109985352
78.1013946533 121.4199981689 107.2588043213
51.8816871643 94.3473663330 138.0899963379
42.0467681885 106.3820190430 101.6745986938
51.1808662415 94.6829681396 145.2399902344
56.8540802002 104.0028381348 114.2000045776
50.2089500427 92.6581878662 135.5169982910
65.2252883911 91.9969177246 118.8240051270
26.8363018036 83.7087020874 134.3650054932
52.1882820129 103.8633728027 103.1959991455
75.8639602661 123.4199981689 113.3338012695
63.8757667542 102.2258987427 123.5530014038
70.1288223267 93.2640228271 127.3199996948
46.3491249084 95.2958602905 141.8540039062
40.5859565735 95.4288024902 142.0268096924
48.5116882324 101.9973678589 101.6800003052
42.1820640564 91.5903854370 135.0169982910
63.9762992859 86.2287063599 135.1450042725
43.7308654785 94.3529739380 135.3099975586
52.6646652222 103.9223480225 110.2699966431
62.7307167053 96.0266418457 114.5759963989
42.0097885132 106.3457183838 101.9318008423
84.4304733276 123.1369400024 112.3574066162
66.1127243042 111.9501037598 116.7890014648
39.7382812500 99.6533737183 94.0059967041
60.8514022827 91.9000015259 130.8188018799
84.4446640015 122.1023483276 108.3199996948
43.4597892761 92.2657165527 101.5218048096
53.4365921021 109.5416946411 110.9357986450
62.3363037109 86.9087066650 133.7949981689
38.7463035583 97.7887039185 96.7750015259
66.6317596436 99.4668045044 126.7109985352
56.9067077637 94.7397232056 119.1999969482
48.1739997864 106.0922088623 100.9300003052
73.9699935913 107.4052429199 110.3074035645
27.5867061615 101.9397277832 134.6499938965
90.6716613770 132.8693542480 108.0503997803
62.9916648865 106.6593551636 112.5904006958
55.0942993164 95.1640777588 140.2523956299
88.2221374512 123.4769363403 107.8731994629
49.2016639709 97.2393569946 135.7804107666
80.4332962036 117.6726989746 111.3680038452
73.3699951172 119.4052429199 109.5174026489
27.9649868011 94.9569244385 132.4453887939
57.5714035034 90.7600021362 105.1987991333
60.9816627502 104.2293548584 116.3803939819
82.5197906494 128.5257110596 109.8418045044
75.6997528076 115.9300003052 108.6899948120
47.3840789795 97.1528396606 140.0399932861
44.6821365356 92.8369369507 94.7332000732
59.3314018250 86.5599975586 134.4087982178
65.5532989502 96.4226989746 124.3379974365
79.0582580566 134.6472930908 106.5509948730
88.3483886719 128.7479705811 103.4259948730
36.7946662903 89.2023468018 140.1100006104
48.4288215637 99.9340286255 97.5099945068
52.9136238098 92.1569824219 108.3096008301
65.1036224365 95.8169784546 125.3896026611
32.2797546387 91.6399993896 132.6500091553
55.6089477539 101.6981887817 109.6269989014
61.7055854797 88.3159179688 138.8589935303
54.1197891235 90.1457138062 119.1318054199
46.4167060852 95.4897232056 98.9799957275
89.1679153442 142.3276214600 86.6270065308
79.3302917480 131.6698303223 105.2649993896
61.3488235474 102.2440261841 118.1199951172
82.2297897339 131.2157135010 98.1518020630
56.7438087463 92.1472015381 119.9112014771
57.9879112244 91.2876205444 109.1570053101
45.5572204590 95.8053512573 139.0500030518
51.8866806030 88.7200012207 100.9820022583
80.2821350098 114.4169311523 110.2231979370
28.3063011169 98.1587066650 130.8450012207
56.3286018372 97.3356094360 137.0276031494
89.4108657837 130.3229675293 110.1000061035
81.2302932739 132.5898284912 106.1449966431
51.3672218323 109.8653564453 103.3599929810
51.7433853149 93.0698699951 107.9325942993
17.7214012146 95.6699981689 126.7788085938
45.0172195435 94.7553558350 137.1100006104
51.0706939697 92.1810226440 107.0301971436
57.6065940857 97.4716949463 141.7757873535
46.4882812500 92.4233703613 133.0959930420
48.5308685303 97.1829681396 141.0399932861
58.4688224792 86.7240295410 100.5899963379
49.6827239990 96.5201034546 96.4390029907
19.4316654205 99.2593536377 129.5404052734
65.7297515869 107.9100036621 112.3099975586
79.2542953491 115.9040756226 108.8623962402
25.8614025116 88.8399963379 131.9987945557
70.3332748413 111.2881011963 110.7939987183
55.3640022278 92.2522048950 142.5100097656
56.8299942017 96.6652374268 143.7574005127
38.9318695068 87.9375228882 132.9119873047
66.9982833862 91.6733703613 123.6959991455
77.9140014648 119.5622024536 110.3400039673
77.7840042114 129.0422058105 94.2700042725
63.1592597961 96.1892013550 121.7341995239
69.5879135132 110.0876235962 115.5770034790
82.1613998413 136.3300018311 92.8188018799
66.4436264038 98.8069763184 125.5895996094
78.2847824097 103.1353225708 113.0510025024
27.2817592621 101.4468078613 131.2510070801
54.8889503479 104.2281875610 104.5270004272
77.4727859497 123.7389907837 116.7861938477
50.6827888489 93.8189926147 105.3161926270
25.4497890472 83.7957153320 137.7118072510
44.1606941223 100.7210235596 102.4701995850
85.5863037109 119.0387039185 104.1949996948
75.6633834839 132.4398651123 104.6525955200
23.3059558868 94.0188064575 132.4268035889
86.3892135620 134.8175811768 92.4281997681
40.2946662903 88.7623519897 95.0899963379
52.6198043823 102.6467514038 104.8399963379
79.4252853394 130.3569335938 96.0040054321
42.0288238525 88.4340286255 95.6499938965
57.1188240051 92.3740234375 119.4799957275
28.9821357727 85.2969360352 136.4832000732
43.3716659546 100.7493591309 141.1304016113
41.9767684937 94.1920166016 134.3946075439
56.6097564697 89.6900024414 112.8699951172
57.8118705750 86.6375274658 99.5620040894
78.5727233887 109.8600997925 114.6090011597
89.0402984619 121.9798431396 106.4250030518
44.5759544373 107.4288024902 104.9067993164
46.6797904968 105.5957183838 105.5918045044
78.5966796875 119.4300003052 106.5019989014
63.4697914124 93.0057144165 121.3818054199
56.7540779114 107.9028396606 112.2099990845
89.0402984619 121.9798431396 106.4250030518
53.4414024353 89.5800018311 97.7188034058
85.9313964844 121.3700027466 102.7188034058
33.6236228943 93.6669769287 132.6996002197
49.1397895813 92.6257171631 142.8417968750
65.2655868530 105.2059173584 114.0489959717
74.8840026855 105.9522094727 111.5000000000
45.0633850098 100.3398742676 103.5525970459
65.2547836304 110.8053207397 111.4810028076
45.0197563171 92.5400009155 95.2799987793
57.4438056946 90.1372070312 110.0411987305
55.2398033142 101.2567520142 111.3199996948
84.3647842407 133.4953155518 91.6610031128
85.4397583008 141.2200012207 88.4899978638
44.1589469910 90.5181884766 92.4669952393
80.7733840942 139.7898712158 90.6426010132
43.9327888489 105.2489929199 103.9761962891
51.0336227417 103.4269790649 109.2496032715
44.1416893005 89.8273696899 92.6200027466
17.8814029694 97.1699981689 126.8188018799
16.2840785980 96.6028442383 133.7500000000
46.3642959595 94.6940765381 96.7824020386
48.8867073059 96.0297241211 98.2500000000
62.8239631653 94.2200012207 125.9038009644
63.5279121399 87.3576202393 140.6369934082
52.8272209167 108.6153564453 106.7799987793
46.8219299316 92.8689880371 97.2180023193
64.7021331787 93.0469360352 114.8832015991
77.6966781616 113.5500030518 109.3320007324
57.3386039734 97.2656097412 137.9476013184
39.8082809448 91.1433715820 135.9160003662
47.6988220215 101.1640243530 102.5199966431
67.3252868652 92.3569183350 127.2040023804
49.3038139343 92.8884811401 140.5513916016
71.0299987793 94.7708435059 127.6800003052
14.9986038208 95.4656143188 133.3475952148
52.2447814941 104.6053237915 109.1009979248
86.5840759277 139.7428436279 95.1300048828
58.0707168579 95.4666442871 114.3059997559
72.4882583618 118.3973083496 113.8509979248
58.1692581177 108.5592041016 110.5041961670
39.4847831726 100.0353240967 92.9909973145
85.2917633057 146.7468109131 84.8109970093
58.7440795898 92.6628417969 141.0699920654
85.3522033691 132.3698730469 95.9899978638
71.7440795898 106.2128448486 114.5800018311
23.6486034393 95.4056091309 135.2875976562
85.3816909790 131.0373687744 100.1500015259
60.9404754639 91.3569412231 139.7173919678
87.5713958740 130.9499969482 103.7188034058
30.4888229370 86.3440246582 134.9799957275
56.7451438904 95.5299987793 133.0130004883
52.1340789795 103.2828445435 115.0900039673
85.2374267578 142.2798614502 89.3300018311
79.7308654785 144.0329742432 85.7400054932
66.4927902222 93.6889953613 130.6561889648
78.3242950439 106.6540756226 109.2824020386
82.6846618652 124.6223526001 110.0500030518
81.3691253662 135.4058685303 97.9039993286
45.8355865479 91.8159179688 102.2890014648
48.0591239929 93.6658630371 102.5240020752
37.9117622375 102.3368072510 95.2910003662
82.6474227905 141.5198669434 92.2099990845
67.2940063477 93.7422027588 113.4300003052
84.3257598877 140.6759033203 84.6130065918
38.2289695740 88.4592666626 130.9290008545
41.4039649963 94.8700027466 134.3538055420
66.6522064209 104.0498733521 112.1899948120
74.8392105103 106.1475982666 111.4581985474
56.8488235474 102.6940231323 113.6399993896
79.7133865356 148.0198669434 87.5326004028
53.4736251831 97.0069808960 144.8995971680
77.2133865356 117.6598739624 108.8926010132
78.8140029907 129.4721984863 92.8800048828
83.3967666626 136.6020050049 92.0446014404
48.0388221741 101.0540237427 100.2399978638
71.9640045166 114.4422073364 108.4000015259
69.5136489868 108.3778228760 111.0940017700
66.1057586670 96.8459014893 127.5230026245
27.2638072968 94.4772033691 136.3811950684
64.4721374512 86.4769363403 137.3631896973
52.3219299316 86.0389862061 100.6879959106
63.4046669006 102.3923492432 123.5400009155
42.8727226257 104.3101043701 96.0490036011
88.7716903687 127.1073684692 107.0100021362
81.3691253662 135.4058685303 97.9039993286
17.2308673859 97.8429718018 129.0699920654
53.2374191284 97.5398712158 143.1000061035
81.7727890015 147.8690032959 87.9161987305
84.6049880981 131.3169250488 110.2254028320
38.8621368408 87.4969329834 130.8831939697
58.1016883850 93.0773696899 110.4800033569
66.2188262939 89.7140274048 129.4599914551
49.4197883606 90.4257125854 105.6218032837
51.8846664429 103.1723480225 106.8700027466
77.3867645264 118.6420211792 106.9746017456
48.8039627075 109.1800003052 99.6538009644
78.5616912842 103.7073669434 112.0100021362
68.3102951050 109.2198410034 116.5149993896
88.1837997437 141.6972045898 86.5011978149
59.6959533691 88.5988006592 135.2268066406
47.6434745789 104.5230484009 102.7060012817
48.2292098999 99.5375976562 102.0181961060
48.1004753113 93.5969390869 142.6373901367
56.2852935791 92.1669235229 143.3540039062
48.8587493896 93.6959915161 141.9685974121
53.1597557068 86.5400009155 99.7200012207
82.6113967896 131.6499938965 99.1888046265
60.4349861145 96.5069198608 115.3254013062
51.7892150879 93.1675949097 103.3981933594
47.7449874878 98.4869232178 98.4854049683
61.8092575073 98.4492034912 118.3641967773
84.1325836182 144.9900054932 83.3380050659
56.3621368408 102.0569305420 110.7931976318
82.8433837891 130.0198669434 110.9925994873
63.8188209534 103.7140274048 114.6100006104
82.7652893066 119.2969207764 111.9240036011
51.7867050171 93.8197250366 99.9700012207
47.5559539795 92.2988052368 95.3167953491
67.6667098999 97.1097259521 116.0599975586
44.8346633911 108.8623504639 104.9799957275
43.3797569275 99.4000015259 94.4300003052
51.2459564209 93.2588043213 144.1468048096
84.2082824707 136.8433837891 90.5559997559
77.4727859497 123.7389907837 116.7861938477
89.5327224731 133.2301025391 107.5690002441
71.3832702637 98.5581054688 125.9140014648
33.4186019897 92.5056076050 134.9676055908
40.9379119873 101.5976257324 99.7970046997
90.0240783691 131.6528472900 110.2300033569
56.2851409912 90.9499969482 105.5029983521
77.7282867432 130.7733764648 101.9860000610
65.5691299438 106.0658645630 114.3740005493
56.5616645813 96.0493545532 117.5503997803
55.2699966431 85.4808425903 101.6399993896
39.2972221375 92.9153518677 134.7300109863
67.9640045166 105.2322082520 110.9900054932
65.2338027954 94.1172027588 119.7312011719
66.6489715576 104.2892608643 121.9290008545
60.6731948853 105.6045761108 109.8580017090
72.8349914551 120.2469253540 111.4354019165
57.7788238525 88.6140289307 114.8299942017
54.0664672852 92.0512313843 143.8700103760
58.6089706421 99.9992599487 134.8589935303
91.0602951050 129.3098297119 109.6650009155
66.4482879639 84.7933731079 128.4459991455
40.4286041260 98.5956115723 141.0375976562
54.4316902161 103.6773681641 106.5900039673
59.6140022278 101.9122085571 110.9400024414
58.6239624023 108.2900009155 108.7338027954
68.7272186279 88.8553543091 131.4199981689
65.1799926758 100.9952392578 119.8774032593
81.2046585083 136.2623443604 95.3700027466
68.6488189697 101.9740295410 122.9199981689
48.3014030457 102.3399963379 95.1088027954
49.6186027527 90.9356079102 103.3575973511
43.9906921387 92.6010208130 102.0102005005
82.2746582031 138.0723571777 91.2500000000
68.3040084839 85.2522048950 131.3800048828
44.3532752991 103.0181045532 94.7040023804
40.3221359253 92.7669372559 140.6431884766
55.7818717957 92.9575271606 145.6819915771
54.4152908325 100.7569198608 113.3540039062
55.6208686829 93.7929687500 119.7600021362
80.1899948120 146.9352264404 83.8774032593
85.3433837891 130.4698638916 110.6426010132
68.7599945068 93.0752410889 112.6773986816
28.0599918365 86.9152374268 131.8773956299
79.9046630859 141.1823425293 86.1800003052
48.0427894592 97.0389938354 99.6361999512
87.0982818604 139.3633880615 83.3259963989
65.6399917603 93.6452407837 132.5273895264
88.0052871704 120.9769210815 106.3339996338
56.4838066101 107.3172073364 112.4812011719
47.0482826233 101.1833724976 98.7259979248
54.8914031982 92.2099990845 113.4888000488
67.5233001709 105.9226989746 114.7379989624
81.8567123413 144.6297302246 88.6599960327
25.2874221802 90.2798690796 132.9199981689
77.3263092041 103.1587066650 110.9950027466
84.1388244629 140.5840301514 98.2699966431
37.8636245728 102.4069824219 96.5696029663
78.5532760620 110.0481033325 111.7939987183
35.1436233521 93.8569793701 141.3495941162
51.3397903442 107.0757141113 111.9018020630
48.4608688354 108.2529754639 110.0100021362
49.2659530640 107.0388031006 104.5467987061
18.2133865356 96.8798751831 133.0626068115
46.8272209167 109.4653549194 99.5099945068
86.2488250732 118.7040252686 105.9199981689
68.0652923584 90.6869201660 116.1840057373
60.1099929810 90.5852432251 105.8174057007
45.6446647644 96.1723480225 138.9199981689
50.1797561646 109.1299972534 106.6899948120
24.5957622528 86.5359039307 134.9329986572
66.4816589355 104.7893524170 122.9503936768
42.7149887085 96.6369247437 136.6553955078
41.1267700195 96.3220214844 135.5046081543
55.3767051697 91.4197235107 104.0099945068
44.9767074585 106.5397262573 99.0000000000
31.3621349335 88.9569320679 133.7231903076
29.0116653442 92.6793518066 135.1804046631
61.3838081360 104.9572067261 115.1111984253
90.3589706421 144.7992706299 84.0890045166
48.4714012146 93.5100021362 93.0487976074
81.1408691406 133.3429718018 97.6300048828
79.9667129517 125.4097290039 111.1100006104
42.3333854675 107.8398742676 103.0825958252
43.4384613037 94.3962783813 134.5997924805
55.2699966431 85.4808425903 101.6399993896
43.7833862305 93.7598724365 102.6725997925
61.9074211121 97.0698699951 115.3199996948
47.8988227844 105.2940292358 104.1199951172
42.5067672729 108.8220214844 101.1645965576
46.6707191467 105.2766418457 99.5260009766
49.4146652222 103.6323471069 108.4700012207
15.0174207687 94.2398681641 130.1600036621
69.5172195435 88.4153518677 129.9199981689
68.6488189697 101.9740295410 122.9199981689
53.2552909851 99.9669189453 111.0640029907
82.0597534180 135.6799926758 92.8699951172
45.0982551575 96.0773086548 135.0910034180
67.5252914429 85.0069198608 130.7140045166
39.7736244202 103.7569808960 95.1696014404
56.4016876221 89.8873672485 103.4499969482
65.2765960693 95.1716918945 128.4357910156
46.7519302368 92.4089889526 136.9280090332
82.5532760620 134.8280944824 91.9039993286
53.2698059082 91.3167572021 144.7299957275
44.8816642761 101.2293548584 98.5103988647
43.8574180603 95.0698699951 133.9100036621
73.1897583008 115.2500000000 107.6599960327
51.7572212219 92.6153564453 96.3199996948
44.0674209595 108.7198715210 103.4300003052
40.4286041260 98.5956115723 141.0375976562
82.0740814209 143.5728454590 89.5000000000
82.6586074829 140.2456207275 94.4976043701
63.3908691406 94.3529739380 119.7300033569
43.4389686584 103.4192657471 94.0190048218
70.7497940063 117.4557189941 111.0518035889
55.6840019226 91.9222030640 140.8700103760
68.1240768433 108.8128433228 116.2799987793
34.7340774536 87.9528427124 135.5399932861
64.4327850342 94.5389938354 129.3562011719
37.0063018799 85.7287063599 131.3350067139
22.8116893768 93.8873672485 129.0099945068
47.7639999390 99.8022079468 96.1100006104
26.7594013214 89.7725372314 139.1139984131
56.9272193909 108.3453521729 109.9699935913
60.1572189331 104.5553512573 115.5000000000
65.9392089844 94.6575927734 132.6681976318
79.4946594238 142.9423522949 84.9000015259
84.1388244629 140.5840301514 98.2699966431
63.8040809631 103.3628387451 114.5800018311
80.1839599609 117.6200027466 105.9038009644
69.0425872803 96.5999984741 124.3479995728
45.2320632935 90.2903823853 99.5070037842
55.2759552002 96.8087997437 135.7068023682
58.9438056946 92.9572067261 116.4311981201
47.5738067627 103.4272079468 103.3012008667
89.6940765381 127.8828430176 106.9400024414
50.9682807922 88.4233703613 100.6359939575
50.8136253357 103.9269790649 111.4496002197
40.0938072205 101.0672073364 99.2911987305
52.1208686829 104.2629699707 107.7100067139
82.8433837891 143.4098663330 94.0026016235
35.1563034058 86.1487045288 128.1549987793
54.9433860779 96.5398712158 141.4026031494
64.2259521484 110.6588058472 113.4667968750
46.2920646667 105.4580535889 108.0019989014
50.3622016907 92.7198715210 139.3300018311
82.1916885376 120.7073669434 107.9300003052
57.7799949646 91.5252380371 110.0874023438
83.4633026123 133.9026947021 103.7980041504
61.8984603882 95.7762756348 112.0898056030
52.1840019226 92.1522064209 146.9799957275
48.6597557068 111.5299987793 97.2099990845
37.8636245728 102.4069824219 96.5696029663
84.9482879639 138.8833770752 89.0359954834
61.6206932068 97.3810272217 120.4501953125
41.4039649963 94.8700027466 134.3538055420
42.9802894592 89.3098449707 93.6849975586
64.2399902344 88.4252395630 127.6774063110
85.7593994141 147.1825408936 86.1940002441
26.7467060089 100.0697250366 136.0800018311
83.4166793823 140.6000061035 87.4820022583
79.1572189331 115.6053543091 108.4499969482
56.5936241150 95.4569778442 111.7196044922
61.5922012329 101.8198699951 110.6099929810
80.2097549438 120.9499969482 106.8099975586
28.9316654205 101.3193588257 133.6404113770
89.1038055420 143.6571960449 87.1311950684
46.9492111206 92.9575958252 101.1381988525
69.2572174072 101.4453506470 120.3499984741
58.5159530640 100.9288024902 115.9267959595
88.6318740845 141.2275238037 94.7519989014
86.3472213745 129.6653594971 102.0499954224
52.2116889954 94.8573684692 93.6399993896
59.7559547424 99.9888000488 113.5968017578
51.3208656311 96.7529754639 144.4700012207
