204.1532884365 114.3590373610 239.6362553814
223.4712317337 142.8460366029 219.4351803761
196.2279982912 126.3494648933 240.2941777704
203.2751836424 104.6544909364 209.1083722490
210.3433720838 110.8532733981 237.8153310263
223.8094900225 99.9604913585 208.1336123956
217.2376093176 76.1091503164 254.3342389460
228.4161996236 70.2336477068 247.4712988422
231.9585374658 141.4367408172 209.8737214630
211.5445683334 133.0732290552 241.6026746057
238.7689140911 58.0810433078 246.8513449898
222.9862452932 79.4079746807 255.5555162598
211.3512465397 134.7319590608 220.2960772858
205.7601777596 106.7471779891 222.0803930943
198.1109940999 118.2068136498 237.8159161943
208.4400183031 108.5439121709 212.3029198866
217.6759764630 103.8785440157 220.2428038702
216.4745015388 85.0503727269 243.3455127830
224.5217387949 97.9203055883 216.3324173735
203.2845016275 93.3618468519 240.7526557998
213.4561210318 100.4816006646 239.4795656702
230.1108468170 55.6337628130 247.3443712095
200.6757321686 126.5423521886 236.8215947281
221.2241650841 102.4771391300 215.4891284506
216.7593328622 103.3161226099 213.2458583143
211.1060023227 136.8038532303 236.3074860156
205.3785317876 133.4506911875 241.3574479431
210.7823339907 135.8464293783 236.4106996222
203.2482151456 103.2871575974 209.2485640051
224.5756186400 71.8302603598 247.4349264321
207.2364591645 108.0832592258 228.1400510135
209.4580437991 104.6265934471 213.6047573947
216.2186892654 101.1991045611 210.2383775703
208.0377239697 109.0394515841 231.7923155663
235.1533261891 54.2479442535 244.1957862965
214.1978895470 104.8874592979 225.0975290720
222.8641047066 81.3846439511 254.3505015501
211.3860868233 103.2788287900 232.9982990520
213.9541978408 85.7711265016 250.1998970943
210.0681822064 101.7565071072 211.7158114271
211.2270393414 100.9418030689 205.4024855418
203.7291665181 104.5681905423 233.4827119786
226.3486100904 104.2756956465 217.0367948413
219.4686755280 100.0961321104 205.2829464197
209.0575590022 136.3980088187 239.1227816416
228.1854485600 62.5425406289 245.2545474427
220.4872144723 90.8687450557 251.8483662317
221.9084780842 74.0637014650 257.8525688340
202.6948339861 109.7050118751 242.7323195353
218.4546785021 139.1176309101 221.6031534951
222.5467823471 104.8135350041 208.0879889121
220.2719737280 76.3909764644 259.1624340459
205.0859836465 104.5919862876 216.8366588274
226.4898001198 76.9091146907 245.7090434426
212.3832786730 101.3624785866 234.9942013348
208.9528188273 112.0363053819 226.8790436716
201.1631070198 103.9978650815 211.3482175745
215.5526429942 135.6418819522 225.3820257464
210.4299066223 97.7427108405 234.0126471080
202.5097682672 109.7237000826 232.9481492631
210.1622384321 107.2259640517 239.6938743737
214.7900199647 100.6525540199 228.8070520621
220.2417308493 90.3991970718 243.9709367327
202.1364070076 111.7928156142 222.6786397679
206.4982167905 135.0790879927 240.2183839372
210.7831782121 122.9876887555 240.8825296329
217.7578132520 76.1901292806 258.4403801950
193.9032178249 118.9627754961 235.1669895667
219.5406162697 137.9926901654 232.5862463852
216.6948831345 102.1250011804 221.9111318255
212.2778069056 103.3054695298 227.2017428501
218.1814012360 99.9748339662 227.9621189584
195.9722025820 118.6671118300 240.2826294595
208.2680979929 107.5408596789 236.0154776126
229.2690568343 68.0728525288 246.1351335645
207.1091594745 107.7020469514 240.5848375495
219.1863396960 96.9871697719 210.1390335774
208.7982153924 106.5140106943 211.2178651642
213.3211439359 107.9281990343 207.5022703237
230.2646577240 63.7010914463 244.9984927752
193.2043315099 120.0810698589 238.4109979761
221.9404961644 98.5628711772 207.6604868137
214.7499936317 139.7148896234 229.7184419755
206.2711080553 135.2537520950 242.8575456632
214.1414514391 108.3514921965 224.9097612805
207.5502853283 115.0123209583 226.6921012750
238.9422963579 56.1225393772 242.8735005404
221.8644764867 79.6207936497 255.9203969993
199.8276977105 102.7296012109 230.2714124099
216.8158754161 141.4920837064 213.7805811899
234.2622495676 60.0006607332 241.6339936092
214.8256748486 102.4186567589 210.5242409553
228.8263828210 54.5495266149 243.6185777632
201.6481765274 119.5605930183 241.1104633364
212.5655107559 78.0696082621 250.7349559492
218.4818191507 104.3495563575 228.5461924383
218.8459593594 100.8474996483 211.1260414683
206.7537783391 111.0891682157 221.5598174119
211.1773434804 100.6440532182 236.4088948735
236.0091217012 59.7060689648 245.9591537756
221.1315850022 142.6484028269 214.1445668667
203.5292163461 93.4251039610 239.0812689534
231.1938364869 67.2806869963 251.7354870876
224.9812978290 103.6934002217 204.4354752921
208.5769278641 91.0561685232 243.3843355341
218.5060312035 142.6706786499 227.3394324759
221.1337513540 106.7425865644 224.7917833414
223.7414399088 106.4261168182 222.2712977513
222.3889926090 102.1799417166 218.7913767508
230.5370516017 144.3226844441 212.6095172901
225.8544326980 98.7730535928 215.1050773790
211.6498880884 79.4599323412 248.3577210483
198.1545347435 106.6211672885 231.0057284850
202.6627757103 102.9066008474 219.3163622813
214.6797720399 134.3761119971 233.5115993614
223.5858259019 102.6402508443 221.6474447149
218.3555663106 145.8415393387 213.3411747467
210.6519335663 107.9365281136 240.4532331569
216.7287368278 134.0394675361 230.4106846029
217.3657724198 134.1079861662 228.5304173209
206.0077772141 103.7660036632 215.5164283588
224.4486894781 100.3602218609 212.3214501747
216.6575469070 140.4579434822 217.9501267423
221.0302800832 141.5875181488 219.0026738060
213.7578307231 104.5524489787 232.3064146801
231.5399317569 51.5530780170 248.5603426290
211.7737478028 98.2875004703 205.0789999951
226.8285485555 70.8414694512 246.2495649978
220.6096848992 84.5768085806 250.5729274262
226.9147383542 104.4958198382 213.7913334963
214.5010854315 132.8191090017 228.5892272667
201.1631070198 103.9978650815 211.3482175745
214.3887148759 108.1599483825 208.2967954489
206.8921260472 107.0989335733 229.3222289051
221.6985817610 103.1730086547 216.8854404293
227.6739105739 102.5876620233 213.1160654825
222.4501919482 100.2851626548 213.1829074264
219.3934945957 106.2853472116 219.8823456268
230.1582916247 144.6848676125 207.5761979560
195.1976591837 117.2320971311 239.6434746011
207.1091594745 107.7020469514 240.5848375495
214.1677111999 107.4699279027 222.3728418679
228.3589899605 65.8777287531 244.8414686809
214.9754522648 131.7403970219 230.6947968274
193.4428812819 120.0666936976 237.3848358067
225.0776237990 101.1298852343 205.3572734189
204.1752427912 103.3010511818 215.1450272459
203.1989133627 116.0755702870 238.9533542465
210.9700003367 133.5137384318 231.3091382889
227.3948482851 65.1539211445 244.1714116901
206.3099611346 136.4197246009 239.9338672043
220.0854643268 101.8274952794 209.6273525768
214.8440502653 131.8332789460 228.7140201512
215.9537973181 88.9783242278 239.6185168898
209.1504532437 99.3568590460 208.8569048407
226.6833355343 103.5368241923 215.5026909144
219.5406162697 137.9926901654 232.5862463852
234.9923235947 60.5962621076 246.1678141902
231.8015788519 65.2719325105 248.2523762164
203.7244964596 110.6317061891 231.8748579378
222.7929985938 98.3880424863 206.8185942263
219.0752564416 92.1645665391 241.1765070733
205.5541725200 131.9350957731 239.2925546068
213.2243412340 100.5373345111 239.0337837689
213.9231906565 140.3934104153 220.8133585236
203.1203655500 117.4538260705 238.7215785159
210.8945613085 136.6745457654 218.6249462183
225.5800606607 139.7335581302 211.6654199773
217.3494695416 98.9074462700 209.3204889612
219.7774936116 146.8200599849 218.7871373060
219.1414319099 101.8222693335 227.6873609541
214.0932623571 105.6469259128 231.5945288644
202.3237529840 119.1667945035 241.8334665189
235.9797719895 58.6359023207 241.3311975417
231.1938364869 67.2806869963 251.7354870876
211.1021612685 103.3822390496 232.8162461304
214.0977949899 83.0672386328 244.0042110703
202.3862656595 110.4114975283 239.3900141383
210.7575555074 106.1075531003 205.6969147243
209.9499729007 126.5096289698 237.8978162266
205.0813425307 110.9380946053 226.3366497194
220.3381623731 103.3451704547 215.3424885287
217.3755091677 75.2981062036 255.2175554558
206.0109588461 104.5345113601 209.2549905693
218.8092784315 107.7394223749 222.7920302278
222.5808080861 105.0544879784 206.9968976584
218.4382645139 104.0327808690 221.4029686506
234.3456505177 63.7205171945 249.4408332541
212.3272932883 135.0659059140 215.6131527023
209.8010672647 131.1834807653 241.1777564422
216.9699322481 99.8290676437 235.5717085628
222.6490231940 106.9814430617 218.3924299674
209.1885618775 133.3294242206 235.2705499857
215.5225495326 82.5135457461 247.9197920196
204.6520267195 107.1407672441 220.9473336738
225.8942318116 74.1761401163 251.8850086980
205.8807058239 105.0430705110 226.7034359131
207.5631653264 138.4597329562 241.0326350852
226.6062177321 95.3135816124 215.7197234944
224.9812978290 103.6934002217 204.4354752921
229.5054602191 60.2806420620 245.6557678541
207.2120512882 111.1147450498 232.5267327377
216.0246030689 133.5601542185 227.3426938464
211.2955779363 103.1447680786 200.1417250521
198.1643651745 118.3254782117 234.8599990274
236.0270734534 54.8427180434 248.0027876664
228.4228576087 141.0002557553 221.3610318672
231.8117545753 59.3203402188 244.4448336181
212.9377686515 86.2679389520 244.0815144552
208.5526719524 107.7104411316 222.9449762808
211.1141764985 102.0202998491 228.2141692055
216.8411157823 82.6286290723 246.0517783378
228.3034468146 137.5192526427 221.7554836558
231.2237640960 54.9649372445 249.1879983957
212.0002808894 105.5462934416 208.9929794635
206.3814538760 105.5669949058 239.1129184665
211.9699846417 108.0831733963 229.2314473282
229.3146462679 61.9324769881 252.6537359221
220.8032318727 72.7095719938 250.7632114151
210.8186761118 96.2828296719 208.4291942165
210.5459863089 105.9339267396 228.1346112926
211.9216619953 135.4267280700 240.9040247570
202.5878439699 109.1221960115 222.2428223658
212.0230736463 99.7902410116 231.4517360087
221.5517933749 140.5760943268 218.2731775623
210.1109822663 104.3410684751 219.8075329864
228.3865311062 77.0596268167 244.9478060854
231.8414552645 142.4662170385 211.2806962218
223.5011124735 102.1227328655 202.3680834550
218.3949162316 146.9852617467 218.8216830378
224.5164347653 104.6864798800 214.9088894195
213.4684948058 93.9567717093 240.1752228638
227.8836191252 144.8557727512 206.8574463933
220.1168592527 101.4227952356 225.8467604390
209.0827795339 126.9120547286 240.1306535779
221.9326187264 103.5264533770 208.8399944751
217.6252098867 96.4040361516 212.7289589716
196.6258557010 129.8226258593 240.5444346372
227.9214768835 139.2057498873 216.4659701185
202.2008583826 128.4150551712 241.6680887976
210.0993374181 130.5539682655 240.1557355015
216.0714909110 141.9102235714 230.6581487539
202.1045251522 107.6387596786 234.0421897660
217.8717902802 88.5180375063 247.5415971764
216.6859650524 133.7693488769 231.7245497895
216.9566345951 78.8867068183 255.0549560368
214.2064855920 77.5406448730 246.7733671118
218.9810225279 140.1602900830 218.1474822773
213.0321362800 136.5843897154 227.5644258096
203.2845016275 93.3618468519 240.7526557998
204.7705758251 106.5704411963 236.7450276475
202.1045251522 107.6387596786 234.0421897660
211.9998164032 133.4899804247 228.6740430182
202.5456469280 111.6126487615 221.0804330531
218.9933696453 101.1506448499 226.7389711197
206.8921260472 107.0989335733 229.3222289051
211.1056601347 111.0075102514 238.9754958067
208.1345570260 134.7208682837 244.8182243549
208.2539652349 90.0416316157 241.8149448776
218.2600573897 139.2389528393 217.1296323943
208.5118335787 100.7910446293 211.1164095723
214.0932623571 105.6469259128 231.5945288644
222.2496051861 99.6029239252 217.1083087692
206.1936607159 102.1518139935 219.9275886367
230.5479064195 52.1268290625 246.7101249501
220.3009534125 77.9928580664 251.6494818307
221.9018741195 101.0750292509 217.5264506824
226.4013017604 76.6446159665 249.3884507729
218.3492695726 97.7415509665 238.8760701069
213.3161469177 101.5479981232 235.4936206551
232.3758654806 145.0926511453 211.4845262208
218.4654209604 143.5455111682 220.3072830884
217.8943590259 144.6318604861 217.5756980880
228.2708700694 137.0427673778 210.8797409751
233.8001235573 55.3896433658 248.9299908352
218.1067977986 78.5496666739 255.1978503759
231.6449852792 65.9890732684 250.3239041355
213.3493198587 105.9956546728 232.5358113056
219.4260745899 77.6524660012 251.7753042339
208.5472787781 126.5384057507 237.7574139226
214.1709258960 78.6736958124 254.3840836628
218.4995268099 103.9070947237 219.2828341325
220.7593380228 101.6038201248 204.3322816978
215.9248387625 75.6612390410 250.3322954165
212.3083991965 96.8126192970 239.2386822422
208.5472787781 126.5384057507 237.7574139226
209.6754408363 108.0476472499 206.9609705106
226.9147383542 104.4958198382 213.7913334963
212.4758043505 134.0339182261 240.4111298273
209.1689379921 106.7088534221 220.6454563164
210.6343631456 100.5419466742 236.9305637852
211.3512465397 134.7319590608 220.2960772858
218.8058932099 99.9933995209 222.2768804531
207.6848500587 107.3150063633 212.4198673025
222.1204132769 99.6605843000 211.5625663517
208.4716317923 109.2898701873 220.8013781502
221.6474385858 75.0036383556 249.0418882315
220.9902928109 73.4441518303 249.4307076325
218.7202036553 70.7927873632 255.6334579459
202.7126747208 121.3574724744 235.9560855222
201.1758660720 112.6451140739 233.9804863683
203.0922513978 125.6851687192 241.5207376814
201.9525002767 103.8579433548 209.3967631842
209.2836954706 139.6816376614 242.2442815777
220.7768869647 99.0006742077 216.1625930931
225.3347377359 136.7660197495 221.1538017237
231.7053775212 59.1548687942 248.8849115349
230.1165748584 75.2047485592 246.7042425110
216.3965383024 110.0760580202 224.7288908797
224.4837202303 100.0330010659 206.1435357824
230.4835683560 76.1398516976 249.2192139575
216.9256767771 99.8273207341 215.8557840516
203.0321723230 108.1913957892 232.9539626301
208.1373498193 92.1360769019 238.1339532753
202.2824497125 121.6640985815 242.0342640818
213.3907761657 103.8193187641 232.8409117440
226.5098730330 143.3407243317 208.6963080735
215.0859724365 134.9565168717 225.5920137526
208.7399432959 126.6700236586 238.5401828721
216.2984669960 75.3102523401 254.2867156278
224.0997940752 102.9901199995 223.8868595095
202.7487550807 110.1248003724 237.1188127152
211.3629156213 137.0609978048 241.2126203308
202.4300098203 103.6174597885 209.3227001840
217.8866944061 88.5337511136 251.9763117452
214.2458091757 99.6659336600 232.9549827321
215.9016505565 82.1742626634 248.7412305619
205.3198007108 94.5945025187 244.0513668154
230.0379513824 55.0402938132 243.1650759340
227.0178240346 72.2048304810 245.1755215982
216.4298464273 77.8969740840 247.4310786832
213.4684289564 141.6289652878 228.3365585571
217.7664806944 136.2134687172 219.4002034665
226.0685123213 136.7613326157 218.2022111390
209.7728242519 88.2532864681 243.4374517965
205.8012399463 106.7188589924 237.6306603451
214.1538755044 138.5726838297 234.0082702903
211.8529600685 108.8709226314 239.0188159298
205.3552800701 104.5544333495 215.6254301988
221.7791974902 76.1557937915 256.5771915925
199.3012010445 119.2503978516 234.8426788714
223.9525518803 70.6931649170 250.3518830299
219.5225707323 100.5226600142 229.1498375977
216.8471001358 87.2319774577 245.2469900953
219.2281354760 105.8869479541 222.1307375432
204.2845557084 125.2417576329 237.6385029821
207.1696177569 107.7756870439 229.5613716096
207.2412033187 93.5620535148 238.0396152912
221.1996145413 76.9436151538 258.0742035722
215.4058478614 144.8655223164 226.7935515752
206.8560798315 127.3241000790 237.8397436771
219.4178781099 90.3612097054 252.0489165470
211.1787298608 108.7984129239 241.0088925430
200.4108963845 103.4025665739 230.7064634816
214.5275472966 102.2420377439 237.2769491851
218.9153871384 99.7520628434 209.3989250119
208.4677878451 106.3030325901 218.6485608691
212.1157352261 95.8807045537 236.5404546531
204.9234383418 124.2340971662 240.0422554390
232.3327418745 62.6212579519 243.6620990464
228.5062211942 97.4432373875 215.1632914240
228.9966134716 138.4165462522 208.9236128535
213.3151533076 100.2639313831 199.8738619425
217.9362627702 92.6356680311 241.3169208305
225.2258724082 98.3996248058 219.4004129651
208.8183320732 134.0757688426 234.9928165878
232.9449910712 145.0485883839 209.0796909331
229.4789635569 54.9846192479 247.6800511893
217.7187037642 140.4681235397 230.3201226908
212.0230736463 99.7902410116 231.4517360087
214.1364013059 83.6923670915 249.1221432714
236.4740984434 59.7560855857 244.5866830475
218.9498018228 100.0706897034 208.1581621564
226.0325364360 137.3679310130 217.2201772181
212.8845088274 102.9894050337 208.8129250783
212.8393396849 85.3794454387 246.8952167675
217.6055602752 102.2873717688 202.5288989427
219.9086578955 83.4923616352 249.6660139806
226.1623345502 103.6220196748 219.9031045688
221.0184689864 145.2505588679 216.8636121557
196.4957541071 117.2774979560 235.9806082579
219.8337490660 72.1901220420 257.2572198261
214.8459514942 102.5893477913 237.4150037067
208.0544495528 128.1126311989 242.1695855492
208.0666022822 100.3800475526 209.7268257226
214.3463602629 142.6662785560 229.2905456077
211.6422899433 107.4194841757 208.5124239254
231.5967530848 64.3168193564 246.6856468662
213.7669928007 84.5782281750 250.9019001294
208.0025889057 102.6353950744 209.6711629448
203.4497820844 111.2092473178 238.0257261608
209.2039149461 96.7710631735 207.2799730988
208.5214072743 139.5274067080 241.0841216325
205.9973718292 125.1619970131 237.1877529837
220.0174659394 140.3628391747 215.5242639033
211.9271717005 104.8908788909 203.1504158490
218.0034878478 71.8649188197 253.8082447878
238.7139088239 56.3615874950 242.1097750729
218.1286645234 88.8739526158 242.1149989737
223.4604548340 68.6342380435 246.9227737597
212.4806884091 129.9686199534 228.9379040853
217.8866944061 88.5337511136 251.9763117452
209.4652229090 95.4037734591 207.6307489658
196.6258557010 129.8226258593 240.5444346372
206.2244248062 103.0764879098 219.1161302848
225.0776237990 101.1298852343 205.3572734189
209.9232038923 129.2068043203 242.3827557104
218.1799354831 88.7913437316 243.1520943877
218.9623751957 136.1689599724 220.4706656937
219.0811750609 101.2597118998 225.5948870113
215.1785585111 90.6528298822 247.0007397641
219.0730458800 90.3608994399 247.9345014569
211.8205067889 105.3766147939 204.7225486467
206.9579038625 123.6976531108 240.4600971849
221.0746743565 84.6268200441 249.2004633734
227.4176740210 94.3612266000 217.0939480007
234.1544293055 65.4479502506 249.3113321152
215.4742427593 103.4644130883 232.0269642033
204.4324870190 112.2448265436 231.8115419047
210.6947472761 128.9262791180 233.6561245900
215.0195953389 140.9435353765 229.8775505719
219.0212588032 136.7332989620 230.1663837154
224.2183839970 65.9514660802 248.8923486051
206.7707263104 100.5250241086 209.6854643827
219.8294165394 72.7806318932 252.7978866275
221.9866170734 77.6441243792 257.1254117090
211.2006889792 130.6870191134 228.7186740805
207.7386590172 132.5009095125 243.5245918785
217.8051831553 105.8358314917 223.2232716118
211.9998164032 133.4899804247 228.6740430182
221.8409464237 104.2404428410 213.5795581346
221.4760628143 106.0597861855 206.7134354815
210.1868829913 108.5155144581 236.3863997047
208.6086120751 103.1057972257 219.2877655284
212.8623662431 130.3935766746 236.3004391357
220.9714127140 104.0302362281 214.1627069548
226.4592311463 70.9268106328 239.9489740132
207.7424303460 105.6581275617 231.2162983580
219.4316644922 106.2134175359 226.5968325387
235.9185094556 55.0269022942 245.0544972344
218.3183812353 104.4159763170 205.7366710732
225.4957326195 70.3062784432 243.4921292374
211.0751788130 138.1643527814 231.8104056240
219.9500957243 98.5263233684 220.3289617823
217.7520084673 133.2628998812 233.0057415614
215.4658170096 102.2402975569 239.7482987692
217.0832339639 142.7220743342 221.9287407189
226.0432822643 95.5652965086 218.0133882389
211.1787298608 108.7984129239 241.0088925430
221.2241650841 102.4771391300 215.4891284506
211.3860868233 103.2788287900 232.9982990520
215.0598590735 84.0647438728 243.4452638123
217.0653101980 99.5888669008 210.6895275967
205.1396810097 113.9650280914 239.1993110521
203.1950112422 102.6815039330 213.4466068010
204.4219409221 124.7941136625 241.9480165454
215.0178321391 100.4639864454 240.8292808348
214.8787307174 97.6963097119 235.4180305028
203.6508878855 110.8406858560 220.6875782718
226.6412384562 70.1501750304 247.7798119099
223.1315631882 69.9171216869 246.2737516616
198.6148712866 105.5172490870 228.7878822450
223.6399991792 107.1819506334 219.9006410279
229.8084701979 145.2155745513 212.8304767326
203.5508731144 105.9159173371 225.9599575089
227.4176740210 94.3612266000 217.0939480007
228.5283225831 55.0076662904 246.9779871554
215.8701621623 135.9591162600 225.4443973872
213.0279455832 138.4182373629 222.8051863956
216.6621811441 146.0296309768 218.1557431639
202.0001419450 109.0308709482 227.4331710895
213.7557615837 101.0015829084 205.3986572562
218.3489342539 99.8260166019 237.7678956330
208.8962119124 131.8681092202 237.7845380908
212.6659865858 137.0462786981 242.8492512870
235.1333784708 65.8478314017 250.1782819529
231.9096592809 60.0105165969 242.9397586284
214.1081047269 102.9970513160 226.5443625718
219.3906033820 78.5806693103 251.0973731473
217.6891267268 91.2898181312 247.5095671214
219.2721221133 108.8901471712 222.9819527067
228.1703885075 66.2356034491 243.8310938138
217.0904798428 84.8521891488 253.7384482771
230.7541333426 65.7401349907 251.7779871097
193.4963702412 118.3915267901 240.5160252974
199.0522796212 129.4400712276 239.4709541547
217.4013131467 102.0588794128 238.5455966037
206.8209234830 93.3746598851 237.4666833927
206.8917143684 89.9772667144 240.6659394810
231.6449852792 65.9890732684 250.3239041355
233.1211395826 53.9754487484 243.4901305819
198.1208558641 129.8399648837 236.7544813479
226.7920300644 77.9353348265 252.1881766741
229.4405096617 53.0580620833 247.4198099820
216.1915823718 147.3013843062 217.5195435795
217.4656363303 74.7071681128 250.9709383282
205.4929147546 108.2756120873 214.1274432684
218.0610378531 140.9044499209 224.9374788711
215.7683316466 132.5537705536 229.1682233862
205.6040311274 128.9631331627 238.0446794762
207.6848500587 107.3150063633 212.4198673025
207.7886601053 107.6518016733 234.6705922055
214.4782006906 144.3128862057 227.8817787112
213.3531650635 138.8571055898 230.0976451089
228.7551515301 99.2233344872 218.7675118344
228.6935777231 137.2265245512 211.0822719573
193.8661951489 117.8516705423 237.9530853436
211.3291686333 88.5484860950 242.6169069995
205.0144842956 114.7008104065 233.6745285579
222.8484748933 75.3114987313 248.4861770682
218.8864160565 83.6979483510 246.4337525933
213.5938933566 136.1874576481 215.1269257610
209.7043720602 110.0891844816 241.3114550814
214.8700861463 145.1060513814 216.5798355844
218.2284303709 105.9331185626 220.7883365093
219.5339074047 87.0916451821 251.6382808470
221.7537485768 75.5507999425 257.5813029032
219.2816145898 99.3615522739 206.6154502023
213.8534601626 101.9048088865 206.6190010070
222.6869538967 75.1287664107 254.8148442632
203.0660730470 118.2253874550 237.6428038800
223.8094900225 99.9604913585 208.1336123956
230.2646577240 63.7010914463 244.9984927752
211.1521559451 75.6500303031 249.9591321899
212.6356514087 135.1197838964 215.0754392137
211.4261066570 93.3601750873 238.0889542502
216.0283852600 102.0715973445 231.5340644384
215.6157010445 104.0832513729 231.0987616893
227.6074516626 67.0553781963 240.9882584254
229.8369831925 139.6940384234 215.7317909286
215.5618251054 110.1260252871 223.9248742601
230.7749328381 139.4901098183 213.4283550523
225.3513776098 142.0661993057 214.2036573895
221.0870453069 72.1664063432 251.8801080887
201.3898502870 109.7737781724 236.0072501130
225.7804802536 104.1177199109 219.4467662682
211.5375925428 103.0181637095 212.1370604736
200.9643417339 98.8688884891 213.3354735631
193.2043315099 120.0810698589 238.4109979761
214.4468385410 88.4052291746 241.6118065425
212.6140366916 100.6495000944 200.5199751714
225.9349609983 72.5820689400 243.2546644211
225.5461687437 97.3395927968 215.8602832528
202.0747835727 106.9036344078 217.5972335341
207.0910540310 132.4035243195 237.7099963142
207.6346212187 126.4463830402 236.8579457860
218.9498018228 100.0706897034 208.1581621564
207.0075263943 98.4297428546 205.7580711203
218.5718048761 134.0009060275 233.9955771417
200.0781890018 121.7560115417 235.2201513074
205.6040311274 128.9631331627 238.0446794762
217.1854041764 135.6179106582 215.7720878581
205.9620715615 106.2497306871 233.2905684921
217.3913148953 140.9218488274 224.9384108183
228.8066952495 63.4750807321 252.2678250806
216.0283852600 102.0715973445 231.5340644384
208.9107800319 90.9285637202 239.9619552821
202.1045251522 107.6387596786 234.0421897660
218.9623751957 136.1689599724 220.4706656937
204.8400610032 124.3756671344 238.8691460592
216.0226581696 89.6404619613 245.3199057820
228.6935777231 137.2265245512 211.0822719573
210.3646474816 107.1518646042 233.3718165466
205.8018498699 131.2356721250 241.9256926130
218.1888771242 86.2341478583 245.1327301838
209.9854505459 97.1198988616 204.2001383249
207.0506491643 124.0543770681 242.7791570501
206.5815301043 91.1241037709 242.7024269824
218.8564554923 136.8822535842 235.7847239180
208.5019727489 105.7152607267 240.4001035176
231.0269436673 63.8553262532 246.1586599892
209.4880742897 96.0896425427 205.9109344632
192.8350939608 119.1033327434 237.2244812349
204.1665829198 112.3354822841 237.0801610439
217.7048282516 137.9718778525 229.4991186999
211.8205067889 105.3766147939 204.7225486467
205.9373891480 101.1454362286 221.7531230117
216.6452617659 109.1492981950 220.6175407780
208.0265896897 104.9767069310 229.8472597225
198.1545347435 106.6211672885 231.0057284850
206.2622477959 93.1621749425 237.1726621157
210.5602394843 129.2753229504 240.5024884284
234.3828283744 58.4654076462 247.7554339125
217.4276375196 87.7895056704 241.2080855282
203.2845016275 93.3618468519 240.7526557998
202.6627757103 102.9066008474 219.3163622813
212.5277950500 127.9227015584 232.7886100497
216.5973371709 82.1365309647 255.5599980814
223.5588001155 105.8909530544 217.7095452282
213.0321362800 136.5843897154 227.5644258096
202.3237529840 119.1667945035 241.8334665189
214.1704051404 137.5263382692 224.3917343935
222.1662093584 100.1093541831 214.6512051205
229.5442548141 138.8117665766 221.8087110427
219.5581769798 71.7154960067 254.7300231642
207.2412033187 93.5620535148 238.0396152912
215.4987542230 131.2948263565 233.6503778023
220.0787969742 81.4848274104 253.3003280429
207.4411143625 107.2124803000 218.5651911782
198.4717987513 106.7278124518 228.3620807611
202.8762646309 99.0357629367 210.6268547742
200.7139342407 104.5925903211 228.5478019442
210.9700003367 133.5137384318 231.3091382889
213.3581993501 85.2845120152 242.3608240334
215.8737728754 139.3162141683 217.3107335840
214.6391443330 92.2784950439 241.0432467384
218.0045311567 133.8844381028 229.8565409429
210.7571621719 138.8422201664 241.8817144765
213.4561210318 100.4816006646 239.4795656702
229.6410271511 68.9255040581 242.4386598487
229.7555266756 54.1729822337 243.6073558611
210.5908404394 136.4997645066 218.4014500388
215.5251454803 134.3543400096 231.0427532508
217.2444005245 140.1622613166 217.6488269469
227.0160843908 103.3366772384 216.2365946561
208.9353088501 93.2585238747 238.3621499050
213.0970503850 103.7048373307 198.2312715234
218.8058932099 99.9933995209 222.2768804531
198.8207737361 128.8683142654 241.2699402870
219.0705745716 133.3779891071 231.1377327149
230.0092432176 138.8617770169 220.4362482067
216.1649011119 88.5422097170 247.1312919153
232.9449910712 145.0485883839 209.0796909331
216.6452617659 109.1492981950 220.6175407780
214.7908225741 100.5532275565 201.3324921140
199.3554163972 125.6218262391 235.1535582848
214.3704648475 105.5054427811 221.2272850018
211.3331164789 131.6699972139 228.0265929635
212.0492692323 90.0253825185 240.4356991478
205.6040311274 128.9631331627 238.0446794762
226.2631423021 143.6258990030 216.8419890017
228.6931129287 67.0077752173 249.5797336080
207.3825605993 99.1029325822 203.9317646581
212.3272932883 135.0659059140 215.6131527023
213.9326029412 100.7645834205 198.6519614898
216.5597749589 73.9429626257 254.6374914947
222.4234490253 100.8506060010 209.4039072479
210.2594252196 136.7969190105 240.3971136001
195.9253515040 125.9721002809 240.4485910372
212.4218657689 108.7881114567 206.7453420341
216.3149339258 82.1374250034 255.3314001429
211.3568759029 103.0759928595 201.8637666082
236.8974586209 55.4267834453 245.9214470722
228.8960594040 78.4163897138 251.1453353420
210.3646474816 107.1518646042 233.3718165466
224.7457787673 100.0784191866 213.9207727756
214.1414514391 108.3514921965 224.9097612805
235.0215258265 57.5682244762 241.2797158616
210.3433720838 110.8532733981 237.8153310263
204.1270840016 92.4986482185 238.2431212715
224.2955824094 105.0333010745 221.7783979865
212.1259780274 103.0333281051 198.7105763440
222.1210309100 143.4811357571 216.1720202119
218.1620352106 101.5306277254 212.6608637077
229.3799663509 98.0380091312 218.9702952275
229.9771276814 63.0080497280 253.1600625704
202.7537736467 101.7135925086 213.5855778690
213.9353145105 105.2545099779 231.5857625555
215.1184617568 75.4300753379 249.6916585468
209.9613842817 90.0560584648 244.7819961713
214.1129169939 103.1879789866 232.8616920833
207.3455356702 97.9918314820 206.7178677037
237.6513454695 56.2245059721 246.0566500056
223.4712317337 142.8460366029 219.4351803761
203.0081305665 106.4671568903 233.7695606213
227.3638015617 136.8805731381 218.1666725021
218.7771525839 84.1118581456 250.2015238797
216.9126878736 133.5213173617 232.7472131834
219.8741795585 103.0012496638 218.5549396324
217.0863791396 101.3897119743 236.6266621123
210.7837891586 95.5188567853 205.7627352841
230.7240771918 136.4154115533 211.3971122670
209.0540239097 96.8868386670 207.7072969566
215.7674736621 90.5014569570 246.7326453624
209.1885618775 133.3294242206 235.2705499857
216.5973371709 82.1365309647 255.5599980814
200.8032371007 125.8919560593 241.8686008747
232.6825438550 64.5633839393 248.2743179469
226.5862850781 142.3160540231 216.0831158194
201.7887781274 128.5467247479 237.6822174045
200.5169062263 119.6260105574 234.9605559293
205.4202401650 94.2060949764 243.8504585552
220.8624850188 71.7191357938 255.3224368675
218.1426560764 104.1973719826 223.0235858854
227.7784777895 72.4148813863 250.4331723376
219.0163801773 139.0646262196 222.6415553358
211.3615441518 90.0402629089 245.9920792564
227.3775857741 73.6324675402 250.7348631687
213.9353145105 105.2545099779 231.5857625555
220.7768869647 99.0006742077 216.1625930931
216.7202005799 104.1108863093 231.3327298567
225.7040207150 101.1460929384 213.9722593228
231.7053775212 59.1548687942 248.8849115349
217.7578132520 76.1901292806 258.4403801950
229.7302937194 76.0588355690 251.4426029920
198.3201077159 117.4968550163 236.5110068267
209.1641342001 133.2306797263 236.8798336484
234.4677911044 61.7438479241 250.6458479639
215.5447013567 93.0246958326 240.9615545493
206.3240026193 123.8909404467 241.6568470012
234.4018095665 65.5461200435 252.7792351655
205.6905455005 133.9448450847 241.6411821822
217.9621469243 80.6953190719 254.9933692446
215.3613356442 94.3592836509 237.6566135852
222.0736945170 76.6378703965 251.2723560863
213.8650924894 131.4334042271 227.8470742444
222.2821137875 78.9286575095 252.4875182347
204.3737086064 123.7989363256 238.5180721051
216.3454409821 96.5311697888 235.7931821732
213.5647509610 135.0613584592 220.9087162396
222.0731191164 78.3525037478 255.9644837350
200.9752436863 114.3987858017 235.6007751410
209.3155092062 108.1906522422 216.4064731558
204.6855535445 109.6321810956 214.5042125331
219.5630384321 138.0950899213 234.0398680664
218.8754189706 99.2239889316 236.9104310249
198.9099266341 127.4254929580 242.1495094101
208.8313360302 110.4242719684 226.7115722569
209.7989269186 126.7157830414 240.1505975084
211.1777565189 105.8995192302 202.4967606696
231.6454981911 53.1475263619 244.8823195755
238.9422963579 56.1225393772 242.8735005404
198.2155719469 125.1942813896 241.5564737592
211.1141764985 102.0202998491 228.2141692055
202.9808723318 110.6719817242 228.3509139008
212.7023210873 74.8013236161 249.2254958970
206.0889682196 137.3695007754 241.1509321570
225.9241571730 99.5538629213 213.9632152038
210.3785496193 131.9387744998 242.0682324815
228.0551257590 68.2777040545 241.0341993588
218.4124012672 104.5318043763 221.5506735821
208.3343618643 138.5134019608 244.5279864998
207.8761044499 92.4921394332 238.2139083624
228.0551257590 68.2777040545 241.0341993588
224.1994897159 138.3715095957 218.0876905416
233.1904182078 60.0037858785 246.8201447054
223.3821094107 141.5749480208 219.2300945048
212.6961821324 90.7484905796 246.1652849315
205.4852013931 110.7900805197 228.6892280637
215.7153272115 86.9585284956 244.0207832303
207.2700831738 110.6847852516 238.2756184809
217.7578132520 76.1901292806 258.4403801950
214.0932623571 105.6469259128 231.5945288644
207.2944805042 90.2661348446 241.8930489380
218.5759022072 140.4316187471 227.7073797830
209.4640175332 106.3226337405 205.9999020454
202.2043757627 114.6820443633 243.4469912573
220.3026969689 101.6127486653 209.6428207581
198.4853465251 109.0200905475 230.6289640790
218.8764924520 102.0648674216 227.7942731846
208.9936360317 104.2042869995 228.0512011797
197.6609204066 129.6676303013 238.8917314414
228.8066952495 63.4750807321 252.2678250806
218.4124012672 104.5318043763 221.5506735821
216.7115864748 92.5287765825 240.5268886124
200.3854810797 103.1850861652 233.4287951013
211.8696768490 136.7518598048 229.7708623876
200.0781890018 121.7560115417 235.2201513074
217.5457463099 99.7215051878 239.9704912324
202.0779581750 98.5914744605 213.4439638419
221.6998420818 101.6360434320 202.8020412296
207.9886197228 100.1832856899 204.0897431650
215.2065866398 136.9028609634 234.6308138367
217.5816347159 143.2219597934 212.3893389096
203.7660870153 114.6644242443 244.7967015868
199.4889803175 121.9951381428 240.6983424989
208.2265953821 95.3782064896 243.8231455377
216.0714909110 141.9102235714 230.6581487539
231.3590664657 145.9828373652 211.6931830170
214.5870249977 102.3051105709 234.0027483315
218.8058932099 99.9933995209 222.2768804531
219.7419094231 100.2784213372 211.1436258929
214.6274611938 143.3435713960 225.4682823198
224.3887804609 103.2671184818 222.5155322672
224.2208911571 73.1545618777 251.5948064594
207.3307563508 108.4565211784 214.9200700363
207.6848500587 107.3150063633 212.4198673025
215.4420602362 134.5303429506 234.6717593067
207.9371696378 100.3224754792 204.4469519396
207.9073067037 115.2409657424 225.8100373970
216.5379438337 76.0098980311 250.9487366395
197.7028980181 129.8104738231 241.4752696300
207.3455356702 97.9918314820 206.7178677037
196.4987537906 121.8422437873 240.0881049638
215.6359946221 135.3474195476 221.2790140952
228.4579320615 137.7773482375 209.5472359757
220.3009534125 77.9928580664 251.6494818307
207.0583533710 115.9783923378 225.0213711677
208.5472787781 126.5384057507 237.7574139226
201.1758660720 112.6451140739 233.9804863683
203.0231936646 94.7291365663 240.4018799328
214.1960233379 144.3355356456 215.1436311094
219.0163801773 139.0646262196 222.6415553358
210.1622384321 107.2259640517 239.6938743737
212.9585926552 75.8077013811 247.3999615220
201.3657532544 110.1698594835 230.0637354149
226.3327410776 102.0398359752 211.9283468432
221.9145480860 103.1330243217 202.0611974531
218.7633985126 102.4308178291 229.8251056115
199.7261947836 125.9041080957 240.9377658819
219.7419094231 100.2784213372 211.1436258929
209.6958603089 129.3984500392 242.9297949224
227.8814063734 98.6285627436 214.9605080310
205.0278830070 95.2696265404 240.2444926249
221.3615629087 142.7651999606 213.2386579511
202.6421330906 116.4217734343 240.2018866868
232.9075989355 54.5778693995 249.0778929255
218.7353635549 78.0039006480 251.6255214056
225.3187526979 141.1008478445 211.3146441104
205.8434447479 109.3028114236 228.4259143986
229.7280519481 142.2971928392 207.6995484939
228.6946667185 140.2737678775 217.5850776581
224.1155915045 104.4746742847 221.5230218016
208.3495033056 134.5224177186 238.1080284727
223.1322470237 100.4064306893 209.2022317531
199.4228913014 112.6691440153 235.5173674615
208.9468445665 93.6628252989 235.2239836812
211.2500708071 138.6946615291 233.4909388154
203.9197519030 102.5409436944 219.5399665711
214.6805902668 102.1909464875 239.6633980567
210.8603412273 130.3858373416 235.6305165475
212.0889552060 101.9222290513 201.4966769561
230.5370516017 144.3226844441 212.6095172901
234.4018095665 65.5461200435 252.7792351655
208.1345570260 134.7208682837 244.8182243549
234.1380885770 57.4801766742 241.6856180407
219.0990693464 105.0259016561 218.1440044737
204.7755170400 123.5426094679 237.5484110112
224.9262694733 73.3061633373 252.2439777718
211.8060879051 89.0704266847 242.1679564986
211.1901075774 97.0732769086 204.6811184772
193.5352254282 119.5575013422 237.5923444049
214.0762815810 80.5135578455 252.3742213183
223.8094900225 99.9604913585 208.1336123956
216.2348566029 97.0347080663 214.3923759227
199.8235122758 105.5732929490 232.5806668877
222.5954519475 104.8631226785 217.1725247162
227.4128635501 144.1566963129 211.7735662510
210.0672008977 137.6317776625 241.3608146748
201.2155671464 122.2658480983 242.6387927732
217.8082979180 105.4341842178 209.4082728087
200.5854496999 100.8514637459 212.8268544204
201.1126105682 103.7553075345 220.0499985742
210.9126568782 105.4003905451 201.2674534987
233.3105769909 65.5282803932 248.8455415164
204.4903062289 120.4122388803 239.6783929303
218.8058932099 99.9933995209 222.2768804531
228.1246567537 63.8372762568 250.0065713256
229.2017052828 63.8251275416 250.9374144914
230.9672574653 137.3703663639 209.6648561329
229.0881592783 73.5754397077 247.7010544510
198.0757431800 122.7817278157 238.2381152863
207.5727615526 95.2182856183 242.7467203406
207.0328022331 130.0005746738 238.2734398097
207.0787440092 106.8622613153 220.2123794127
215.1241022798 78.4217563833 254.6835524904
223.0642381534 99.4531783726 204.8864576896
213.9988590782 139.5414926786 228.5722283000
217.7845527311 75.8469857070 256.8954120074
207.7512529252 111.1005306643 221.4421444125
208.3931433831 107.5299035559 232.7531008885
228.4341654498 95.9336754722 218.4089661700
208.8052607662 104.6645730809 218.4488751427
222.0736945170 76.6378703965 251.2723560863
215.1184617568 75.4300753379 249.6916585468
193.8661951489 117.8516705423 237.9530853436
209.3121388067 127.3132587867 240.4218118742
203.3997592593 130.2100118018 240.7646130036
215.9493923359 89.4883355541 246.0454845012
218.9185571664 99.3660458708 236.6935862049
218.4382645139 104.0327808690 221.4029686506
224.6882965915 66.0244102924 246.8084995921
204.0048312873 109.5713609223 227.2757837816
215.6157010445 104.0832513729 231.0987616893
200.6103404839 108.1005190401 227.7751861038
214.3607280612 144.0514594671 228.3929057956
225.7632024598 68.1103408645 250.1117225526
222.5827082919 74.1362111724 255.8624922210
209.5168265273 89.3841384977 244.4861615181
206.3378573913 94.9684280705 240.8672534253
217.2545176065 78.3942290223 254.1235540602
213.6808981700 91.2108171995 240.9917650583
228.8527212583 137.8513736712 214.3201886174
207.3455356702 97.9918314820 206.7178677037
224.1322842506 104.7730650420 222.0692449061
202.4261587465 106.2481131607 217.6155550143
214.1272160442 98.3934725795 232.2956347403
235.0215258265 57.5682244762 241.2797158616
212.3083991965 96.8126192970 239.2386822422
219.1094803795 133.6005309400 234.7448491193
229.4180558622 55.8114437892 243.8070391539
193.1814822368 119.3952028217 240.1308100451
210.4222760925 123.8531232993 242.8468303952
213.6098148294 129.4570085054 234.4045836850
207.6363237581 107.9787202253 232.7797817348
235.4760197831 57.8710140569 247.5674707908
212.5021061550 134.7817703679 220.3421874581
206.8977943292 102.6311332110 222.9955842283
211.5342869184 102.7631272911 204.0149461786
215.8063266582 104.1860656525 228.5686590288
208.4913242727 91.0632568872 242.0240196472
214.5091604197 92.4929131711 245.3756930578
226.6026335888 98.2802484086 219.3429066375
218.8233260495 141.0586808743 226.0976388164
212.2861903699 96.4923966519 236.0358796132
226.5454836931 141.7271506392 212.4334899072
213.8868461722 134.1256380979 237.1385038116
225.3513776098 142.0661993057 214.2036573895
217.2202023623 134.8821436623 218.4523425338
213.8705712924 99.0569097277 234.5953660609
209.8668579387 96.5625735918 239.1910790371
208.8194725176 105.6459814252 232.1471381861
212.9591990015 133.5730019872 238.2267309476
213.9041059025 102.2579117761 238.3985836045
211.4126844313 135.2645639302 243.8794662627
225.7303664181 75.0745760504 251.0728907294
213.7703865823 137.9013679024 226.9548070103
215.7839396517 106.8848056171 206.9241203920
203.2295323154 106.7217422044 226.2009498131
203.4413088906 121.0233369967 242.6281548277
196.9618105331 125.6610174366 236.2534571771
201.3994810560 129.4802770215 239.5578050780
208.0401224863 94.4130474269 245.2808056900
213.6201616403 134.6876546614 236.5804417450
215.3613356442 94.3592836509 237.6566135852
222.9960992889 102.2666754703 209.7779757322
229.0269337395 67.6352008895 242.2453365182
225.9209097922 70.4883870633 244.7659341717
212.6659865858 137.0462786981 242.8492512870
220.9853438665 72.8864660416 251.0893353873
217.5293768824 136.5769515319 227.6298510313
198.9186710558 112.7899772180 238.7377768862
199.0026317658 121.7878436931 234.8974585743
212.5787031454 136.3990184856 243.4139083869
206.3731275633 136.6880801446 239.7818935214
206.8815118181 94.5768882995 245.4010819800
213.6783283048 104.7629678451 198.7939864569
234.9928130603 57.3987981330 241.6099156578
219.9944010185 145.2494996933 217.3901354003
219.3774684048 139.6658710304 225.6047438867
195.8594479580 129.1075610490 240.8021849701
209.0801749859 106.0676376562 229.6460115578
217.4974952671 101.1146090022 235.7281641312
205.9791559121 131.0729483226 242.4448384479
216.6088505853 75.7774338155 254.2688018198
206.6586712140 102.4352154030 220.1615995727
211.2270393414 100.9418030689 205.4024855418
213.8650924894 131.4334042271 227.8470742444
217.0070244311 78.7998498725 247.9824176126
201.1826575345 109.9197158899 234.6682517623
214.7175055300 141.7113157861 221.3435579839
212.6532168287 108.3631534005 233.7627114596
200.6383541123 120.9493943513 235.5660890437
228.1340625582 71.5172533781 246.6271541754
214.2181642513 133.4024810941 229.9018669477
210.7219751512 92.8808579162 235.0209562250
210.5908404394 136.4997645066 218.4014500388
216.1451157088 106.7357801721 206.3556461439
229.8369831925 139.6940384234 215.7317909286
215.4175798631 98.0994258573 235.4883008834
207.6732503255 112.4999532065 227.9104813680
206.1838848463 128.1181408226 243.6027851758
212.6711993300 103.9724775012 210.2483824794
231.1075413694 65.3954686792 254.1436654384
206.8921260472 107.0989335733 229.3222289051
227.5506365983 78.9103989841 250.2165059102
220.0854643268 101.8274952794 209.6273525768
217.8895271674 139.6065282473 232.3873771274
218.8569125027 142.8193079657 213.4258153039
226.8306412394 98.4238197447 219.5860882417
227.8676350828 70.9720495540 251.3127423968
204.3568798226 106.3900728775 220.3863736383
231.4654264252 145.9266013708 207.7887009351
224.1322842506 104.7730650420 222.0692449061
205.4623598508 124.8258503262 241.1431112948
199.0910919447 115.2171882737 239.5367056689
226.8022651893 141.3577865386 222.3150850896
199.3026641392 127.8592576832 235.1311583114
209.3409961090 131.6986755977 231.2216085947
206.8470000956 123.1809607624 239.1318998064
238.7689140911 58.0810433078 246.8513449898
224.5217387949 97.9203055883 216.3324173735
227.4443875160 68.1193030672 250.1734369496
214.1708990443 94.2732877423 238.0492024395
222.5126339720 100.8870463482 213.6842868590
213.5448092079 101.2351315514 209.7425605306
228.8066952495 63.4750807321 252.2678250806
231.1962492694 141.2825098637 208.7135615177
206.3240026193 123.8909404467 241.6568470012
200.1479996896 110.3452077248 228.0487520361
216.9566345951 78.8867068183 255.0549560368
218.4720813741 82.5652309825 251.2905690208
211.0919954043 90.3249311090 240.1682789782
211.5505327583 96.0280396757 205.3585689460
214.8463348623 88.4271263908 248.9993055969
212.4738995578 124.6326591347 240.2074808593
228.6935777231 137.2265245512 211.0822719573
210.2064970085 90.3577800091 239.8137536695
206.5622231397 114.4396475523 227.3879738392
216.7174331102 73.2563094256 256.3321387795
227.3421917340 95.2249082372 217.7788669230
221.9084780842 74.0637014650 257.8525688340
223.1886845507 99.2920614835 206.1114744664
218.7502508794 102.9598409421 229.1665895193
198.8352098992 108.8824864227 227.9782135600
218.3613579227 85.6093015966 252.2475759535
226.8307630964 71.4702506445 246.5080253808
208.7399432959 126.6700236586 238.5401828721
208.8714514729 108.0910192901 223.2324144746
229.6995702057 76.3968070948 250.4306359706
220.2276527570 145.0815138328 217.1350827307
215.9537973181 88.9783242278 239.6185168898
216.7499819497 136.5845077825 223.3021648711
222.0485300794 104.0372735457 226.5960176786
213.8801769033 133.7919718594 231.3443260876
193.5352254282 119.5575013422 237.5923444049
215.1722526001 106.9348545283 231.0747960184
240.5397395296 57.6767452366 242.2356823712
223.6339231654 97.5270262919 218.7412355926
204.1752427912 103.3010511818 215.1450272459
225.9328926825 76.1575841352 248.3355177174
221.1337513540 106.7425865644 224.7917833414
202.0001419450 109.0308709482 227.4331710895
214.3379253563 139.5147388120 223.9003371673
215.5447013567 93.0246958326 240.9615545493
209.9608999794 106.6462449306 229.1984474432
210.6825921474 97.9177171697 239.7711429981
212.3794599302 132.7212077782 238.3871258253
217.9918912345 145.2548143332 226.6487851969
221.0480112124 138.6272148555 217.0891967459
216.8407912554 136.0254760996 219.3448508507
233.1211395826 53.9754487484 243.4901305819
215.1333299348 84.5025446326 242.1577965772
230.2126777673 65.0803538631 249.3415318339
211.6508376999 91.4354671785 237.8952736981
230.7013985394 64.2362182134 253.6398398390
220.8807442454 100.9508619005 209.3633063324
217.6141352774 81.2463378218 255.3513376668
209.4580437991 104.6265934471 213.6047573947
224.8793569338 72.1790170210 241.4662118278
218.0610378531 140.9044499209 224.9374788711
196.2383420997 127.1249878385 241.3108016793
209.6905948211 108.0608787448 235.8901542371
209.8193068107 107.3697442385 236.8253836326
201.2139636597 110.8593543504 232.3121085505
204.1752427912 103.3010511818 215.1450272459
206.1936607159 102.1518139935 219.9275886367
205.5047799125 103.8506854088 223.2814476134
230.5854768131 66.8342721243 246.8024001095
225.1138464793 104.4701256597 214.7534571133
230.6885794147 60.0450619371 249.0935719495
213.6201616403 134.6876546614 236.5804417450
207.2412033187 93.5620535148 238.0396152912
216.9685243924 102.2188649383 204.4091758950
227.3288306660 142.1674629384 215.0345475559
211.1395683158 108.2703677626 232.5374724120
212.7486717373 134.4114624699 231.8798311514
212.2913582799 82.9095675548 246.5633817381
217.6252098867 96.4040361516 212.7289589716
193.0521510711 120.7159303754 239.9197170230
206.2070698777 113.7434708143 221.8833029587
204.5133780046 116.2342659266 238.4357127292
206.9126264705 94.8629909838 240.4344103834
209.0955400936 107.9885919724 221.4858223091
212.0087477951 77.1782993339 247.5328346863
205.2840263162 104.9584663498 227.4804609955
196.3721661117 126.0575684826 237.4086531273
228.7626285100 73.2419020662 249.7834328786
202.5649925892 108.4363269279 223.9626368683
217.2849486394 99.0498102766 216.4930858892
219.2119303618 86.9211781179 251.7917918137
209.2907709264 124.4726139098 243.3823354591
218.5774440242 76.5162596689 259.1952913751
219.5339074047 87.0916451821 251.6382808470
214.1708990443 94.2732877423 238.0492024395
