205.2909125244 157.6783012730 223.9783211831
196.6644887755 145.4799093492 247.6044728087
213.8353502483 74.5022095047 259.9262491621
226.2357438055 81.2493604922 254.0297560492
220.3940571535 68.2589391004 253.1903496429
219.1592704215 83.9024559555 215.8866859711
212.8168626856 112.7607494683 223.3584755181
224.5088399067 68.0738001561 247.3543332224
195.0569279003 148.9521351884 228.8639707757
199.3093188197 154.3857052017 233.0634923805
219.6218731636 94.4698485752 214.5173056681
225.6223687744 71.0347548621 237.7471774771
211.7037256549 152.4528755073 211.6936615588
199.9790334534 152.3057050141 238.8474777856
202.0231561356 152.2268073706 224.2300980094
216.7824784285 140.2219940946 220.6703299340
218.6278944234 70.8219632438 233.7501617994
223.4822094980 65.6931743087 253.4015405126
215.8115009782 127.4355580305 219.5592485809
221.8245943387 73.3187444606 228.2973167790
201.3604561827 154.6377841416 225.2249015727
224.0960644964 90.1984979960 210.7342398631
221.9444211284 69.2679721712 239.2601017846
223.2635051173 65.0700514709 259.6836433612
199.9118167510 149.1946698903 229.6758085261
198.5323454531 151.5612893472 239.6018373152
218.6235166158 138.8875353737 223.3505010153
210.2735917455 145.9478567385 226.9317182080
228.1356975625 68.5481195944 241.5554011767
213.8788302893 72.7489346117 258.2145180488
228.5908286787 71.6768670995 235.3618757784
217.0119298666 68.9421824935 260.2666228505
216.2535434476 97.6890869257 219.8117126501
217.1759832660 90.4019381133 205.1248783071
214.3655559333 88.7668307517 205.7536943264
219.8867718398 92.8570546989 211.5640190397
227.5367708647 85.6300126570 212.5438167177
215.3573331733 114.2752383917 211.4119780521
221.8823448831 74.7910293163 226.7444561937
224.3339671762 79.9737098261 213.5729475833
204.9424447626 148.1284035861 224.1787153794
225.3350675232 81.1457933270 252.7658717701
221.5251959409 134.8386996867 222.0596884861
217.8794759944 92.9798388345 211.8314240231
218.8650553119 79.0225762906 265.1723446495
200.4603663917 150.8475228365 225.2447186197
220.0414193600 82.4172078019 223.3624212365
221.0483781945 72.3717105588 242.4721484477
198.3387996066 150.9609248251 240.1341002233
215.2087473058 100.0475556417 219.0448688032
222.1067320012 127.4532981273 218.6494396079
217.3567679242 100.9162264221 209.1019678734
215.1218594088 115.3364210053 215.8021462934
220.2077466300 78.1608160141 263.2978955715
221.1614191131 79.0806583347 244.2246926114
210.3484823307 140.7284465142 219.9617829761
212.7702319242 133.1251467446 217.7413830328
219.7953895461 70.5998536442 241.0917009594
223.9084461942 71.7262796519 240.3688331183
197.5191586801 150.4557472198 238.6453846671
216.0948785332 68.3288608334 247.4842404012
214.6100848644 78.6947848461 269.1721824130
220.2641558478 100.1425110843 215.5028671932
226.9145395848 67.5523593354 257.4517788271
217.3642202540 74.4455359488 269.6632456133
217.7309677292 61.4939888743 258.7754725388
223.5831256124 80.3636292688 210.7343958684
220.7591825810 65.4219593167 243.3371304127
215.8029079336 61.6990017042 262.7282555290
223.9398034758 77.1481620530 244.5057701783
204.5431326459 149.2061510470 238.8331685719
197.1165080611 147.6647920079 228.0743484328
203.2115293137 158.1343142818 225.1983066951
202.8427842559 152.0457612368 235.2053933045
218.1632132111 126.4884858164 219.6937111291
227.8428253894 70.9309415074 237.7529277145
215.3978219022 66.3439871856 251.9462527517
209.0508547558 144.1636779421 219.3649912712
219.8288054541 104.5568745202 218.2202463555
213.2085041165 101.0764815106 213.5008563387
213.4483731465 132.9510289219 220.1076511177
219.6155172935 139.8181816796 223.5381019686
202.9272229677 146.4191732212 243.5510649300
203.5839826424 149.2128467358 216.4010624919
226.8866356626 130.4328371912 222.5396509625
218.9993662653 69.9603437938 261.6043150786
219.8459668117 68.2097500010 252.5178810195
215.5580394422 103.1927255929 209.8563483163
218.7380435960 71.2316181933 237.4353784217
217.0633275180 99.7122409812 217.2791857669
201.8282246939 154.4787910710 226.0999511228
225.6284362422 64.0490696888 243.0468966869
221.3248261130 78.2535614675 243.4442281252
219.9864319365 68.6272048181 272.1180741744
212.9619951932 122.8036775982 217.7697287888
220.2049767951 75.9336439990 265.8806864598
220.2718870185 73.5717756304 246.7725715238
224.4384735261 81.8408816530 214.4468608883
225.4938749398 132.3118224633 226.3424365789
201.8420481703 143.0312009367 251.7078174843
218.7919015647 64.2750623759 258.2697453445
196.2399276663 149.2245487572 228.6964586078
215.5093788309 113.9577514691 215.8317005947
216.1472335854 138.7183376313 217.8983335289
205.0633703385 157.8937413404 223.6114514633
219.3826616832 96.4700997706 208.8056061588
225.6392703717 83.7806453564 252.5906923750
230.7270264352 66.0090919563 245.3843880178
203.7970484050 150.1379527451 212.4073036245
218.1671915927 64.6934078671 263.2097335051
219.0187522990 67.9183210600 245.4953391730
199.1988535809 146.8739499289 235.1385257946
219.0126617957 101.9284923109 221.3106561379
212.5123256588 147.6052167576 219.3542272197
218.8234728197 70.9659598765 269.2324122890
219.0916171292 70.7303114988 238.9091438586
226.8524900183 81.9490089820 258.7864373804
202.6676857802 148.3718668436 234.1073115060
221.5609452811 74.7729175670 259.2330773268
218.6915044398 78.4248292435 259.6110428016
210.5374854878 148.5283948826 213.1871208733
198.4752738093 146.5011846784 231.8679313045
209.3622273156 147.0073495659 221.4720719148
208.6223848616 144.6504760007 222.7533941002
212.5449493451 146.2025454609 221.5066302187
199.8536303505 141.6255293727 243.8060503966
224.9521925427 77.1177396842 251.2068863835
221.0902432765 110.7048708570 219.9630523609
194.3322601279 149.2456617095 245.3431531343
224.4964436709 69.0646987673 253.0434840521
215.0804849618 96.5138459657 208.6328299984
223.9523921648 70.6487657983 232.3852135379
224.4721561893 77.2172934005 222.5593381071
225.4699613959 66.9824576015 253.8271087381
225.6757437656 86.0270157260 209.9133233681
203.4362808441 154.3217553861 224.7652112493
211.9580081642 109.8951357467 214.9419227132
205.8064255380 150.2403192658 214.6590045904
220.5388882870 70.9021419769 233.5189347524
222.5857375983 120.3419417294 220.6346102958
216.5944070073 76.3172451107 255.4707868906
205.7354412389 144.1061081906 244.8628004422
220.9809223950 87.8875392542 214.0749591995
222.5222063535 82.3012069522 223.3688448764
200.8805414433 147.2005209210 221.8178980001
220.1086915155 80.6997088404 253.1705458662
221.8823448831 74.7910293163 226.7444561937
219.1403220460 101.5793766848 218.6947720869
218.8586978809 71.9770671197 236.6896901731
221.9000942522 69.8311552862 261.6277373625
213.8468414768 112.1883010352 211.5182641073
213.2085041165 101.0764815106 213.5008563387
220.1965349079 129.2834747777 215.3489666141
217.3567679242 100.9162264221 209.1019678734
213.4427383937 152.3227465492 216.6626842883
216.6326944638 132.0968337290 216.1382297673
205.1467723862 150.5921312699 215.3864418816
213.8418668574 143.1797347621 224.2906975419
206.3541700599 158.1513350826 226.5596530049
219.8442768568 64.4777024662 258.1458358168
223.5173926450 77.3438621091 219.8439694611
219.2800574764 91.4940781765 215.3951113115
221.1591459561 136.8222486810 216.1776110829
222.3137261840 65.8055469455 244.6562257460
216.5863385745 64.9390246634 261.4737969383
221.8990949971 66.6190994557 260.7540158966
217.7686903162 125.8469691376 216.1750871817
223.0252249255 83.4491330405 253.7157828552
212.5109165048 71.1840059808 256.2041901267
218.1771800052 72.5354220916 259.1114907422
216.3195909425 111.2167489093 210.7371290205
222.9410129225 82.6471070437 256.3359014291
216.0993065300 117.1415916349 220.4675171561
197.4190272408 148.1648724069 240.8707452475
221.4719061919 134.4410048694 219.3095719196
216.6491448505 65.8020496399 250.5290614186
218.4685304763 100.3582524356 209.9782947993
218.4616015318 68.7488750923 237.6734252664
197.2962552890 149.8212829161 242.3365085230
200.5187071500 144.8895678216 219.8042205673
221.1938882012 122.0178742785 214.5700637619
203.6997337942 146.2438441046 247.3097133872
219.2020162374 66.0858763587 243.4046964816
214.2404538023 141.6028798379 222.5897359545
200.6118489395 150.5587357182 240.0536716556
228.5908286787 71.6768670995 235.3618757784
223.2976896567 135.2284318484 225.2857548808
216.3418070957 138.9942173143 223.3445921275
222.9748333386 70.4679861710 248.6416938083
218.2749404767 107.2716013873 215.8794106742
223.4864152437 120.4455086251 221.8985020768
224.4150184788 83.1529710505 220.6440324123
209.9569529763 133.2520689565 220.4487177944
206.4245156480 150.5586896271 236.2740616649
225.2000505875 66.1209869103 256.4446586391
224.1141645426 72.3548760733 230.3688811833
215.2374548988 139.2275870366 218.7730811807
227.7977628159 131.7207057771 221.1816782903
221.7355918966 67.6902283251 240.8339835014
216.6764356548 111.4812530129 221.9772738329
221.5311192258 76.7024930917 221.3938684493
218.1671915927 64.6934078671 263.2097335051
221.0116130816 84.2925723861 224.3441742656
209.6967634666 136.1176285756 218.6727504616
215.9500905059 100.9795903781 217.4832477214
220.0872394330 100.1014792700 217.9001073254
205.9873688191 149.4404902761 215.6746010274
205.4691766431 148.1741026789 208.8792046975
222.2147923506 85.5154698836 217.2347576531
201.5930336979 153.3512499820 235.2021284743
198.7910374766 151.9978261583 220.5687891485
201.2289364474 151.4631876060 219.1384616252
219.2119160027 73.0528968270 256.8724795310
217.3671747165 64.5388522336 262.0060669684
212.8622931935 95.3381792797 211.2472819719
201.8869262448 146.5153898479 222.8306411446
220.5271501552 70.1480930466 250.0032311630
221.5411062273 80.7814830321 270.6705564673
201.4353374180 144.2676861906 244.1530368338
216.9382602520 126.3579825337 213.9081928611
224.2315237654 68.3442757512 237.2004443790
202.1955457694 144.5011883827 243.8998419557
203.4911047479 147.4744584344 213.1929902805
225.9490133345 73.8359395513 233.1244943218
211.9109142795 150.0581084344 219.7072338180
221.3138308262 128.7330880250 223.3029185375
225.2623487999 134.7975790454 224.1330786364
219.3369100745 72.9872940359 238.3175743401
214.9174250049 116.4270531856 215.7485043684
213.6709095695 133.2287136402 219.0052748137
216.0948785332 68.3288608334 247.4842404012
212.3738375621 111.0760392798 212.8442855560
217.0443031959 66.3488850509 249.5870326638
199.9822150763 144.1577774451 217.3135598453
219.4588772054 99.2132908769 218.8366410523
217.1952239611 74.3770188392 255.3033016464
219.6429754418 68.8617700247 234.4179307267
212.4975687936 91.4520319804 209.3957764158
222.9069893180 80.1074603931 257.9709818011
221.8004733229 77.6158252900 250.4742746580
200.8118104751 148.4627211750 246.5818541034
214.4131100383 79.7491478305 267.2952393635
200.5142240246 145.6128149381 251.8536779665
220.2896398827 74.4721342857 256.7919471644
220.1760134467 71.2745380732 245.2120385831
211.9580377772 113.8156334382 223.1828355026
220.9419031445 78.1930802799 251.6769649883
221.8451772686 66.3475036003 251.6976196681
217.4656226303 73.1169947069 254.4461448117
221.7919617829 135.0752793178 217.3838068284
220.6733691764 135.0712984675 217.5256709660
222.7318943114 80.3454411793 218.8007034571
211.1449867273 147.6218800766 223.8907431602
221.9846361588 133.2449731632 214.7515031046
217.9231616782 125.6075452924 221.4370171180
220.3549943240 70.5706741581 244.2393338555
218.0981593704 96.2329190218 208.1761727292
222.4431033327 78.3877974417 235.0325411413
220.1296053286 99.6852147115 216.7984110031
210.1636440484 143.9956161833 226.9417487262
221.0541022285 91.6309799172 216.2200146164
213.8816130796 104.5048907339 217.3348464923
219.7054835246 77.1054061809 227.6590033641
219.0126617957 101.9284923109 221.3106561379
210.8119975652 141.1553001253 222.4232161255
216.6661409199 100.9336105758 216.1270272662
224.4022683060 72.0291382713 233.0151496221
220.6371884023 120.3539452664 216.2734082335
214.7033904970 101.8172314424 215.7973713417
221.4603336458 89.1775818326 208.3389803898
200.5761520673 148.6754826537 217.9006876082
229.0525522612 68.0645686725 242.5782265713
223.3536342116 74.3104997493 228.6246748331
216.2771663354 144.5654270079 227.0517651446
215.8073117610 142.3213499979 226.4595153805
213.3491396096 121.1246934131 215.2523506667
217.7097802469 115.1046835032 215.9344478285
222.0255848628 71.0548947653 255.0721333318
217.9365143124 84.0842739028 224.8140243049
206.8554457600 150.1079319768 232.1552800152
200.6932088195 151.1055574118 227.3772965180
221.3922218506 73.0532532626 264.3540923560
215.7581083223 73.7943145995 261.7166884132
194.2317219349 149.5284395943 240.3101479679
209.8981583621 136.7434151687 223.9969068514
205.0633703385 157.8937413404 223.6114514633
213.7687334473 78.0245088345 263.2776490823
219.0486930418 70.3527720918 262.2664278641
220.9797159070 77.2901995509 232.9768164882
219.5831920697 92.7096482916 212.1528916956
208.8690489245 134.4883829279 221.5977637649
223.7691524647 71.1931428607 239.9801795244
213.3233033176 146.7194199026 222.3625565542
221.0840334604 121.3844152026 221.7310487604
216.6387980461 66.1591683717 267.4809830944
221.7591031445 91.3458909208 205.2589135868
225.3619358658 81.6750736357 219.8493676508
224.0884390725 79.7265534299 220.3748130855
215.8115009782 127.4355580305 219.5592485809
229.7125580180 81.3035780753 256.6831220509
197.5822665511 149.3097153332 220.7802932906
205.2218157760 144.2582222781 213.7565964125
200.7338602105 155.8477842887 224.8127015815
216.5751352961 112.2053357957 221.0274717064
209.9175858345 93.1591027121 205.2946151325
201.1520562232 156.8024667288 227.1416670814
214.3085222395 114.3159153498 215.9317571985
213.2893906669 125.2960726887 216.2864964602
213.6230302339 146.7604609947 214.6930150894
197.1091169196 152.6924070396 234.2729499884
211.2223995648 147.5249886830 213.5566916192
215.6167637850 101.4216484660 214.7629268099
212.8401858230 74.1446134373 263.4513434888
220.7377019679 77.3640782316 252.4889229597
228.3055855267 71.2713464629 237.0118923917
216.2320955392 63.9086981801 260.2172698362
220.1243769780 104.8260204090 214.9307483125
218.2576577792 69.2737504969 261.5781195065
222.7016202043 128.7765982213 220.9573135505
215.3573331733 114.2752383917 211.4119780521
205.3705100402 146.8100500830 235.0126184469
197.1300830245 149.7012723301 238.5998770779
224.8454098148 92.9654529235 213.4200404964
215.1739305275 97.7795271035 213.6108941010
225.8116591129 63.7408315043 241.8329743548
220.6560867741 65.8522908969 246.8077874740
222.1884306130 78.5498519847 234.5110399723
219.4806902437 72.2176935345 239.6876037179
220.4177276660 85.5484233159 211.0534032028
219.3826616832 96.4700997706 208.8056061588
200.6357481232 139.5730525428 247.0297106837
211.7941562169 147.9720369124 218.7308623923
219.6326790684 72.9876510855 256.5191010034
214.9066341156 142.2177831023 225.1956235996
205.4038196098 152.0303073227 216.0850143252
225.2765160878 82.5325775939 217.8954519034
218.0981593704 96.2329190218 208.1761727292
212.8248052447 123.9767127930 218.6300669158
208.1239353710 149.8135235838 218.2397846131
221.0477091510 77.5430705997 235.2516396714
222.4575057712 136.8466448498 216.6439231960
217.8830720234 65.9439298047 252.2605902729
216.7978705155 70.2530025323 268.3558382676
201.1520562232 156.8024667288 227.1416670814
228.6494461930 70.3516382662 235.5210417371
222.2673539762 68.6147041608 235.7323451694
215.9138317605 95.6128363553 207.0455819165
218.3802617571 78.2622733864 221.3428075373
215.1984513380 73.7650091787 263.7496283533
223.2805373470 75.4919082678 249.9358274678
219.9135290272 75.4617629911 224.1246651402
218.1632132111 126.4884858164 219.6937111291
221.5288092880 58.8761879983 261.9414534125
225.6243911833 74.7442300916 249.7109286633
221.7144422803 69.6207474183 243.8260026603
211.4802543661 80.1178052737 259.6572972833
215.4830666412 106.9603428039 216.7889813507
215.6194692750 108.5919692649 219.9017068535
219.4602168344 80.3972699373 269.6508805137
205.5816099949 155.0890273226 229.2044941817
219.7558894968 81.4280414293 255.3456795384
213.4293353762 153.7961490143 214.2139888914
221.8990949971 66.6190994557 260.7540158966
218.1048822505 73.6273675667 232.0799829483
199.6836414005 150.7442020453 245.8965486426
216.7128752944 78.7793365087 268.6481506446
221.9558826374 75.2816814681 258.1150043696
224.4933530942 79.7856826095 259.4916431742
195.4404385170 150.7880920893 241.8443711133
228.3425276104 70.6095869287 237.7248321244
222.3627861505 87.5020855807 211.1149798605
215.5140767000 70.1666787327 271.7498858893
217.7205144063 94.7120814230 213.2538084839
206.9717989216 149.2089377960 236.1291825267
218.9728671332 109.0129564471 215.3921064565
215.6194692750 108.5919692649 219.9017068535
219.1628395936 98.2068649535 212.8213871617
219.5186411308 78.8802626271 259.0097116990
195.0569279003 148.9521351884 228.8639707757
216.6764356548 111.4812530129 221.9772738329
206.5550099462 147.6203735965 219.5439873926
202.1862549702 152.4812500498 233.7639645919
215.7250882950 85.3163635384 221.2933506314
218.2992592405 111.7433623695 221.7186971560
225.5939419574 81.1258636910 228.7676384434
216.4338027993 108.3048876671 215.6347383878
196.4350703318 145.6963888835 244.7326880290
197.7925870730 151.4487163072 237.2954456668
222.0741139864 67.0965151771 260.5554963049
220.5038741465 76.6762828376 236.2915588989
203.9719592212 158.4408154012 226.8198035351
216.0054849279 144.9360012335 223.3647411960
220.1965349079 129.2834747777 215.3489666141
220.5130863944 85.3114930527 225.6582061048
213.9426796707 91.9840762259 205.6766193412
219.4137426785 127.3693710608 214.7918652855
196.3249211591 145.2867339338 241.0474714068
223.5646712483 65.5144162198 257.2244150703
210.1011364944 77.4017886317 263.3632704379
220.7202218639 75.4879658252 231.6574382992
219.9586427511 65.4104194717 271.4365961648
220.1514572983 77.1332931966 260.2159093199
218.6279912626 126.2395992484 223.0971973858
228.5908286787 71.6768670995 235.3618757784
226.0207176236 71.4889110480 257.5461168836
225.4703865243 78.0770917472 225.8125819567
213.8339022299 149.0901130088 212.9991323016
200.2449316572 147.8289174736 217.1916948750
214.9143842987 103.6541203533 215.2555180713
222.1502329040 124.4434790831 217.8507746434
220.0233078430 71.9092778360 257.2636702369
222.3756642055 64.2434817061 258.5734850943
223.6970795312 69.9054301676 239.3774830072
204.5847354589 151.1941062056 234.0955560668
223.4556304729 74.9311273419 225.1502871441
229.9208903947 67.2997715366 245.7084226062
206.6778920306 149.4337549778 210.4134319324
207.6642289369 144.8543945902 213.0495099348
201.5930336979 153.3512499820 235.2021284743
225.8408802449 79.3809057945 248.3903899701
213.9182165998 133.6678401013 221.0660665997
197.2596210026 143.1316986103 250.1422202436
201.3927015474 146.1751129419 220.0201128896
215.4314584837 91.7630025191 210.2767645452
215.8684710834 71.9974161675 234.2866193023
222.5069040676 74.6762289375 236.4191954501
197.4587036308 143.9998011386 250.5056040704
206.9717989216 149.2089377960 236.1291825267
215.3912485098 136.0507156637 217.5419787871
215.0388244856 75.0200505833 266.3458959106
200.4470810187 155.0333670569 226.2593464431
220.0029895195 120.1573815401 218.4021569921
219.8193444192 68.6911807356 234.2617838151
220.9445632376 79.8805642419 246.3573582257
208.6399931351 145.9804826985 218.4696089328
195.1555198553 149.3187881785 232.1624679802
223.8328959929 80.6833183470 219.5220095967
203.9069341458 148.6553619676 211.0953531233
215.1593017067 69.0993905256 270.9217041555
217.0837871390 143.9861237667 224.8198791672
221.9637633385 83.9611516188 229.3079702243
215.4593522555 135.3980300098 216.6449528014
201.0110592833 144.3450016542 242.8585198596
219.8956651601 86.5679559092 221.4865441022
219.1884803381 78.7063172027 224.8306363292
219.3010849282 128.6561023130 215.4472115831
227.0830755326 65.3172641609 245.0005061986
206.3541700599 158.1513350826 226.5596530049
220.0614277028 87.1423908453 222.5028223743
213.7902069113 96.0587323844 210.8442298774
217.1352350781 125.3036195492 215.7851359107
198.7138098313 141.4374356182 247.6564089417
204.5198601308 150.5133160028 210.5900519783
203.8189126625 148.1046429446 224.5465376895
203.2515450898 153.5036946130 232.5803903528
198.4398885008 148.6886823395 222.3052418354
204.9495444608 148.6739012465 229.5961052348
221.0824934794 71.5384314611 249.8981875555
219.6641809543 66.1878709358 248.9974550060
222.9267784532 79.5404153375 269.8856455218
213.4816371194 151.3709170310 210.8474677229
219.9387441758 75.0152088625 231.5359099713
220.1296053286 99.6852147115 216.7984110031
211.7098559805 94.7978233967 207.2339601610
225.1301508811 67.8459449752 240.3001335257
201.1451799858 147.2918196762 223.4460725125
217.5785043014 89.5823960618 208.9151912614
218.2992592405 111.7433623695 221.7186971560
219.0179730625 70.7251524034 231.4396172267
223.3985218302 86.1845302378 216.5352326696
200.4211842579 149.5410943509 245.8372882824
220.1488043502 80.7335208849 270.3315315886
226.3063757512 73.1335927288 237.8321574940
221.5916073916 78.1011027931 228.4911471304
206.9717989216 149.2089377960 236.1291825267
219.3599271473 66.7475609812 251.3832821469
220.1207479826 130.3059463280 216.2537604194
216.6003981710 116.9830427346 220.8056521334
212.9397291637 93.9650891482 205.6782107430
212.0508656943 100.9836423297 208.4336553931
220.0813644283 135.8071378636 220.4871471241
203.1083315657 146.7908792339 218.6148806092
201.3088653259 152.2393404498 228.1681937219
218.9517862033 69.1787287929 259.1731408163
221.7146775078 81.2391008953 253.3252855607
205.1726056313 145.8398480182 209.9679165184
223.8483670919 134.3292212177 220.6966709075
217.8417945143 114.8942582061 221.4207691680
224.3476688298 72.7752607399 258.5231888336
205.3203195777 146.8539726625 223.4223355498
214.9124804840 69.5452599123 267.8603620414
228.4043265560 73.0355165453 237.8375904308
221.5411062273 80.7814830321 270.6705564673
223.9398034758 77.1481620530 244.5057701783
210.4040188643 111.9257063728 221.1755157540
214.0184665960 90.9616046756 204.7718255359
193.7806530342 150.9739676780 232.0258784207
210.7512594867 112.5145243246 222.1068563336
225.6146267911 82.2924836045 228.9858115765
205.7934520410 152.4537587006 235.6297792122
218.4712647923 97.8189856788 219.0269958749
217.5496277464 118.3348206611 214.9887734796
207.8256115959 152.6842371770 226.9619527525
205.0770071279 152.2841904961 229.0721268412
218.7340787794 103.8001574602 213.0067003128
201.9578235693 145.6651354976 243.6319583952
220.6211930311 123.4517237944 217.5234165894
197.1404816667 147.9102831524 220.2751281904
224.7975907301 77.5776671527 224.9283433826
216.9478218850 72.7128315542 254.1992406437
213.4635639917 100.1257981869 219.8913573753
228.2270568102 66.4469132154 240.4479215678
216.7248436424 136.4568877417 215.9333905881
226.1193434489 67.2324302061 236.4005340708
200.9914843351 148.7813480150 240.5932779291
225.1301508811 67.8459449752 240.3001335257
220.2301487800 64.6058120841 258.0441203462
211.0622342594 136.2788795641 218.1979711015
219.7054835246 77.1054061809 227.6590033641
223.9847899148 84.0330723143 216.8001114553
219.7120473914 102.4708029982 217.2438749298
216.9506603959 94.6830434414 212.7403286907
215.8314066726 101.3328678029 214.8834621644
222.0438822788 127.6488943426 218.6463278620
216.2137254966 93.4604275959 205.7997273387
216.7124137870 85.3840192612 220.2417747798
222.2526749219 77.3267440077 235.8283785985
227.4932720726 71.6946796469 234.5406437250
201.2933997086 148.2317841834 244.5456151739
218.9132543742 77.4341388420 264.7853453345
218.3200590289 133.6159941703 213.4942527427
216.4051647572 84.1558656326 224.8100585215
216.2620884540 77.9482222537 259.8624069949
202.0424766769 153.2508506126 232.3939348755
215.5181471080 146.5316738660 216.4322612000
218.3424763305 88.0690177017 214.3983251959
215.9555260200 117.9111922037 219.0974859027
219.4397105693 72.5995414287 228.4403502546
219.3380845215 136.5563194350 221.6852332062
214.4986798598 97.5134269212 210.4525107726
217.5606260497 138.7181085675 217.4100636022
198.7902199443 141.3295525082 245.9199119634
225.2823032830 74.4085735150 234.0686199224
222.8142307831 81.6122441970 254.2576342502
205.2586219463 148.6655209435 237.7989517682
218.4296626497 105.0483822017 213.5405117670
201.4017471104 157.4291613270 224.2498450596
199.4696517527 145.8033946299 251.5812645544
211.2299603940 114.5675505622 217.1294474112
198.0248190645 154.1485243795 232.4340623631
216.1864651887 132.5271385659 218.0285604028
199.9808081433 151.9566749854 229.4460276200
216.6508119025 111.7397823426 220.8749544994
218.7325662879 132.3779460098 217.3736858412
218.8189061413 68.8932158583 257.2258323052
205.9486818053 147.7421610555 222.4858018230
226.0904481707 68.9448772003 241.1793076930
218.1264605431 98.3821995304 214.7672647464
213.9432440752 75.5746893566 258.6017274599
218.6827494963 97.9826752976 213.2280326270
222.5442731560 135.7312231174 214.3191409649
212.3002576454 76.0234113529 264.7844743962
218.7376925045 116.9547215931 215.9962132575
221.4374367488 68.3994814620 265.5149976278
216.9874687755 133.1641220710 216.9664077502
217.2938915921 77.9075618707 257.9140683525
226.3387409499 82.8670631132 213.7825329222
217.8794759944 92.9798388345 211.8314240231
220.9343903344 68.7281224458 269.0648415468
200.8560295076 144.2531660583 243.3282216469
219.3913166356 106.7744761603 218.3781925199
221.9891145790 69.8223174490 232.2098176516
223.3448798415 78.1755623050 258.6244331871
220.0813644283 135.8071378636 220.4871471241
224.7987219978 70.4453719209 240.0839672449
201.2256489942 148.8433964059 222.6929246631
220.5262048670 71.9379556264 251.4374215503
218.7020599779 93.0456848795 205.4852839913
227.6304766132 68.9764930512 256.1951871658
213.4025002986 89.0821838792 206.3783268454
218.2967517809 127.0355005149 219.8735898529
214.8574320400 73.6907474343 260.4528041341
215.3912485098 136.0507156637 217.5419787871
215.9485748738 102.3394475240 213.4452450956
221.5160845880 71.8505032739 242.7069028372
222.3209074223 72.4394106436 254.2460762883
213.2893906669 125.2960726887 216.2864964602
204.2449805725 152.9067644517 231.5603729366
224.9979985063 82.2061152189 213.8223653212
219.2111498818 77.6942348110 224.6172582770
217.3755844124 117.4221200044 213.9071314984
197.8925819671 153.2633982019 230.4624418404
222.9112362527 76.2118322827 254.6663349670
221.4598262528 70.0021629285 259.3475058508
220.5739254199 111.8406475352 216.9622438264
230.0986642076 65.1209035633 246.3209217447
219.5240598160 69.9651911153 246.2896647358
216.4421279482 134.8730873115 215.8849264043
216.2230205107 137.6958660810 216.9935397235
224.3451537258 123.4799700956 221.9951161838
222.1893081901 75.6611058252 258.2965473510
219.9851951622 83.2441999457 216.8166296153
226.5173236523 74.7163238521 232.6104805477
221.3138308262 128.7330880250 223.3029185375
216.9122535127 72.1580661013 250.2709120443
206.0733045884 151.5126595887 224.8698191738
217.4034658867 76.6201156992 255.1731700365
219.4314477302 94.5670425244 212.7467542061
220.7429070094 76.6834554312 264.3179453675
202.3815932322 150.4868709017 239.2310224631
216.2643456711 134.3114379292 220.4613671116
215.0590101349 78.4796226852 261.0662417016
220.6725472300 92.6617573356 209.2077437973
201.2731853209 146.4739618368 248.8531458342
226.8866356626 130.4328371912 222.5396509625
220.1631007527 75.5462742098 256.4190684952
196.6913558786 148.7970946527 241.5597961530
223.6970795312 69.9054301676 239.3774830072
213.3778134447 152.7717057719 212.0870350365
222.5562734130 75.2367293603 227.9485394147
216.9194751908 132.9112510896 214.6915826916
219.1437620179 76.5978379829 264.5991002021
197.4991787926 146.5353981134 217.4585742804
222.7072165049 65.4695756361 261.2228773561
224.1141645426 72.3548760733 230.3688811833
221.6064353198 66.5850634578 267.1276667730
219.2208957816 77.6428110537 227.5481064889
219.4806902437 72.2176935345 239.6876037179
223.7866352508 131.2835122801 220.5807566186
210.8289222604 78.3371129070 262.7856412396
219.7058249275 76.2619644834 229.3164562859
207.5630843481 149.4483375179 214.6974435910
225.2000505875 66.1209869103 256.4446586391
212.1385245649 137.5540402982 219.7503091035
217.0170178983 69.6486223768 264.4001892346
217.2262940266 99.0803665145 221.6783009481
212.7621072648 103.2065302558 212.5397905514
222.0265032114 112.0282583742 218.5676184958
209.0717626692 148.7740129186 214.8555417319
203.9584540305 148.6093508195 215.8587748204
198.1716033011 146.5776667752 245.3503217791
221.2777301157 66.5275858589 263.9728067098
218.4090936567 78.9963972675 243.5338573388
210.6413003075 150.6106443803 213.7172071164
219.4397105693 72.5995414287 228.4403502546
222.1178407482 71.8799171282 263.8438793314
212.6981214321 142.1509967374 223.2553598918
216.8243827912 102.7625359828 213.4793042546
218.5180257117 112.1844504514 212.2358364129
224.3522048799 130.4137759960 221.6112178947
219.3513211338 102.2936484250 212.5737666070
226.3180400727 72.1754798239 231.7407650122
217.6215570592 130.8720320526 221.1124745739
216.9478800300 67.9657889007 264.8473542201
226.2869447946 81.3618508107 228.3971770947
223.4830670656 79.1408911721 268.3464115268
219.4371661741 70.0066335433 256.3407189650
203.3214172713 156.6517234982 223.8863577307
199.1084430762 150.4700912717 242.8445867248
219.3823760879 99.9750806165 220.5834332088
212.4167042361 147.3070237106 218.6304732379
210.6413003075 150.6106443803 213.7172071164
220.3163114934 79.7266902864 267.7864738128
203.5944503540 149.0020455181 227.9563619312
221.8920217759 128.9497562781 219.1388555962
209.2858373322 151.3696699125 214.2399121396
212.3286654917 143.6947072388 228.2382259171
221.3200654984 121.2454985697 215.2050513433
219.1866984011 132.8798182630 224.3672296509
219.7437142741 70.5732137226 232.6516662753
210.8514246266 136.3998569818 218.8581433427
195.5365133542 146.9742424621 231.4962284955
219.3913166356 106.7744761603 218.3781925199
196.7402719487 144.4574376763 246.6996796807
215.6145346574 62.7123686862 259.7814341508
210.0435812692 144.5864732401 221.3839417911
197.8997264941 149.2104387766 241.3103635794
220.3021170352 119.8066436320 216.7222381243
216.0093899607 77.6703809871 257.2846386738
218.8614676251 76.1399784740 247.2594181599
217.0788160354 120.5719834290 219.7110849635
212.8577610177 74.1586054642 259.9226997177
226.1987684928 77.0824096600 232.4686115823
226.2743029769 81.9430738154 227.7062231485
223.0385123454 130.9025564513 219.0942883732
219.4572920356 76.4205441277 247.2739296705
194.6740724038 152.2214319183 244.4653500436
215.2982979140 89.2192823465 206.6225771358
218.2099427460 126.4219625855 219.9903719176
210.9184402173 113.4732628962 222.3763758012
218.6827494963 97.9826752976 213.2280326270
198.0061890728 146.9840617674 248.0652301622
225.4915042083 75.7975675132 234.2381557031
217.8660898376 107.2304428069 220.1843802053
217.6904947012 119.5795771340 219.8490535173
219.1197674102 84.0515920935 217.8744477833
221.6562367811 74.7338537007 270.7004278480
197.1404816667 147.9102831524 220.2751281904
211.1458294654 76.2068310863 259.8100061838
212.2453497784 142.6767376467 217.3913716230
219.0448280417 61.4986868984 258.6091401642
219.9007589308 74.8618851128 234.8836546907
217.5265463807 70.2286004524 269.5050181389
218.0573758448 114.6669744689 216.2294199773
207.6175592029 149.5605771309 230.0465324263
198.1854582224 143.3480028016 245.0853095369
210.7212951338 141.7871981732 218.0811422994
200.9675031773 153.4935268584 226.6728859679
196.4727442954 146.1110432765 244.8347097504
218.2926297794 85.4153064075 225.6524558674
204.3145490808 153.9315442180 237.5269179808
224.2855672469 72.0085577057 253.0934037949
216.4810526413 124.6089414531 221.5828054218
201.2730883534 153.4832274867 234.7449048236
217.5677777374 81.0472915966 266.2610431197
212.3191363560 78.3781092166 257.8279774691
219.2421854416 137.4399912559 217.2658910763
220.2049767951 75.9336439990 265.8806864598
223.1953868511 90.0949311004 209.4703480822
211.1255197881 79.6892346242 259.6780731656
215.8838615665 67.8061762054 253.0808516244
215.1132396741 119.9845705316 216.0795507622
217.3671747165 64.5388522336 262.0060669684
202.1683842390 146.3154358342 247.3057476038
215.4772623291 123.3051979615 214.8565918079
216.4625050174 119.1515537195 215.0531146017
215.4637528289 62.8235729472 261.4471548668
215.5181471080 146.5316738660 216.4322612000
198.0308477070 150.7366892800 243.3574894211
220.2283463578 101.4493847938 217.6241090421
211.0947383187 143.5528270741 226.5066970628
216.2286640233 77.1213028864 268.4467061862
201.9620263672 154.6813178771 224.4408642745
221.9249627275 69.4152774486 258.3813128970
204.4394043336 152.1895994740 229.6483300653
220.2687109829 73.3072347568 268.6496029132
218.4524629154 73.3615287342 235.4266586135
219.4487188010 137.7670952919 218.7288139643
218.8511651461 65.1676918856 268.0004012745
197.2295790810 144.5350475429 245.5851730214
209.6988564692 144.2188420281 225.5900682905
224.2585669431 81.0937227909 219.4126349334
217.9325915279 73.3936539305 262.7348958226
212.3276957639 100.4705515907 209.5253253836
210.2050912688 99.8607175577 211.7725519477
197.1412951225 147.2182896551 245.7476625306
220.8676809740 75.2973853868 261.9927999683
218.2643222943 139.6723417738 220.0496023743
216.5863385745 64.9390246634 261.4737969383
202.6965772692 148.8427743162 229.5233396531
221.8729378888 80.4143490064 216.3790926261
220.8023571593 73.0450749701 237.7377214296
218.1239154481 94.0689527145 212.7516224294
219.2905158149 78.4207335499 247.4312263636
218.2870732246 66.0003361603 245.8441165373
197.3877805216 150.8586755090 246.6912270304
222.3209074223 72.4394106436 254.2460762883
214.7554035758 110.4338051737 212.1159585049
224.0996258937 131.6855150276 224.6460190399
216.9478800300 67.9657889007 264.8473542201
218.8430192687 119.6388679697 214.6747344642
224.7901227415 66.8814044327 235.3378218644
222.5069040676 74.6762289375 236.4191954501
220.0091290353 125.1085423456 213.1682769095
220.1040742660 130.5965510030 217.7215500961
202.1349408306 149.5495835771 238.7338554414
207.3285676130 142.9779105542 217.8451627364
222.5069040676 74.6762289375 236.4191954501
218.8058836527 91.6448961386 204.2457166779
200.5678156875 141.0659469479 251.6722209591
218.3786529445 137.4776210327 217.7331003216
217.4411872752 72.3271100183 264.5312396501
226.7440285716 73.8627890130 231.1587492032
223.6970795312 69.9054301676 239.3774830072
215.1788778538 71.2570544386 253.7065828370
216.0503904454 83.0885772905 223.9818805386
205.1418620076 146.5794493603 236.8225806811
219.7243912912 75.0140617345 234.3129970743
218.3680858410 110.6046722474 213.1234508495
222.0460269688 74.3008246412 227.1533291763
212.4150008934 137.2398843625 224.7697435875
218.7336245229 70.4214436679 258.2632061656
218.0803361224 127.0243685213 216.9031881797
223.6367455448 66.8021286434 257.8271190893
224.1812136294 75.5954754330 251.1997117469
202.2910901173 144.5361102323 248.4104336739
219.1077876098 96.5584782285 209.3733254779
197.8648784197 141.5010457526 251.3303465239
220.2283463578 101.4493847938 217.6241090421
220.4126412031 77.4050416615 261.2828968878
220.1488043502 80.7335208849 270.3315315886
219.4523877340 138.2922425710 221.0570459031
214.9006557125 123.2224778018 219.5174137622
219.2020162374 66.0858763587 243.4046964816
196.6557625269 143.4989681112 241.6972650006
218.1425353903 101.4291368744 212.2523935066
221.3297883803 72.6831506739 258.4270662447
223.5265530823 85.3404361528 228.2933496140
216.0409835747 110.5778199066 211.7055207320
214.7080750076 79.7011861724 257.8787910330
226.1094002437 74.1879558481 235.9552106936
219.3508567356 74.1587737235 256.0428641199
227.4147521095 67.4166009424 240.9913840904
221.9951137117 75.6106629231 222.0290205507
218.5204186578 69.7150739864 257.2076932433
212.0656827582 145.1405040584 215.3593379310
220.3549943240 70.5706741581 244.2393338555
209.3622273156 147.0073495659 221.4720719148
209.8565485656 151.0178601813 218.5984075621
214.1240452000 77.2325958263 268.0375835405
223.2519050755 74.2163517546 229.9606627195
216.5237541404 132.3853819729 216.2782290307
218.2837788107 79.3101616628 257.4734165566
219.4197971672 74.2590394143 270.3653771326
227.8691654951 74.5128772628 236.8175368838
196.9972454308 151.7119535105 243.1023321265
219.9851951622 83.2441999457 216.8166296153
215.0557685107 96.1118710226 207.4878993235
200.8268183963 150.4400143196 227.9474445392
217.8575754380 69.4468815612 272.1220094310
225.7260831790 72.4239343326 232.6759315559
223.8533525301 94.8526221463 212.3413066973
201.4914515254 153.5294934422 230.7446405869
200.5142240246 145.6128149381 251.8536779665
223.7985694775 78.7925784557 222.0129937574
213.4270031371 74.5726091870 264.3921651551
221.6872670401 65.6858188431 243.7190377536
215.6048827794 99.2202428823 208.7466733290
220.7317634573 87.2425852848 216.2429331986
211.7842822290 137.7391117810 224.8290506177
217.1451720797 70.9113106152 252.4903619789
216.3620796642 67.3728118343 272.0344311473
200.7492039399 149.6750393094 242.9759789630
199.9378875315 149.8063791842 243.3961837518
215.2475116877 127.3366960171 218.7719447279
217.8621250841 85.1151795748 211.3677001122
224.7901227415 66.8814044327 235.3378218644
201.2289364474 151.4631876060 219.1384616252
221.8243531258 91.2606356840 208.6324548417
203.4938254849 152.6100033187 230.1976893189
224.2521966066 74.2765183577 246.7357901557
217.8575754380 69.4468815612 272.1220094310
221.6085810065 73.0717883421 266.6982956770
213.6268328295 110.6396006166 220.6576727112
218.0588342561 81.2705184572 218.3801787285
213.8436110986 80.7143250089 259.0180703247
215.4635056300 112.2042955439 216.9657078109
212.9729931893 146.9074994779 217.0912411185
226.9255923434 84.2503081705 256.4012050335
196.6644887755 145.4799093492 247.6044728087
215.1984513380 73.7650091787 263.7496283533
219.9247635064 73.0431963794 251.6362369226
209.1612101035 114.9143788448 218.9373069680
215.0320735218 110.0013204000 213.5400650735
227.2401132611 77.8190916765 246.0212270788
218.5126175813 69.8805997517 234.1758113622
227.0568258626 74.0710532369 236.6492356869
223.3785243716 72.2715159753 239.2356140419
221.3138308262 128.7330880250 223.3029185375
219.4602168344 80.3972699373 269.6508805137
219.8110911509 73.6530927655 244.0929603194
215.5140767000 70.1666787327 271.7498858893
218.8430192687 119.6388679697 214.6747344642
221.6313444724 129.4901175616 219.3976444210
223.6554662056 123.5573444136 217.4834184928
219.9466772019 86.8751370995 224.5785877295
219.8028443470 76.8969597004 254.5336181806
217.3247699095 71.3877966937 267.0607496137
207.3404317652 147.8461333184 213.3716421291
205.5816099949 155.0890273226 229.2044941817
222.1859489698 86.5370489767 210.1137326501
216.6491943915 123.8414307316 214.6505314118
215.3602246337 137.5711765335 217.3073163685
204.7438073908 151.3228777535 221.7628688464
229.4274237354 67.0476248740 242.6507416247
213.3545289143 102.9617999181 218.2731779709
206.0740864943 149.9172938733 212.4223765296
227.2991062578 73.1773619426 234.2665346530
226.3863510125 79.6230621072 255.6993060101
216.0477266803 111.6586595741 218.7234497383
213.9182165998 133.6678401013 221.0660665997
199.8950909716 144.4851886592 237.0059713666
216.4079256488 71.1413969130 248.3631804807
219.7243912912 75.0140617345 234.3129970743
211.7509339101 139.0731216236 223.5039849487
219.3198679409 135.9244517901 221.8094406690
196.1179699836 145.0437549345 244.0065317676
216.9425276364 110.3250640291 212.8242398136
197.8651554412 146.9596676229 220.9635934546
217.5169735189 71.3046386028 263.6264420938
202.0246059458 147.0850363970 245.9357178874
218.7394988266 87.6919363570 209.4104729689
228.4043265560 73.0355165453 237.8375904308
201.3681016450 148.0631969361 245.0426235209
219.1173891356 131.4663263743 223.7778152932
209.9449177101 100.1314756789 211.4349497400
222.5741470913 126.7606535305 219.3703225404
219.8555839415 81.0991078633 271.6691906545
215.1987066224 61.5314648835 261.8790788099
225.3350675232 81.1457933270 252.7658717701
211.8776399224 76.8641983937 258.0449850821
204.0198815919 140.0859055073 246.8919646507
223.9675680485 76.9781604515 223.6256629026
203.7906176135 148.0984737062 216.1162103739
216.9631544147 99.9282274450 208.8100985086
218.9326563662 70.3970204712 252.5665292678
221.7467899246 132.4030512943 217.9989472478
216.6764356548 111.4812530129 221.9772738329
223.3476653762 133.6112677031 215.9489687412
202.8061036458 158.2622974207 226.0677989435
203.7050971679 157.1857566490 223.5480284977
221.1614191131 79.0806583347 244.2246926114
218.3802617571 78.2622733864 221.3428075373
213.6819296786 115.5259156869 215.5195546545
206.7512794899 149.2725994042 210.4248187710
222.4661436373 65.9962812167 259.0075041919
214.5585191006 80.2528538414 259.3495949637
223.8767494536 67.2769874092 236.3722663962
207.9673931494 149.8385506771 219.2493155337
213.8746902329 146.8583651653 227.0845182967
196.9444252798 148.7267325707 237.3037344109
218.8511651461 65.1676918856 268.0004012745
217.1216847231 101.7879813842 212.6720622854
221.8245943387 73.3187444606 228.2973167790
212.2453497784 142.6767376467 217.3913716230
223.2878641686 85.1206664040 221.2103890494
212.9124410425 153.7125278062 213.2278887938
216.1744834989 143.1215832293 224.9774103413
217.2938915921 77.9075618707 257.9140683525
208.3105399701 148.9310118071 214.3115834489
219.4211793142 95.8737458881 212.2533040034
220.1407416078 134.9105037505 220.8965065716
207.7214571483 144.0936736154 215.8632568723
223.5160634012 71.6823184995 239.9635987549
214.3655559333 88.7668307517 205.7536943264
226.1338757181 68.7119448497 259.4760572206
219.5186411308 78.8802626271 259.0097116990
222.1884306130 78.5498519847 234.5110399723
209.5828594531 153.1197986468 215.3980513142
217.8287668310 74.7944428735 263.9744575097
224.0744156273 78.0970288347 226.9293445221
222.5687942901 91.3049314374 209.0581455383
198.6437673418 145.0271263397 238.4231589489
209.4968311339 153.2065588233 213.6980588692
202.4399068714 145.9344769789 222.5294914857
212.9386995162 101.7808963849 220.3708151282
214.3391295909 146.1763827357 215.1081934268
211.2579898590 152.2786062808 216.7720502264
217.0420839267 124.9571937929 212.6686255476
223.2836523777 69.9703952039 248.9549807209
203.5034466954 146.9122156137 223.7443532876
217.1127378723 73.0935565799 255.2223334539
218.7536036373 73.9446038694 236.0706345924
219.5579906709 79.1549594538 268.0637839282
198.1492501953 153.8388015326 236.6947327990
225.8193886008 79.2272638700 259.2418468591
220.8551292582 85.7005500024 220.7813024082
220.3866663490 69.6123805056 251.8419419927
215.6194692750 108.5919692649 219.9017068535
222.1178407482 71.8799171282 263.8438793314
210.0406724971 147.1946123594 224.7122645225
217.6904217472 69.6447874618 262.2030045599
225.6146267911 82.2924836045 228.9858115765
217.0450591333 69.4514512094 258.6622713284
217.6443545259 100.0852722270 216.4840697310
217.6169581855 61.4069857581 262.9576990272
199.4354070917 148.0708396723 229.5185810234
226.3115370991 64.4297145912 243.5405646711
197.4587036308 143.9998011386 250.5056040704
219.1889247951 65.2437938535 270.5809008281
220.3293547591 80.0216232880 247.2324776185
222.4694385493 74.2886038360 265.4152416990
221.1474663878 133.7269283437 217.5655435611
221.6214627803 133.8893370657 217.8387717397
220.6152731217 93.9444781173 207.5991978197
212.2633732714 76.0726312268 258.8800709770
220.1631007527 75.5462742098 256.4190684952
220.5059621203 79.9794485962 251.7910583257
214.8015223797 97.0496938837 209.9882642143
216.2403363355 97.3865029855 213.9351191047
213.7939090327 94.1245588212 210.7547358719
221.9812902745 68.5714258238 258.3440164235
219.3621297879 117.3391935670 220.5937185396
227.4147521095 67.4166009424 240.9913840904
203.4765330207 152.9363636310 231.5525647130
218.7439258142 67.1607451760 250.9775369721
222.4650621830 113.1993500345 219.3200273254
225.6085708712 93.0772290869 214.5088612461
212.4167042361 147.3070237106 218.6304732379
209.8813015900 150.1919371035 220.1871689807
218.0043866698 140.0473783199 220.5234125556
218.7501242616 73.3541755904 255.0755744904
201.9509966456 152.8223805618 224.6341878473
219.9864319365 68.6272048181 272.1180741744
208.4299138821 151.0003436620 218.5050905870
218.7020599779 93.0456848795 205.4852839913
220.0217848955 132.2503438750 224.6841007084
201.6834926334 144.5545773018 219.5866610636
212.5076415307 115.1586567525 221.5142000265
215.1065908239 135.6883685113 218.8938329303
212.7999813430 73.7005579850 255.4618459497
221.6684781374 91.7566840754 209.2054075206
225.7260831790 72.4239343326 232.6759315559
226.6847852885 69.6556736520 258.8118792733
217.0931223234 91.0230692634 210.1140509663
223.0228961957 71.0335807822 242.3881232415
219.9184190818 116.9396692669 219.0544882956
219.3198679409 135.9244517901 221.8094406690
227.6232422408 69.5279026119 241.7904971522
226.2869447946 81.3618508107 228.3971770947
212.5536299096 104.3224679757 210.5532457236
204.2496849794 143.3418502672 242.9585803931
222.6632923592 126.0531042070 218.8856945114
218.1662191939 69.6761306034 271.3612539299
208.6196455132 144.4349475561 224.9459285491
219.7282498663 72.2434634424 268.6933015785
219.0934070946 79.4942779987 243.6094632080
214.8600670710 152.3010987793 215.1730096604
223.9245564701 131.0068089817 219.7352016127
219.4967152958 113.9237324819 216.0164661377
215.1071682919 104.7882836002 220.4978070376
222.1739223948 79.0345136016 271.8767540881
220.4218753879 77.6758676177 259.4023612044
221.9472024120 69.5314205706 251.5544916676
212.5037980636 73.4262460438 263.1276475580
204.9495444608 148.6739012465 229.5961052348
219.4602168344 80.3972699373 269.6508805137
225.5895400090 66.7846698328 235.1738499931
199.8054666289 150.3765750207 218.0343053072
215.6338958189 95.4444906259 211.6654920583
228.8356963857 68.8644745797 244.7108921855
201.8055834421 148.3350920320 231.5952194534
214.9152650710 127.2990811622 219.2576921691
203.2661216174 139.1496239456 247.3624073246
218.0248760470 124.4252015236 221.6892931776
211.1021396907 102.9717399903 208.7130538662
222.6632923592 126.0531042070 218.8856945114
199.1084430762 150.4700912717 242.8445867248
202.0022245004 154.6362423677 225.6065814118
204.9753331900 148.8371212387 223.9722249136
223.7782249219 72.8813783126 257.2967661493
219.9038329142 121.6918747158 213.8886166459
223.2715656438 78.5719115341 221.5923063351
216.1989755594 89.3228492422 207.8864689167
219.6548136450 78.5501804311 228.1244867884
217.1015845320 108.1831450533 215.6270142188
218.3220364742 81.8675355460 222.5428565311
222.3916781045 70.9694910799 260.9388183198
204.3830594587 145.7102920756 218.3208611257
207.0179106036 146.5801393642 219.8496500964
219.9135290272 75.4617629911 224.1246651402
211.7098559805 94.7978233967 207.2339601610
217.7919355857 69.3902389515 253.3071327179
211.7842822290 137.7391117810 224.8290506177
223.2315063003 89.8235383259 210.8709260475
219.4523877340 138.2922425710 221.0570459031
220.7461983296 73.6823183801 267.1761147975
195.3434427780 152.3532522119 231.0112578104
203.4391604667 152.4611601257 217.2376905697
200.7588232762 150.1871432095 225.6726216947
218.8430192687 119.6388679697 214.6747344642
218.7504202210 79.9917242104 253.1071225620
211.7761448014 135.6616155055 217.4527652883
213.6735728726 113.1664758016 216.3414273009
218.4233886403 74.2594000890 226.0109331426
222.3137261840 65.8055469455 244.6562257460
220.4085800446 83.4443212257 224.7842927997
203.3178829440 147.3863683447 239.0076794886
211.8922454601 146.9362380388 228.0438704092
220.7509235928 73.2113137301 261.0164322935
198.7138098313 141.4374356182 247.6564089417
218.7530950827 73.6509793762 225.5353848158
219.9599610283 121.8759941137 212.8385349077
223.3563216680 71.1046895432 246.1642115750
196.8739700672 149.7390119377 235.7798094938
203.7043144306 152.2403764772 238.6764009681
200.5235048111 153.2490955495 230.0052916040
226.6527532065 84.9919670954 210.1257669395
