243.0672302246 257.6653442383 97.2599945068
239.2399902344 245.9852294922 135.7973937988
263.0259399414 243.4588012695 158.2968139648
238.1552886963 241.9569244385 140.5940093994
256.9867248535 243.6397399902 151.5200042725
264.9238281250 245.5471954346 164.9212036133
227.3957672119 262.1958923340 101.5830001831
271.4672241211 255.5553588867 197.0200042725
262.8287963867 237.2540283203 154.0000000000
271.3067016602 266.8697204590 177.0800018311
231.0467071533 259.1597290039 100.1800003052
271.7816772461 266.0893554688 174.7203979492
269.9716796875 245.5893554688 157.2004089355
267.3274230957 256.9898681641 200.0299987793
240.6521911621 234.7998657227 147.8600006104
235.8549957275 271.1169433594 105.8254013062
236.2266845703 268.4100036621 120.6620025635
259.5055847168 240.3459167480 166.8190002441
268.7553100586 248.8669281006 178.7440032959
247.9943084717 240.1540679932 143.5223999023
231.9714050293 247.1900024414 138.3287963867
272.1016845703 254.6373748779 197.8600006104
233.2759552002 254.9488067627 100.2467956543
238.6197509766 263.8800048828 108.3299942017
242.8664703369 251.0512390137 130.8099975586
242.1983947754 259.5479736328 97.2060012817
272.3008422852 257.0129699707 199.4799957275
240.2449951172 244.9869232178 141.9853973389
269.1938171387 244.6371917725 158.4911956787
243.1827239990 262.2901306152 90.3990020752
245.2797546387 252.0700073242 124.8899993896
227.3474273682 268.1398620605 104.3199996948
277.2557678223 252.7459106445 199.8529968262
243.6091308594 240.0558624268 149.1739959717
241.8488159180 244.7140197754 132.4700012207
271.4032592773 266.2080993652 174.4940032959
269.6416625977 257.4973449707 196.1600036621
245.2217559814 239.4768066406 143.8410034180
252.8472290039 240.6553497314 154.9300079346
236.3786010742 258.3456115723 128.7575988770
247.9947814941 249.0853271484 87.8109970093
278.8697509766 257.9299926758 186.0700073242
232.4236297607 248.6169738770 140.8295898438
270.1087951660 256.7040405273 177.3300018311
270.8336181641 261.4169921875 180.3295898438
250.0283966064 237.0379638672 147.1660003662
274.8008422852 252.0429687500 178.8699951172
234.3920593262 241.0480499268 146.0520019531
244.3367156982 241.6597290039 146.5800018311
240.1955718994 257.0959167480 124.1790008545
233.8974304199 241.1798553467 130.9600067139
239.4838104248 239.8871917725 150.5711975098
236.3694000244 258.2125244141 129.1240081787
276.6859436035 256.3387756348 200.7368011475
235.3043060303 267.7740783691 102.2024002075
268.0606994629 258.6366271973 168.6460113525
243.3489532471 271.4881896973 120.8470001221
241.7899932861 242.2352294922 143.6174011230
261.7086181641 250.9656219482 165.3376007080
274.6249694824 256.5369262695 190.2053985596
269.6452941895 251.9469299316 196.7640075684
254.6686096191 239.8656158447 153.6175994873
262.9116821289 255.5193481445 159.5604095459
272.1016845703 254.6373748779 197.8600006104
249.9079132080 251.4276123047 95.3870010376
241.8627319336 273.7101135254 121.6590042114
282.9089660645 251.4881744385 174.2769927979
259.1674194336 246.0198669434 147.6100006104
240.2688293457 253.2740325928 126.1499938965
230.5588226318 261.5240478516 103.8600006104
241.6592102051 262.9375915527 121.1981964111
237.8631896973 268.1745605469 111.4680023193
267.7514038086 253.6900024414 193.5888061523
238.5143127441 246.6740722656 147.3724060059
240.8940734863 263.2728576660 129.9899902344
262.8287963867 237.2540283203 154.0000000000
247.6340026855 247.7922058105 89.5800018311
240.2027740479 243.5989990234 149.3161926270
242.1779174805 272.1776123047 122.8770065308
266.7297363281 252.1499938965 163.0600128174
233.5546569824 235.3623504639 150.8699951172
238.7572326660 259.0353393555 101.6999969482
256.0182800293 237.3533782959 150.8959960938
242.2831878662 239.3945922852 146.6279907227
238.8992614746 250.4491882324 126.9141998291
236.2021331787 265.1869201660 104.6632003784
246.7289733887 253.1892700195 125.6990051270
271.0699768066 255.8752288818 162.5373992920
277.0753173828 254.0469207764 198.7239990234
234.6451416016 238.2400054932 150.5130004883
236.8936309814 239.3969726562 150.2796020508
262.3874206543 246.1698608398 160.4199981689
273.3197937012 251.5257110596 201.6217956543
240.4172210693 268.4953613281 120.0000000000
236.2567596436 246.6720123291 131.8946075439
278.0187988281 254.6440277100 183.3099975586
274.6408386230 254.4729766846 186.1199951172
234.2046661377 244.2123565674 151.2799987793
240.3116912842 241.0173645020 136.1600036621
276.2638244629 253.0884704590 200.2913970947
281.8421325684 252.1669311523 193.8031921387
273.9738159180 257.8872070312 182.7512054443
256.6238098145 255.8171997070 92.0811996460
239.2933959961 268.7198791504 124.8125991821
242.8747863770 252.1053161621 100.3909988403
240.4182739258 254.8833770752 95.9359970093
275.9640808105 257.0028381348 201.6499938965
253.8555755615 252.1159057617 91.9589996338
234.3286285400 238.3617706299 150.0659942627
258.3008422852 242.5929718018 162.4700012207
239.8234710693 258.6530456543 90.7060012817
247.0216674805 255.1293487549 128.5704040527
264.3488159180 242.2840270996 166.7599945068
266.3416748047 241.6073760986 150.4799957275
278.4427185059 260.6601257324 201.2489929199
238.0752868652 256.6769409180 103.1340026855
241.0533905029 238.8398590088 150.6926116943
239.3497924805 263.2657165527 108.0818023682
265.6755981445 248.9159088135 168.2089996338
235.9540710449 242.5928497314 133.1899871826
231.8174285889 275.0398864746 114.4199981689
241.3116607666 248.8293609619 132.4403991699
259.1736450195 239.8678283691 152.7939910889
271.9438171387 253.1772003174 202.3912048340
262.3251342773 235.7200012207 149.7730102539
265.5521240234 252.8469390869 172.4731903076
236.6786041260 240.5956115723 133.8675994873
271.5047912598 258.9653320312 172.3809967041
277.9697265625 253.6199951172 197.4700012207
232.6788177490 268.9440307617 117.3899993896
243.7116546631 265.5693664551 128.0303955078
266.8082885742 252.1433868408 162.3959960938
268.8340759277 257.9728393555 197.5599975586
238.2474212646 271.1998901367 120.0100021362
280.7416687012 255.4973754883 186.6900024414
244.6086273193 247.9317779541 128.5959930420
264.2640075684 234.4522094727 148.6699981689
234.1134796143 237.1430511475 152.4459991455
237.8755798340 255.6058959961 97.1790008545
252.2639923096 236.5222015381 152.6399993896
267.1308593750 252.2029724121 180.1599884033
280.8832702637 255.2980957031 193.8639984131
246.2621307373 257.4069213867 91.3232040405
267.9573974609 249.9898529053 174.2900085449
269.5447998047 252.2953186035 158.6309967041
275.7686157227 256.2156066895 178.6876068115
270.6751403809 262.8099975586 171.6330108643
246.8372344971 246.0953521729 125.9599990845
277.2049865723 258.8369445801 179.9053955078
271.1000061035 263.2308349609 177.3500061035
261.7086181641 250.9656219482 165.3376007080
267.7749633789 252.3569183350 166.8753967285
258.2959594727 239.8588104248 163.0167999268
282.8432617188 259.1781005859 186.6640014648
243.6367034912 257.5197448730 103.6599960327
249.5984649658 253.1362915039 86.9098052979
239.7379150391 270.1476135254 124.9770050049
269.6452941895 251.9469299316 196.7640075684
279.0089721680 259.7692871094 199.2189941406
247.8136291504 240.4969787598 143.8495941162
270.2327270508 256.1401062012 162.4089965820
280.2767028809 256.4197387695 192.9700012207
265.2041015625 242.3928527832 164.1399993896
280.5628051758 257.3590087891 204.2861938477
238.9397888184 247.6257019043 126.3418045044
248.5457611084 239.6259155273 152.5130004883
257.6888122559 237.1840209961 154.3600006104
265.7533874512 254.4098663330 202.5726013184
236.8159637451 264.5287780762 110.4067993164
240.0434722900 257.6130371094 102.3560028076
267.7946777344 254.1323547363 177.1499938965
238.4927825928 261.2789916992 104.9661941528
232.1479187012 267.6676025391 107.4270019531
275.6592102051 252.5975799561 199.0081939697
240.0386199951 259.8717651367 88.3260040283
260.7172241211 245.6353607178 147.0500030518
257.7572021484 256.6253662109 87.6899948120
252.5189361572 239.5358276367 157.6320037842
279.7843017578 258.6440734863 198.9223937988
241.1933135986 242.1926879883 136.2879943848
244.6714019775 244.8699951172 126.6988067627
233.3320617676 267.7580566406 116.3320007324
265.5521240234 252.8469390869 172.4731903076
264.0278930664 236.0576171875 153.4270019531
237.9418640137 245.9575195312 142.0119934082
276.7539978027 254.1222076416 196.1800079346
284.7818908691 256.9275207520 187.3019866943
246.3174285889 255.8798675537 129.4499969482
239.7340698242 261.0128479004 127.9599990845
252.1992187500 238.6975860596 144.1681976318
250.1097564697 254.2100067139 85.4499969482
240.0386199951 259.8717651367 88.3260040283
238.3643035889 259.5140991211 100.4123992920
245.8572235107 248.3753509521 129.5100097656
241.9397583008 252.5099945068 125.4199981689
252.3308715820 258.0729675293 91.4700012207
247.5294036865 256.0325317383 131.0240020752
242.3508605957 256.5729675293 104.2200012207
243.9364776611 235.1412353516 148.7799987793
246.7216949463 243.6273651123 127.0599975586
243.6249847412 259.5469360352 96.4953994751
270.8139648438 260.6199951172 171.6138000488
278.8789672852 251.6292572021 190.9489898682
275.3574218750 257.9898681641 190.1399993896
231.6625823975 270.9200134277 114.6780014038
233.5346679688 239.3723449707 131.5200042725
267.4573974609 258.7998657227 195.8800048828
265.1989440918 235.3681793213 151.3970031738
255.0991363525 241.1458587646 153.5440063477
276.6740722656 253.6828460693 184.2899932861
280.3938293457 253.5072021484 178.3311920166
244.9867095947 239.5097351074 149.8300018311
258.9759521484 252.4788055420 160.8068084717
269.9541015625 264.9728393555 178.1399993896
246.9562988281 234.2087097168 143.2749938965
266.5343017578 238.5740661621 147.7324066162
247.9943084717 240.1540679932 143.5223999023
240.8046569824 257.8023376465 87.1900024414
276.2987976074 250.6240234375 178.5899963379
264.3808593750 246.0129699707 158.8199920654
230.8917694092 247.8768005371 139.2610015869
266.7204895020 251.3669433594 168.2073974609
269.5447998047 252.2953186035 158.6309967041
268.0486145020 253.8756256104 177.1676025391
230.4267120361 270.6497192383 102.8899993896
262.0220642090 245.9703979492 160.9270019531
234.6546630859 241.7623443604 142.4100036621
271.6892089844 256.9876098633 166.7281951904
274.6708374023 259.9229431152 181.8199920654
240.4059600830 253.4687957764 101.1767959595
241.7327880859 264.6090087891 109.6161956787
245.2874298096 246.4798583984 126.5200042725
240.3399963379 239.0452270508 149.7773895264
239.1808624268 248.5529785156 131.4700012207
277.4852905273 253.6169281006 183.2140045166
232.6359558105 264.7187805176 106.4967956543
252.6940765381 238.4528503418 156.8600006104
265.5214233398 256.2000122070 163.6087951660
252.1493988037 241.3325347900 156.2040100098
230.4267120361 270.6497192383 102.8899993896
242.9782714844 261.5233764648 126.2159957886
262.3874206543 246.1698608398 160.4199981689
263.3002929688 251.2398376465 158.7449951172
235.6846618652 266.0923461914 121.0500030518
265.6007080078 246.0066528320 161.5960083008
231.4616546631 264.2893676758 98.5703964233
259.9117431641 255.0167999268 158.6809997559
235.3713989258 243.3099975586 144.2088012695
269.1140747070 253.5328521729 166.1299896240
236.1546630859 240.9223480225 141.9499969482
263.0563049316 233.9687042236 150.5850067139
258.1116638184 238.2873687744 149.9300079346
281.7589416504 251.3181762695 177.8369903564
227.7486267090 269.3117675781 104.1760025024
270.2108459473 255.1029663086 178.2099914551
251.7152862549 251.6069335938 89.8040008545
235.4127349854 249.3301086426 142.6790008545
231.8074188232 269.1498718262 102.8100051880
242.9514007568 238.2200012207 144.2388000488
263.9638061523 253.9871978760 163.1011962891
280.0416870117 255.2193603516 176.9703979492
275.5499877930 258.8352355957 193.9774017334
237.2788238525 266.5840454102 118.6699981689
248.1340789795 253.9928436279 95.1100006104
260.9589843750 242.4592590332 160.1689910889
268.4353027344 253.6469268799 171.3240051270
241.3116607666 248.8293609619 132.4403991699
235.6846618652 266.0923461914 121.0500030518
233.2746582031 263.9023437500 104.7200012207
268.8534851074 263.2230529785 177.6060028076
239.2014007568 258.1799926758 94.4087982178
244.5374298096 244.9298553467 126.7799987793
263.9400024414 240.9508514404 166.8099975586
241.6839904785 269.9021911621 119.7900009155
239.7139587402 248.6499938965 124.4238052368
251.6813964844 255.8699951172 86.5288009644
277.2588195801 253.7640228271 195.7200012207
251.9016876221 252.2573699951 90.7300033569
241.4731903076 258.3045654297 125.5279998779
239.9572296143 246.2453613281 147.1699981689
262.4385986328 255.8656158447 173.7575988770
269.5738220215 258.3884887695 171.3114013672
239.4514007568 246.6600036621 127.0588073730
268.7686157227 266.8617553711 175.4459991455
251.5643005371 241.6140747070 152.0724029541
267.7655944824 241.2459106445 161.5989990234
260.7572021484 243.9353485107 146.5200042725
238.6446685791 245.0423431396 129.4700012207
235.4920654297 267.4380493164 122.4820022583
253.1133880615 240.1498565674 149.1226043701
238.5143127441 246.6740722656 147.3724060059
277.8197937012 248.8157043457 196.5317993164
259.1498107910 240.2457122803 156.3717956543
251.4031829834 253.1845855713 92.7779998779
234.3739624023 266.9800109863 111.6838073730
240.6536254883 261.3769836426 89.9796066284
269.6647949219 255.6653289795 165.9609985352
283.0621337891 250.9969329834 175.5131988525
241.3116607666 248.8293609619 132.4403991699
246.7289733887 253.1892700195 125.6990051270
266.2039794922 253.9400024414 199.5037994385
238.7106933594 249.3810272217 129.0001983643
235.1536254883 271.2569885254 108.8896026611
274.4059448242 254.5588073730 194.8368072510
233.1589660645 263.4392700195 96.0090026855
239.4514007568 246.6600036621 127.0588073730
274.8192138672 256.9675903320 174.2381896973
262.7840881348 245.1428527832 165.3399963379
271.6416625977 257.2793579102 200.7704010010
262.2440185547 234.4721984863 150.3700103760
264.7116699219 241.3173675537 153.9799957275
241.5372314453 273.2053527832 119.5899963379
240.9459686279 256.1187744141 90.9267959595
243.5255737305 234.5859069824 151.2389984131
240.2549896240 265.0369262695 121.9654006958
280.2221374512 253.8869323730 191.8731994629
241.7333984375 254.2298583984 102.6925964355
238.2279205322 238.0076141357 153.8769989014
264.2814025879 254.9400024414 168.0688018799
274.8008422852 252.0429687500 178.8699951172
265.0043029785 245.6040649414 159.9324035645
233.9100036621 254.0508575439 103.8100051880
227.1319274902 266.2390136719 105.1279983521
264.3966979980 246.0897369385 159.1199951172
239.8882598877 254.8872985840 101.5509948730
276.6946716309 252.4523468018 192.2200012207
268.5097351074 252.9499969482 193.6900024414
268.4297485352 255.3899993896 174.0299987793
236.3682708740 238.9933776855 129.9660034180
244.5563049316 261.9386901855 124.5650024414
278.8607177734 257.7266235352 194.1160125732
243.4984588623 259.7762756348 93.6498031616
268.4649658203 256.3069152832 204.1153869629
241.8739929199 257.3421936035 86.3500061035
266.3383789062 245.2279663086 154.4059906006
268.5597534180 261.1400146484 171.4300079346
242.2597503662 238.3999938965 145.0900115967
230.4757537842 255.9459075928 127.3730010986
261.0366821289 246.3800048828 161.0720062256
245.8063049316 242.8587036133 126.5049972534
239.5457611084 253.3059082031 100.3330001831
267.2459411621 253.2388000488 160.8068084717
273.1086120605 256.6355895996 201.6475982666
239.8213958740 271.2900085449 120.0487976074
277.5482482910 250.5572967529 195.6310119629
270.2459411621 258.4888000488 181.2368011475
232.6146545410 254.7423553467 123.6900024414
233.1539916992 253.8922119141 102.6000061035
280.1882629395 251.0633850098 173.1159973145
240.3774261475 248.4798583984 132.0700073242
260.6617431641 244.1068115234 165.6010131836
236.0988159180 254.1540222168 100.2799987793
265.7547912598 235.5453186035 147.3110046387
260.7857666016 251.7159118652 157.9329986572
243.7682800293 236.2633819580 145.1459960938
239.3959655762 249.0688018799 129.7368011475
236.0036315918 247.2969818115 148.2796020508
240.0955810547 236.6459045410 152.0789947510
271.6416625977 257.2793579102 200.7704010010
233.3427276611 257.9501037598 125.8789978027
236.6440734863 266.9728393555 111.4000015259
234.6546630859 241.7623443604 142.4100036621
272.6516723633 241.9973754883 155.4199981689
264.2142944336 241.6140747070 152.5523986816
238.2613983154 237.6100006104 145.0888061523
273.7464599609 252.7712402344 202.1800079346
245.1551361084 239.8300018311 144.1330108643
245.5433959961 251.7198638916 95.2425994873
236.0867156982 272.4597473145 114.7099990845
255.9286193848 239.2856140137 154.3175964355
249.0716857910 235.3073730469 144.8600006104
266.5689392090 236.1281738281 149.7169952393
240.4172210693 268.4953613281 120.0000000000
270.0552978516 252.7069244385 161.7140045166
244.7102813721 258.7198486328 89.0849990845
238.7016906738 241.4273681641 141.6699981689
266.7721252441 238.3669281006 150.9631958008
259.3697509766 244.9600067139 146.7700042725
235.1386260986 238.3617706299 148.9859924316
233.0033874512 269.8298645020 114.3825988770
235.1951446533 242.1699981689 129.3830108643
241.5372314453 273.2053527832 119.5899963379
271.4999694824 257.6852416992 172.5074005127
268.5132751465 256.8081054688 157.6439971924
233.1267089844 263.1397399902 98.2699966431
235.7408599854 239.9929656982 146.8000030518
264.3808593750 246.0129699707 158.8199920654
268.1597290039 248.9299926758 173.4500122070
240.1897583008 272.5299987793 119.3099975586
260.4182434082 254.2673034668 162.9510040283
233.1267089844 263.1397399902 98.2699966431
240.4182586670 258.8073120117 91.7609939575
247.1536560059 254.5278167725 89.0540008545
231.8436279297 274.9269714355 115.8596038818
280.4479064941 255.8276214600 202.8170013428
278.8316650391 255.4773712158 182.4700012207
281.1621398926 250.3069305420 192.7931976318
247.1440734863 241.7928466797 148.3699951172
264.3236389160 245.7278289795 155.1339874268
235.4788208008 253.8240203857 102.3499984741
266.4107055664 245.6566467285 159.3260040283
267.0574035645 257.4398803711 158.3500061035
265.2433166504 244.3926849365 165.3179931641
261.2789611816 244.9692687988 146.7589874268
263.7967834473 251.8420104980 166.6746063232
236.7516937256 244.7173767090 151.0000000000
236.0097503662 238.6999969482 147.2400054932
249.9046630859 234.5123443604 149.5000000000
264.2438049316 253.6172027588 174.7411956787
231.5346679688 263.7423400879 103.1500015259
231.0808715820 260.4529418945 102.9000015259
234.8227386475 275.0101318359 117.7389984131
243.5197601318 237.7599945068 144.0500030518
247.1297607422 249.0000000000 89.0199966431
265.1182861328 240.0333862305 154.4559936523
234.8540649414 263.0128479004 104.8100051880
268.0497436523 253.1100006104 173.7600097656
231.0017547607 258.5668029785 126.5609970093
275.0846862793 253.1923522949 193.3600006104
269.6416625977 257.4973449707 196.1600036621
237.2874298096 272.5698852539 123.6699981689
234.9574279785 259.3198852539 99.3700027466
242.2831878662 239.3945922852 146.6279907227
237.7557678223 263.7658996582 109.6630020142
243.2872314453 267.8353576660 106.5299987793
249.5039978027 249.7822113037 90.1800003052
264.1174011230 255.8398590088 165.4400024414
236.0852813721 254.4169311523 101.1539993286
229.9085998535 257.6055908203 102.8076019287
265.9240722656 250.7028503418 162.8499908447
244.9525909424 246.1300048828 127.1679992676
278.9688110352 252.3940277100 201.1199951172
249.2116546631 256.0393676758 92.6703948975
250.7816925049 236.6473693848 143.6699981689
234.2246551514 241.9723510742 148.8300018311
238.9397888184 247.6257019043 126.3418045044
236.1897583008 242.8800048828 129.9100036621
233.0252838135 259.4469299316 102.8940048218
247.7282562256 251.5872955322 94.9809951782
229.9486083984 269.2756042480 107.0176010132
264.5027160645 241.8901062012 151.8190002441
245.4138031006 263.6372070312 128.9311981201
273.6872253418 253.1153564453 174.1999969482
268.0497436523 253.1100006104 173.7600097656
269.0008544922 259.7929687500 177.9299926758
242.6307067871 249.4166564941 130.8860015869
238.3839569092 244.3500061035 129.2438049316
249.5520629883 235.3180389404 151.3220062256
228.0540008545 265.8721923828 104.0400009155
266.1306762695 259.2610168457 172.9802093506
235.1379241943 273.4776306152 118.9570007324
269.6647949219 255.6653289795 165.9609985352
268.9208374023 251.7129669189 202.4199981689
272.1016845703 254.6373748779 197.8600006104
247.9202880859 234.3998413086 145.3049926758
239.7840728760 245.8028564453 149.4099884033
238.4467163086 272.7997436523 124.5099945068
270.0079040527 242.6276092529 159.0269927979
233.0840759277 257.4928588867 129.3499908447
233.1859588623 254.1188049316 126.6968002319
263.7097473145 257.8200073242 168.9600067139
241.3797912598 242.9557037354 130.7618103027
271.2062988281 241.4387054443 154.2149963379
235.7597503662 244.1000061035 143.0100097656
234.4697570801 262.6499938965 99.7500000000
262.7840881348 245.1428527832 165.3399963379
267.9446716309 252.2023468018 195.0899963379
263.7867126465 252.8397369385 165.9499969482
250.2936553955 256.9278259277 87.6539993286
240.0434722900 257.6130371094 102.3560028076
275.0846862793 253.1923522949 193.3600006104
241.1797485352 271.1099853516 119.2299957275
237.1467132568 244.1697387695 131.5899963379
234.9046630859 265.9923400879 110.2799987793
243.4334716797 247.2730560303 131.7660064697
238.8736267090 259.8969726562 95.7695999146
270.9621276855 258.9069213867 173.5431976318
231.8074188232 269.1498718262 102.8100051880
256.3140869141 257.8828430176 91.5200042725
261.9608459473 236.3029785156 153.5199890137
241.8488159180 244.7140197754 132.4700012207
270.2667846680 266.5020141602 172.8446044922
259.4549865723 238.1869201660 154.5653991699
241.7267608643 261.6320190430 94.4346008301
259.2073974609 244.3198547363 147.0800018311
239.5286102295 252.3056182861 130.9376068115
278.2127990723 258.1090087891 185.8061981201
242.6672210693 254.6953582764 126.3799972534
258.2616882324 254.0573730469 88.9499969482
251.1708679199 240.3229675293 156.8899993896
275.3572082520 255.9153594971 179.4000091553
244.5374298096 244.9298553467 126.7799987793
272.1338195801 264.3771972656 176.0811920166
266.5649719238 260.3769226074 171.8753967285
263.5586242676 242.5717773438 149.8459930420
247.5751495361 248.5200042725 88.9929962158
260.0974121094 241.9198608398 153.3899993896
239.2208709717 252.3229675293 130.9199981689
232.1402893066 265.7698364258 106.6149978638
276.3940124512 254.0722045898 197.8000030518
264.1174011230 255.8398590088 165.4400024414
262.3952941895 237.2269287109 154.0339965820
251.8216552734 241.5093536377 154.7203979492
236.9889526367 254.7681732178 124.9269943237
237.4239959717 238.3822021484 143.5500030518
259.1736450195 239.8678283691 152.7939910889
265.6493835449 255.0725402832 161.5340118408
248.3218688965 245.7175292969 129.0719909668
276.1207275391 257.8466491699 185.4459991455
251.3798065186 237.0867462158 154.3000030518
239.8213958740 271.2900085449 120.0487976074
240.4672241211 273.6953430176 121.9699935913
275.9946899414 251.3723449707 175.4299926758
266.7748107910 248.3453216553 177.1809997559
270.2108459473 255.1029663086 178.2099914551
246.7608642578 235.8929748535 145.9799957275
263.8602905273 240.7698364258 165.3350067139
246.2832794189 247.8381042480 128.4340057373
228.1847839355 262.8053283691 97.5309982300
237.7767028809 246.7897338867 141.0699920654
278.7051391602 253.6999969482 173.2330017090
237.0246582031 243.5923461914 134.8500061035
235.5998077393 253.9667358398 127.2200012207
270.0792236328 259.5876159668 170.7281951904
249.2718658447 253.4275207520 130.0719909668
263.5908508301 242.4229736328 158.6399993896
271.1089172363 265.4558410645 178.3020019531
279.0233154297 258.3427124023 190.5679931641
265.3849792480 252.1569213867 167.8253936768
237.2816619873 270.7393493652 118.2003936768
239.0747833252 242.6953277588 130.0110015869
235.6447753906 242.9453277588 135.4309997559
233.9189453125 256.2758483887 104.7620010376
230.3740692139 266.2828369141 107.5699996948
277.0408630371 252.5729675293 179.9499969482
270.3838195801 252.6871948242 179.9311981201
239.0538177490 260.6584777832 101.7313995361
245.3147888184 261.0453491211 126.4609985352
243.7889709473 265.8992919922 123.9890060425
248.2766876221 236.1600036621 146.8020019531
233.3320617676 267.7580566406 116.3320007324
270.3153076172 241.7569274902 157.6540069580
238.0540008545 253.2722015381 125.5900039673
240.0984649658 244.6962890625 141.1098022461
235.8692626953 245.7191925049 136.3142089844
230.2697601318 256.2200012207 98.3600006104
253.7288208008 234.8440246582 149.7500000000
250.5783843994 254.3779602051 91.6859970093
232.0097503662 268.0899963379 101.9700012207
266.5536193848 258.3378295898 167.5540008545
273.9685974121 256.9656066895 183.5276031494
250.2349853516 243.0369262695 154.9953918457
245.5063018799 250.4587097168 126.1050033569
268.8792114258 242.3875885010 160.4481964111
236.3308715820 266.2629699707 124.0100021362
236.7621307373 265.5369262695 106.0431976318
231.5674285889 264.4798889160 96.9400024414
239.3921356201 258.0269470215 101.7732009888
263.9025878906 240.7700042725 148.4179992676
247.7740020752 252.1322021484 129.8099975586
245.2797546387 252.0700073242 124.8899993896
279.5121459961 255.2669372559 176.8731994629
239.5039520264 269.3599853516 116.7538070679
252.2188262939 251.9140319824 89.9599990845
268.7927246094 258.9301147461 196.1689910889
265.8857727051 255.3059234619 198.6630096436
275.0446777344 257.1123352051 188.6799926758
280.0351562500 251.8399963379 172.6529998779
246.7167053223 255.2697296143 131.6600036621
273.3920898438 254.6480407715 194.6020050049
235.7279205322 247.7976226807 143.8970031738
242.1420593262 235.1003875732 148.1269989014
270.1763000488 243.3887023926 154.0050048828
228.8317565918 264.7467956543 97.1609954834
273.2308654785 255.2429656982 185.4299926758
240.7713928223 246.1900024414 126.4888000488
254.4974212646 239.9898529053 152.1399993896
266.8357849121 253.8159027100 195.3430023193
252.9288177490 236.6540222168 154.0399932861
234.0386047363 269.0556030273 110.5176010132
247.8919219971 248.7189941406 93.9280014038
241.9234771729 257.1530456543 103.8960037231
240.2388153076 266.7440490723 121.6800003052
241.8398132324 256.7867431641 86.8999938965
236.0689697266 256.0992736816 123.7089996338
262.7174072266 245.5698547363 156.0500030518
266.2225952148 255.6600036621 157.1679992676
268.1536254883 254.0269775391 177.2095947266
231.5808715820 257.6029663086 129.0699920654
280.0927124023 255.5700988770 175.6689910889
278.3040161133 252.2622070312 199.7200012207
268.9739685059 257.3200073242 165.1938018799
245.8316955566 255.8773651123 101.7700042725
236.9321441650 271.5169372559 117.3232040405
235.1616821289 255.2473754883 123.4100036621
273.1316833496 251.7473754883 200.2299957275
245.2640686035 252.6828460693 132.0599975586
273.1314086914 259.2000122070 177.6287994385
262.8340759277 238.5628509521 154.5599975586
244.3074188232 248.7598571777 130.0700073242
277.2153015137 254.0269317627 195.7440032959
237.5472259521 246.4953613281 138.0599975586
231.1851501465 246.3399963379 138.0429992676
240.1097564697 256.7399902344 91.7999954224
236.0852813721 254.4169311523 101.1539993286
272.7947998047 255.6453094482 173.4709930420
234.5552825928 243.8369293213 142.9840087891
243.3174285889 238.8198547363 144.8899993896
281.4016723633 253.4793548584 176.4204101562
228.1847839355 262.8053283691 97.5309982300
272.8440246582 251.2322082520 174.4799957275
241.3455810547 266.7759094238 124.4290008545
249.0897521973 241.4900054932 150.7100067139
272.1778869629 243.5276184082 157.0569915771
261.7336120605 245.0169830322 161.3395996094
237.0540771484 256.4828491211 130.4599914551
267.5292358398 257.8992004395 166.5142059326
277.8921508789 254.0469360352 182.7332000732
234.5088195801 264.3240356445 107.7099990845
240.4774169922 267.6698608398 105.9500045776
233.8936462402 268.0078430176 102.1140060425
243.2316894531 246.2673645020 127.3600006104
248.6607208252 254.8266448975 90.1459960938
252.0366821289 237.8800048828 146.9920043945
268.6846618652 250.6223449707 201.5800018311
266.1727294922 241.9300994873 150.3389892578
241.1213989258 252.9700012207 125.5187988281
272.6421508789 243.5969390869 155.4631958008
232.5486145020 256.2556152344 128.8876037598
257.2142944336 241.7140655518 148.4324035645
238.4572296143 245.4153594971 144.3000030518
245.5151367188 237.9400024414 142.6230010986
236.9197540283 239.5899963379 142.9900054932
260.0338134766 242.5571899414 153.0012054443
278.3682556152 253.5572967529 197.6710052490
260.6617431641 244.1068115234 165.6010131836
234.0134735107 246.9530487061 143.9160003662
235.4007110596 268.3066406250 103.2060012817
258.7951354980 241.0800018311 147.1930084229
237.2788238525 266.5840454102 118.6699981689
234.8908691406 242.8529663086 143.2500000000
281.8021240234 251.6469268799 195.0731964111
269.0942993164 257.2240905762 169.8923950195
268.8534851074 263.2230529785 177.6060028076
266.0697326660 243.2700042725 153.3300018311
263.3659362793 253.7288055420 170.3368072510
236.3757629395 237.3759155273 134.1230010986
271.0674133301 256.8498535156 199.2500000000
240.4059600830 253.4687957764 101.1767959595
238.7827758789 254.8789978027 130.7061920166
269.7521362305 254.9969329834 169.9631958008
232.3838043213 269.0971984863 107.4711990356
236.7389373779 256.4158325195 130.5520019531
247.8899993896 252.0108489990 131.5000000000
232.8667144775 258.5497436523 128.5099945068
236.2008666992 270.7529602051 123.1500015259
246.0808715820 239.1929779053 149.9899902344
258.9759521484 252.4788055420 160.8068084717
276.4482421875 251.1472930908 193.7910003662
238.1755828857 245.2359161377 150.3789978027
229.7608642578 258.2129516602 100.7400054932
236.3274230957 271.4698791504 121.7500000000
267.2633056641 254.7526855469 172.1779937744
238.2308654785 261.1229553223 127.6800003052
244.7751464844 252.2100067139 125.2929992676
272.6297302246 256.6700134277 197.2400054932
270.7989807129 255.2492675781 160.3789978027
239.3959655762 249.0688018799 129.7368011475
237.1982727051 238.2133789062 144.0260009766
245.5240783691 258.0228576660 92.2200012207
239.8059692383 255.5887908936 93.7368011475
231.1017608643 259.5068054199 100.3409957886
235.0027770996 259.1189880371 103.1361999512
240.4774169922 267.6698608398 105.9500045776
255.5459747314 237.5187988281 152.9568023682
241.5382843018 254.8433685303 92.3759994507
254.0808715820 241.4029693604 151.0199890137
233.9189453125 256.2758483887 104.7620010376
247.8899993896 252.0108489990 131.5000000000
268.8792114258 242.3875885010 160.4481964111
280.4938049316 252.4171905518 197.3412017822
269.6647949219 255.6653289795 165.9609985352
257.2041015625 242.5828552246 152.3600006104
237.1167602539 246.5120086670 136.5646057129
234.2436218262 270.2169799805 108.2496032715
245.0755767822 248.9659118652 128.0090026855
262.7997436523 252.4400024414 156.2799987793
272.8036193848 260.9169921875 178.9895935059
255.5382843018 253.4833831787 88.9059982300
271.4821472168 254.3969268799 162.7431945801
231.4386138916 247.7456207275 141.9575958252
267.8688049316 240.4640197754 158.5200042725
247.2432861328 247.2781066895 127.6439971924
259.2073974609 244.3198547363 147.0800018311
251.3957672119 254.5959014893 90.2130050659
277.4708557129 249.5329742432 195.2599945068
272.1828002930 260.9389953613 183.0861968994
243.2872314453 253.1853485107 125.6999969482
245.4897613525 245.4199981689 125.6800003052
268.3997497559 257.0799865723 193.5800018311
270.5827941895 257.6390075684 168.6461944580
278.3040161133 247.9822082520 193.5800018311
243.5221405029 249.8869323730 129.2831878662
234.9972229004 249.1553497314 138.6800079346
236.6600036621 234.7308502197 151.9700012207
240.8149871826 271.1269226074 119.0554046631
236.2159576416 265.2287902832 122.8167953491
245.6972351074 258.4653625488 89.9799957275
235.9755859375 265.5059204102 114.3690032959
275.6034851074 259.4230346680 201.2259979248
241.0992126465 244.0175933838 130.7781982422
258.2616882324 254.0573730469 88.9499969482
244.6907348633 255.0599975586 89.4525985718
235.3974304199 237.1998596191 148.3399963379
266.8359375000 258.0887756348 173.9968109131
269.5974121094 256.8998718262 200.2400054932
280.2767028809 256.4197387695 192.9700012207
261.9852905273 240.2069244385 166.3440093994
238.1827850342 247.0290069580 151.1461944580
264.6667175293 259.1097412109 170.6399993896
268.3099670410 251.5152282715 164.9573974609
259.9239807129 241.2700042725 154.4537963867
255.1826477051 236.8068084717 149.5829925537
278.8697509766 257.9299926758 186.0700073242
274.8008422852 252.0429687500 178.8699951172
252.5597534180 235.9199981689 147.7900085449
266.3359375000 253.1088104248 197.9468078613
229.2582550049 257.4673156738 101.6510009766
274.6136474609 257.5478515625 184.3539886475
246.7613983154 250.7799987793 91.2088012695
234.5107269287 268.3999938965 111.1725997925
261.6051330566 252.8000030518 155.9029998779
238.4286193848 273.7517700195 122.1660003662
264.1582641602 248.1633758545 160.4759979248
231.6617584229 257.6167907715 124.6609954834
272.1016845703 254.6373748779 197.8600006104
235.0647888184 265.3253479004 112.4510040283
239.5834655762 263.9430236816 129.8159942627
279.7702941895 252.2698364258 200.6649932861
231.1040039062 271.0522155762 115.4200057983
270.8772277832 251.4453582764 174.0599975586
252.6999969482 236.7508544922 154.2799987793
267.4042968750 244.3140716553 153.9824066162
237.5582580566 270.3073120117 124.5709991455
238.1920623779 246.4480438232 128.3120117188
238.5721435547 269.3469238281 110.8331985474
275.5499877930 258.8352355957 193.9774017334
249.8988189697 247.3940277100 91.0399932861
236.7182617188 238.9573059082 135.3410034180
261.1718750000 239.9775238037 149.5119934082
276.0114135742 252.7700042725 174.1087951660
272.6289672852 263.7892761230 172.0390014648
266.7748107910 248.3453216553 177.1809997559
280.2193908691 256.3425292969 196.2440032959
249.9039611816 240.2599945068 148.4638061523
270.1653137207 253.0469207764 164.1040039062
236.4333953857 261.4298706055 104.5825958252
237.5782775879 265.7433776855 107.9459991455
241.2327880859 254.9989929199 131.4061889648
257.1672058105 241.3753509521 148.0400085449
262.7122192383 238.4898681641 154.5500030518
249.9622039795 250.6198730469 87.3599929810
234.2146606445 241.6123504639 132.0699920654
254.0043029785 254.9340667725 85.7223968506
245.8316955566 255.8773651123 101.7700042725
238.2613983154 237.6100006104 145.0888061523
233.6197814941 237.0157012939 132.6717987061
257.3772277832 243.0253601074 150.1200103760
236.5067138672 259.0397338867 126.3600006104
238.9446563721 247.4623565674 130.6300048828
259.9873962402 256.6098632812 170.0099945068
231.4386138916 247.7456207275 141.9575958252
279.7627868652 256.7890014648 181.9861907959
236.6786041260 240.5956115723 133.8675994873
235.1536254883 271.2569885254 108.8896026611
278.5326538086 254.4268035889 180.7429962158
274.0643005371 254.4540710449 174.1723937988
268.7627868652 254.8589935303 205.2661895752
237.5472259521 246.4953613281 138.0599975586
236.8336486816 238.8478240967 146.9239959717
241.9621429443 238.5369262695 147.5031890869
234.2672271729 261.2853393555 99.1499938965
270.5599975586 249.1608581543 177.1399993896
237.4106903076 245.6610260010 133.6002044678
241.2255859375 253.2059020996 130.6389923096
257.1297912598 240.7957153320 166.0518035889
235.8914031982 257.0299987793 124.2888031006
277.3589477539 259.1181945801 179.6569976807
272.3189392090 244.7881774902 154.8170013428
242.8733062744 252.7526855469 131.5379943848
265.5988159180 248.1540222168 164.1100006104
241.6492156982 242.8875885010 141.2182006836
250.9816894531 250.7473754883 90.7399978638
266.8882446289 252.2872924805 179.6009979248
235.7367095947 243.6497344971 132.3499908447
247.4716949463 245.1773681641 126.8000030518
246.9400024414 244.3008575439 130.5000000000
238.8192138672 267.2376098633 106.0181961060
259.4549865723 238.1869201660 154.5653991699
255.0991363525 241.1458587646 153.5440063477
264.6036376953 256.5169982910 164.7195892334
253.1392669678 239.9891967773 147.9141998291
278.3267211914 253.5197296143 179.3899993896
229.7608642578 258.2129516602 100.7400054932
244.8236236572 254.7369842529 128.6396026611
267.0717468262 253.3267974854 177.5709991455
236.1007232666 261.0199890137 100.0625991821
267.0732116699 250.6245880127 164.6779937744
229.4697570801 269.3599853516 101.2099990845
264.3392028809 240.1075897217 157.7081909180
238.4572296143 245.4153594971 144.3000030518
243.9567108154 258.9397277832 102.6299972534
264.9072265625 250.1253509521 159.7799987793
235.0867156982 247.2597351074 150.2400054932
276.1740722656 259.8128356934 182.0999908447
233.0108642578 265.7429504395 107.9900054932
230.2708740234 272.6029663086 117.1000061035
242.9546661377 237.0123443604 145.4499969482
263.9372253418 245.7853546143 159.8600006104
247.9508666992 238.9429779053 151.3499908447
278.2483825684 258.1179504395 185.1360015869
264.7851562500 240.0599975586 147.9029998779
249.0989532471 235.6081848145 144.0869903564
276.3097534180 256.6799926758 175.8500061035
236.9246673584 270.7623596191 124.2299957275
241.1213989258 252.9700012207 125.5187988281
243.1386108398 240.1256256104 148.0876007080
235.7597503662 244.1000061035 143.0100097656
244.7367095947 262.1097412109 89.1899948120
259.8916625977 239.1573638916 149.3399963379
233.2833099365 262.1026916504 104.6080017090
252.1936187744 256.8869934082 86.8395996094
246.6151428223 249.8200073242 90.4929962158
240.8231811523 265.2045593262 121.8880004883
281.1053161621 250.3369293213 177.9040069580
261.7591247559 242.7958679199 157.5940093994
260.9633178711 238.7926940918 154.9779968262
264.4940185547 252.8922119141 169.2600097656
259.9997253418 253.8000030518 169.2700042725
268.9433898926 252.6498565674 180.1726074219
233.3427276611 257.9501037598 125.8789978027
239.4440002441 261.1022033691 122.8300018311
236.9897613525 262.0599975586 124.1299972534
238.4407196045 270.9666442871 118.2159957886
244.6516571045 258.8693542480 93.3603973389
231.7882843018 243.2033843994 139.3260040283
259.4549865723 238.1869201660 154.5653991699
263.4889526367 240.7181854248 162.7570037842
238.7755737305 253.0859069824 129.9389953613
235.0847778320 236.3853149414 131.5209960938
272.9474182129 257.3498840332 200.2500000000
236.3813934326 240.1699981689 143.1188049316
281.6016845703 258.1493530273 190.1404113770
266.3666992188 257.9497375488 166.9299926758
240.7689361572 272.3458557129 125.0219955444
235.8914031982 257.0299987793 124.2888031006
236.5067138672 259.0397338867 126.3600006104
233.6227264404 276.0501098633 116.2990036011
258.9759521484 252.4788055420 160.8068084717
244.0443115234 258.4240722656 89.1123962402
231.0467071533 259.1597290039 100.1800003052
234.6108703613 270.7829589844 112.2400054932
236.9074249268 245.7998657227 144.8600006104
277.8586120605 257.3356018066 203.0276031494
231.2582702637 255.0933685303 100.0859985352
269.0603027344 250.2298278809 179.1949920654
245.0037994385 257.1571960449 94.7211990356
276.8282775879 250.8133850098 175.0159912109
258.6374206543 246.1798553467 151.7799987793
270.4272155762 259.6053466797 172.4000091553
236.4246673584 261.3123474121 125.5299987793
238.3839569092 244.3500061035 129.2438049316
264.9616699219 251.9973754883 172.8899993896
246.2239532471 235.0000000000 145.8638000488
235.6152954102 270.1669311523 118.6840057373
234.0520629883 268.1180419922 107.8219985962
243.7797546387 259.5100097656 86.3699951172
235.0946655273 240.7323455811 144.0800018311
245.2040710449 238.4528503418 150.6699981689
266.3788146973 253.6740264893 168.7599945068
233.9892120361 269.0975952148 105.9981994629
269.1125793457 265.0599975586 174.0180053711
245.8114013672 239.0599975586 143.0688018799
269.5804748535 256.6669311523 169.0173950195
238.1067657471 245.8020172119 130.3946075439
242.5616912842 247.1773681641 132.3500061035
251.9674224854 257.9898681641 87.9199981689
239.9983825684 266.3979492188 120.7959976196
233.2062988281 246.3087005615 138.4649963379
269.8216857910 256.8793640137 163.6504058838
263.5589599609 253.7792663574 156.3089904785
243.7797546387 259.5100097656 86.3699951172
236.3739929199 266.2521972656 115.0500030518
239.3908691406 263.3829650879 129.7099914551
266.4107055664 245.6566467285 159.3260040283
259.6708374023 254.1429748535 171.5099945068
257.3227233887 257.1401062012 89.9889984131
268.4562988281 251.5487060547 195.8750000000
242.4289703369 272.8192749023 119.6290054321
268.9433898926 252.6498565674 180.1726074219
262.8925781250 257.0199890137 168.6880035400
269.5840148926 257.7221984863 172.6800079346
267.0786132812 259.7256164551 176.8876037598
263.1736145020 245.7669830322 156.0495910645
267.3916625977 252.2173767090 160.9499969482
240.5037994385 261.7272033691 127.9112014771
238.5488281250 256.3340454102 128.8899993896
269.7543029785 261.8740844727 171.9324035645
272.7818908691 262.2275390625 175.7019958496
236.7688293457 235.0640258789 149.4599914551
275.7946777344 249.7023468018 193.0299987793
250.7527313232 242.5801086426 152.9189910889
268.9208374023 251.7129669189 202.4199981689
235.9440765381 245.1928558350 152.3999938965
275.8497314453 259.6099853516 198.1100006104
248.1414031982 238.7799987793 142.4888000488
247.8899993896 252.0108489990 131.5000000000
236.3739929199 266.2521972656 115.0500030518
268.8046875000 261.7623596191 177.0399932861
234.7797546387 242.3600006104 130.6699981689
276.9388122559 250.2540283203 177.7500000000
280.2649841309 258.8069458008 203.1353912354
240.4672241211 273.6953430176 121.9699935913
274.6408386230 254.4729766846 186.1199951172
246.5738067627 245.2471923828 130.7812042236
246.2251434326 235.9600067139 142.4629974365
240.7367095947 239.9797363281 148.9900054932
236.7840728760 239.0428466797 154.0599975586
244.6279144287 246.4276123047 131.9669952393
265.1989440918 235.3681793213 151.3970031738
275.2320861816 252.5103912354 189.2369995117
259.3697509766 244.9600067139 146.7700042725
271.8440246582 261.5822143555 171.8300018311
272.3188171387 250.9140319824 201.0699920654
230.7082672119 246.8372955322 141.2910003662
234.9297485352 255.2299957275 98.3199996948
239.7940673828 264.1128540039 110.8499984741
245.9638061523 238.6671905518 150.4411926270
245.4667663574 257.3820190430 90.0746002197
270.0616760254 255.3373718262 171.8500061035
237.9946594238 260.0323486328 126.8399963379
234.1108703613 239.0029754639 152.5399932861
261.7086181641 250.9656219482 165.3376007080
263.6699829102 248.4252319336 159.2673950195
236.4766845703 259.6000061035 99.6119995117
235.1013946533 238.8999938965 130.2487945557
275.6182861328 250.2933807373 175.8159942627
231.2051391602 262.4599914551 95.6029968262
241.7033996582 244.4498596191 131.9126129150
260.0338134766 242.5571899414 153.0012054443
233.4239959717 259.4021911621 99.4300003052
239.6882629395 264.5773010254 128.4010009766
240.6246643066 244.3523559570 128.6999969482
265.1916809082 239.6773681641 153.5599975586
280.1940917969 255.3728485107 197.2099914551
281.7589416504 251.3181762695 177.8369903564
265.6667175293 246.9597320557 158.2599945068
251.3536224365 257.5869750977 87.8896026611
261.6689453125 240.7281799316 148.8170013428
239.9599914551 250.6552276611 126.4774017334
263.4788208008 241.4340209961 161.9799957275
259.9467773438 250.1620178223 161.6146087646
238.2252960205 243.8369293213 150.0940093994
244.8236236572 254.7369842529 128.6396026611
263.5586242676 242.5717773438 149.8459930420
269.4202880859 251.7398376465 197.9049987793
279.0233154297 258.3427124023 190.5679931641
271.9392089844 254.6175842285 163.6882019043
273.5064697266 251.6112365723 178.0500030518
274.2308654785 257.2629699707 183.8300018311
236.1965789795 270.2516784668 106.9057998657
261.7740173340 236.9822082520 150.1699981689
264.2352905273 251.4969329834 173.8339996338
246.4700012207 263.6252441406 126.0774002075
235.4452819824 264.1869201660 107.4039993286
238.4659576416 254.1088104248 99.8468017578
240.5037994385 261.7272033691 127.9112014771
253.8627777100 253.9089965820 92.7261962891
234.2597808838 257.9157104492 97.7018051147
268.0927124023 258.2601318359 199.0690002441
243.3174285889 238.8198547363 144.8899993896
241.4392089844 267.2276000977 116.6281967163
258.1439819336 236.4199981689 152.2638092041
239.7940673828 264.1128540039 110.8499984741
233.8372344971 248.4753570557 137.5599975586
228.8317565918 264.7467956543 97.1609954834
234.1834716797 256.6030273438 130.0760040283
266.1419372559 254.3889923096 199.6380004883
260.9363098145 251.7286987305 158.2749938965
268.6749877930 261.6869506836 171.4953918457
265.8674011230 244.3298645020 154.1699981689
237.6597900391 253.8857116699 99.4818038940
280.5479125977 253.3976135254 198.0769958496
233.5997924805 265.9557189941 113.6018066406
263.8767089844 245.7997283936 156.8899993896
266.4116821289 248.9873657227 163.2700042725
247.3759613037 236.3787994385 150.7368011475
283.2953186035 254.1669311523 188.7940063477
227.5497589111 267.0799865723 103.4799957275
240.3993988037 274.1425476074 123.5939941406
277.0434875488 252.8930511475 179.7859954834
235.2808685303 239.1529693604 153.7799987793
255.7882843018 237.2033843994 149.3659973145
272.3404846191 257.6069335938 176.6673889160
277.9257812500 254.4059143066 201.1930084229
269.0482788086 243.8833770752 154.0459899902
267.5852966309 251.8169250488 167.0240020752
265.7934875488 256.2230529785 163.4559936523
244.6716918945 256.6873474121 89.6500015259
234.6725921631 236.5599975586 148.6380004883
257.2142944336 241.7140655518 148.4324035645
238.4572296143 245.4153594971 144.3000030518
236.9116668701 271.8293457031 111.7403945923
228.0219268799 265.6889953613 105.9980010986
244.2557678223 243.5259094238 127.7229995728
237.1940765381 246.5728454590 143.8499908447
254.6152954102 252.7269287109 91.5440063477
269.5340881348 255.1128540039 178.2699890137
266.3797912598 253.5157012939 203.7317962646
244.6938018799 245.0771942139 132.0211944580
240.1107177734 246.2566528320 133.9260101318
239.3921356201 258.0269470215 101.7732009888
279.4649658203 258.2369384766 180.8353881836
244.9952850342 255.0369262695 93.8140029907
239.2097625732 245.7899932861 128.0700073242
274.6136474609 257.5478515625 184.3539886475
264.5216674805 257.3993530273 172.8504028320
232.0197601318 273.9800109863 113.5799942017
246.3946685791 253.0123443604 93.9899978638
240.3116912842 241.0173645020 136.1600036621
243.6714019775 239.5700073242 144.4588012695
239.6013946533 256.8399963379 95.0288009644
281.4527893066 255.9490051270 192.2761993408
241.1467132568 273.8197326660 120.9899978638
238.5359649658 245.4488067627 129.3268127441
259.9873962402 256.6098632812 170.0099945068
236.2504730225 265.6669311523 103.7774047852
249.0536193848 242.2369842529 152.9795989990
237.4085998535 259.9855957031 99.8376007080
249.5446624756 253.4623565674 86.8499984741
241.3092041016 258.2376098633 123.0281982422
235.4127349854 249.3301086426 142.6790008545
237.6608734131 267.3529663086 124.3600006104
251.1740722656 239.2728424072 157.2899932861
235.6897583008 270.5100097656 107.8499984741
276.8282775879 250.8133850098 175.0159912109
257.7638244629 241.6571960449 153.1311950684
235.1951446533 242.1699981689 129.3830108643
267.8988037109 251.0740203857 165.0200042725
274.3999938965 256.3052368164 176.4673919678
249.4782714844 250.0533752441 90.1359939575
234.3920593262 241.0480499268 146.0520019531
268.0516662598 243.0273742676 154.4499969482
240.1955718994 257.0959167480 124.1790008545
229.4582824707 266.6733703613 103.0059967041
278.0751342773 253.8300018311 197.8229980469
257.3227233887 257.1401062012 89.9889984131
237.9007263184 245.1499938965 130.2626037598
282.2072143555 259.7753601074 187.2700042725
235.0647888184 265.3253479004 112.4510040283
261.8239746094 247.5000000000 158.8838043213
265.6473999023 257.2498779297 161.4100036621
230.2697601318 256.2200012207 98.3600006104
270.1431884766 257.1145629883 170.9679870605
266.3221435547 236.1769409180 150.9531860352
266.8997497559 261.0100097656 172.0600128174
235.4452819824 264.1869201660 107.4039993286
268.1519165039 263.7890014648 176.3980102539
239.0747833252 242.6953277588 130.0110015869
