219.9080871037 102.8986735857 212.2241619817
223.7156038249 155.8268026145 228.1496570724
194.5196547304 134.9950514190 223.4712958044
197.2074072875 149.8712266391 215.2949466132
207.8581001509 153.4735500585 217.7383774857
232.0993890810 92.7182573603 226.5220217850
207.1066479765 152.5913979099 222.0411635283
222.0337977359 47.5617198968 256.6757172901
219.8455645626 152.2356849862 223.1525048123
216.7946848717 118.5771476940 215.9105929327
201.6324424599 151.6916446397 218.8612790347
205.9307580612 152.2739363159 221.1505168154
211.4117434876 122.0337780356 216.9548994526
222.6268452887 85.3667575421 242.5501649257
207.1780850199 150.6519791822 215.2307530866
213.5492798205 161.0405327027 224.0892026991
219.4062920976 101.9067411718 216.9909650071
213.6309548484 105.7568377786 217.6533428133
209.7270556930 154.6215642187 220.3787225094
220.5716999195 61.1172832816 252.8741860811
196.6356587127 127.1208717947 227.9507931466
200.5384110164 120.9148134930 216.0717420173
236.6241253505 96.4775862753 233.0099543552
210.6918852439 156.2963668773 220.5678148582
220.1578389598 95.5755896855 223.2087033868
217.7440260747 111.2516833895 210.0877210346
212.4226852970 110.1425535147 215.2497568436
225.6900869181 87.6854158797 236.7092955787
201.3537152081 154.2556851935 216.7129345927
232.1721013604 95.7924877861 229.7817116875
199.9185122118 145.9681082346 219.1918061534
222.9123947507 103.7383081847 217.0364305976
196.7391287126 137.7322630303 228.4356674370
197.7328304885 131.8834933289 233.2377773806
229.8011118787 97.6926100693 228.1801442572
199.0082541069 139.2543079442 225.0165875904
222.9067026821 60.0125468404 253.0365642645
226.5307698970 100.9408788826 219.2317666035
206.7858797157 108.3210882082 214.8237804806
213.9301999697 74.3095717316 256.7881567821
222.0926037855 60.0786766648 262.6746013751
218.5166738097 47.3102819367 260.9893148589
215.6278953429 81.3679267470 245.4083822250
219.5680806415 93.3405110196 223.3054389761
219.2091918459 69.8584670855 257.9464188265
221.9295401763 82.0177625722 246.7888839666
221.8966725785 64.1621402472 251.9821301562
212.9519229571 151.8808339932 222.3926350773
206.6091093553 119.2899822185 218.8295275636
222.9787567523 57.9733050124 251.9578913199
229.9182019248 98.7010546813 223.5952812937
217.9024506121 98.3867396648 215.3565835754
233.2235154177 96.1069102098 236.3733734764
223.0706964155 63.0854185822 259.4741698050
202.8182910232 126.0201423462 223.2163993505
224.8231582860 90.6095616176 222.1205213401
222.8064073114 48.0754429767 252.7096328071
206.9958140118 152.9350545758 220.6042025856
219.7714196001 154.7533307338 226.7833416767
220.0153817528 47.2342986679 256.2149812039
235.7198884387 94.3078901967 231.8041312066
228.1338474545 97.7466390719 234.0761275886
221.6601577211 51.1775711912 255.6894419464
212.9627090443 115.8949742381 218.4750187663
225.2119395389 97.0797275479 225.3249442424
211.4914458725 106.7914232460 216.1126572933
229.4171518255 70.4917963233 256.9474555517
225.9276143544 61.8910549613 258.4167823367
217.9877730018 83.0539436641 249.1376168464
214.1396514709 104.4150031554 211.3580222635
212.8550290150 77.1935589682 250.8278968901
200.2347446812 129.8226510563 228.0835404593
223.7251930315 70.2920787460 245.5590347043
223.0706964155 63.0854185822 259.4741698050
215.0494561498 117.8023242348 225.3235917609
217.7945415129 98.7167748426 209.3072177412
220.5985766764 161.4956001029 230.6834897963
220.2826774234 47.7890041186 248.2974395959
223.1013535771 157.9157601816 225.9718454096
194.1344983690 147.7425038170 217.6612328819
221.8401298712 61.0319883086 255.0539280176
225.5903991356 155.0518912813 222.2551208270
218.6914158286 67.9490141610 256.6434732395
225.0557144854 67.0126455388 255.1473892445
202.5870594239 119.2834086885 217.3741398014
223.9135723951 96.0330810861 231.5497564675
224.1508292528 65.5476620420 256.1629563674
204.3001639199 149.7656947203 216.7724242922
223.9476778623 74.5804106541 244.1031492658
216.5533437839 98.5976411675 215.2218650375
206.9293397629 110.1286061097 212.7704372324
213.7602900069 117.1682607614 220.7331905792
208.9060093331 99.3339208278 213.3245154290
201.3860653477 138.2548049277 226.9380462385
204.2930314676 146.0565263218 223.0774506869
213.2437198447 149.8796428511 221.5005186183
217.2653747844 109.7756590502 215.4159060984
227.3052883772 88.7661450235 235.1149009306
208.2480040300 104.4559876444 211.4264707847
216.7609022076 50.7278023266 255.8977244747
225.5477117594 100.2805511247 234.0957203560
214.6817205405 52.2375100963 251.8823233192
221.2231274573 120.4016402536 218.3794036707
222.1405377679 91.1323001955 222.6572505097
223.3460113843 67.5186397767 257.4837623761
228.3245806087 54.1618389201 256.3264071877
224.5323445718 94.6540210300 216.8527379720
222.7111538929 74.9346930064 249.7505917925
220.1169979748 98.6309955272 221.1140399770
216.0568052507 74.3378786691 255.9747901888
216.8984828103 44.5463105224 249.5585756972
233.5848009203 95.9878927230 229.1206987873
223.0695606878 49.9155060120 255.8529521652
202.0867372047 121.6695066537 225.4437256220
228.3245806087 54.1618389201 256.3264071877
224.3068142618 87.8310471191 247.0310132773
216.7334585761 81.9916109243 245.8118339190
225.2071072421 100.0672662183 216.0842969280
221.9768000403 57.0025423221 259.3316335586
201.1549128523 122.7506260575 215.5112657816
199.9185122118 145.9681082346 219.1918061534
212.6209813590 160.5802311298 226.5673229326
198.2491040017 144.1652526413 226.6851701591
213.4373767549 159.0123353281 225.2398799870
228.8319671551 96.7735655580 225.2825926177
232.8112211438 91.2532727826 239.0546782596
219.1789983321 74.1607199622 253.6157395904
220.6823735358 46.8864323529 258.7013898911
214.0654038473 107.8637988770 215.7209262104
221.2803702879 153.4848851975 225.7071007646
202.6306760099 139.0210256158 226.8133276843
199.5552639828 148.0741582542 223.8987793369
219.0948968124 51.0458635482 249.8317699608
218.9115937685 71.3133882780 249.5134893487
214.4367621075 101.2267129316 217.0808041978
218.4685938435 86.1670585612 245.4295181832
216.7537896769 89.0841345496 241.6816393893
221.4706301974 53.8042538804 254.8004292476
222.1405653047 96.7215729611 220.6940004973
219.3263931595 54.2361486624 258.1526812175
211.5677855741 77.8711838619 256.3298094700
225.6680229211 80.1971294656 236.2236156597
207.1066479765 152.5913979099 222.0411635283
193.7230058531 144.0647497165 220.7430394161
221.5614551005 157.3549516048 221.5515718365
222.5704852868 89.9129223278 224.1043059567
215.3612775346 67.2606572244 253.6288130046
222.4359138130 95.2297374518 220.2731388556
218.0036696667 98.0346287080 215.2624841148
215.2654006729 55.7647718980 252.3229016993
199.4773695065 154.2287425979 217.5614899858
224.3379952883 72.1418448614 249.3966802465
196.5183701748 143.6755542564 222.2794335670
212.5433559036 144.3016320753 223.8421940858
198.5228461006 145.9387858538 215.9869377305
224.7727477931 68.9275208055 254.6876720780
227.0996490078 94.1509165139 230.7465375383
200.3326446941 122.0861583273 216.4240530666
219.0168572843 157.9286248817 229.5826820569
193.7612173282 135.6880726233 228.7902831950
224.1930751630 50.6537878536 256.3564011511
229.9978235779 95.6039277228 236.6390968051
212.1329944340 76.7541143086 257.8720613495
198.5709068783 152.9487605639 217.7345300526
193.7482022782 128.5089716438 233.1260373121
200.1959485852 145.8031443658 218.5925394303
197.8592307492 127.1834402053 232.2630811657
220.0314052755 66.8645829619 256.8734430224
224.9352888723 66.1795047448 253.0366205252
200.5399273406 150.2329228631 221.9611377847
213.0888782088 120.1457055366 228.3288360161
220.8949735877 155.7881892061 227.7252466176
235.7188537023 95.5484443448 230.2323333010
211.3431400209 73.7259153480 257.7159945996
210.8586444221 109.3809792484 212.0239351417
206.5723092582 145.3985445405 219.5987969639
216.5621644978 81.7790730581 246.0544743345
228.0468551627 72.1085191615 257.5922382672
223.8659772302 63.7806438450 254.9950853462
210.1011388767 95.3868530492 214.6025892811
217.5088616899 82.3251219988 244.7495477042
196.4578268491 144.9690221732 223.7597246726
192.5139205162 148.9422122852 219.5950444780
214.2212533504 122.8053275178 221.5742042310
209.1453068288 149.6537436815 223.2200853118
215.3493317319 120.7413701292 227.2254031893
220.6668713625 89.9790289203 248.2198557266
216.8984828103 44.5463105224 249.5585756972
220.5520211920 100.8169036156 212.3434030916
228.5035666515 50.7148020599 255.2220838341
201.0928422007 127.3998684000 228.5396226737
205.6981282344 122.6645491858 216.0378225741
226.0044243699 57.5182401264 255.6380722473
218.6045282059 50.6133307246 261.3155471913
210.9993092182 120.7176975047 224.7062840591
223.4894445789 72.1166471664 248.9965867436
227.5382568369 73.1659017612 252.2425656268
224.8022517630 85.5660560255 235.5525754030
226.8904516562 91.0150424560 233.1420063217
222.4886251869 156.2302389629 232.5891833001
210.5389125441 149.2365155242 223.7718617288
223.7258470794 86.7237408327 246.9461396957
224.5271712594 103.9148502848 219.6706481132
203.2356616352 139.2945155717 225.7458955172
211.1042741244 100.1770136754 217.0500474959
230.5601781025 91.7068021071 225.8322858135
217.8270672076 86.3201236827 245.7450957629
229.2964642580 96.9900975025 234.7253453014
206.4937271029 149.5736522985 220.4807289923
218.4098181125 75.6759954387 249.2000893848
223.1368879297 160.6719268401 233.6243428977
220.2399712992 77.5520005636 247.5507431401
222.7183364841 151.7883168836 225.0304829736
219.8736332368 100.8718585863 211.3671065021
192.5139205162 148.9422122852 219.5950444780
211.5477075017 104.9058620236 210.6227620645
215.4566740813 96.5935571897 210.7310561790
218.6045282059 50.6133307246 261.3155471913
190.7257730577 137.7389121782 228.2384641715
213.6390938323 148.1244167410 218.0124275674
220.4717938388 70.7925152857 251.3742165702
223.2556002034 69.9446415273 249.7123532452
211.8718212806 162.6575018478 226.1912003504
195.7154730173 134.5665900322 223.2577534719
221.9620775152 97.4297267007 212.0721988078
204.9316565014 145.5310479816 212.2347470453
221.5233569047 97.3431529091 223.1346825571
211.9842001825 105.3166273980 215.9839033306
209.9043315122 146.9671147768 218.7932035498
201.6324424599 151.6916446397 218.8612790347
199.8999492665 143.6949828420 227.0873415532
222.3643104147 71.4949287615 257.4613051293
214.3840060788 72.8836204183 250.0351324575
211.4652396911 148.9720713329 216.9706811254
234.2480406482 92.3570903591 240.4591140423
226.8183731345 59.0248787238 259.8025286782
202.1566340266 125.0463310563 232.0228872012
214.5844237763 98.5872850962 213.7174271101
195.0855434687 132.8104282081 227.4869522016
197.4473511080 151.4496672670 213.9897008827
226.0308376090 57.1920726822 257.7781259149
198.8251823036 149.6289497134 220.7226259548
211.0805254964 108.4428087441 215.6849062216
227.9846051135 92.2046723889 233.8904188330
207.2567656010 108.2116568892 210.4026789194
214.9665434009 77.4642724302 240.3584600224
207.7352326409 105.7948678349 209.7208861985
229.4336369178 90.7964884003 227.0827997145
218.8073127257 98.0751617255 208.1902862784
217.2852061958 87.7896109034 237.9456391481
213.0384357599 122.7926112599 224.5020475320
213.8719996737 159.9723569253 223.4201863179
221.6648277900 94.2648882231 215.2732771818
219.1212394934 120.5591376226 219.2732790244
217.6652580414 96.1522206702 207.1557593082
224.9760608590 157.5493668938 231.9810235378
232.0993890810 92.7182573603 226.5220217850
217.3794749912 153.4340231789 223.8466994030
221.5998566041 88.4356925537 244.4595341283
222.8608781448 99.4312319401 221.3725199819
223.1465540593 157.8000978885 226.5691531940
231.1093892472 87.4057899277 239.7665696020
223.8248320960 96.4399419774 229.1640702678
220.4107580536 162.2753717676 224.6894479787
223.8869634102 73.7604787336 255.6439930436
199.7796984292 125.5748101435 224.9241486066
215.0935398070 53.4549808075 252.2676956406
219.3993564848 56.2798643735 258.2516286167
216.1555548081 90.2664358053 240.0493047979
216.7455534196 80.5405461225 244.0747397063
217.7945415129 98.7167748426 209.3072177412
210.8892997028 111.9247541148 212.7871039234
197.3389062369 149.2983066046 220.3267651781
225.0041491439 65.7490806806 254.8362357563
222.2927925965 72.9225631474 252.8418388447
227.7747667389 72.2230821944 253.1742306667
224.0095244116 92.9052456012 225.1407497935
220.0123508126 113.6364244549 214.0388272193
216.5661706761 98.1642575705 209.0204948157
221.8530073994 84.8071805585 243.5393102465
221.4271997079 91.4334856648 240.3094935137
212.4784555289 110.0932282043 216.6028855926
224.2087291889 84.6761851222 241.9354981902
214.9925569223 116.0573515848 209.5415266932
214.7941159202 159.4186623256 221.6372635814
208.5640679448 146.8063506459 214.2102517574
220.1275563856 91.4097317110 247.8714899304
219.2516187049 59.1843460190 256.7083840836
196.8373947720 148.6310545482 222.7576056968
223.6236236149 156.3735781518 224.5622482045
208.9060093331 99.3339208278 213.3245154290
225.6539170942 100.0743844910 232.1064370167
217.4054764081 45.4812381211 250.8146774353
222.1268745047 52.3482654993 257.6750789284
224.2828492562 103.6344093139 222.0446077849
219.2166546709 67.9873490898 257.6962011817
231.1093892472 87.4057899277 239.7665696020
200.1959485852 145.8031443658 218.5925394303
216.4823716663 109.8360185132 216.1086859080
206.2261294115 150.7820885270 220.7296373696
221.7315249114 46.5003462006 258.8111800264
209.2198748068 148.7719191418 222.8191567372
227.8935538787 90.6716192759 240.8717610707
199.2373943333 140.4620280341 228.2957319156
195.2118316804 139.7696865936 223.9191579023
210.5211689831 122.5946482973 219.8156897618
229.9182019248 98.7010546813 223.5952812937
203.8780479212 121.4685231894 215.2222364621
212.6503992771 148.3672021533 225.0136758738
214.8483862825 98.8114443023 210.8697220180
220.1578389598 95.5755896855 223.2087033868
217.4097737090 67.7246730094 256.4162702887
223.7706284943 95.8521493900 217.0833420841
220.0926329730 48.7105594886 248.1802215814
225.0262970448 83.1487232196 229.5924994054
228.5764156470 90.2849090336 241.7797952279
225.2071072421 100.0672662183 216.0842969280
209.6324499159 147.9565334902 223.9449017956
213.6711668116 79.0618581731 248.0769140264
210.8867082787 117.2327354987 219.3435694800
226.6000270781 91.3452266403 234.6005931176
209.3554722870 120.3524175002 218.4649594274
220.2764044092 96.1975739218 216.5950552504
219.6889700256 156.4118450560 221.7465741122
229.2398637809 91.9463267216 227.7968102190
225.3974134429 56.3221760262 258.5149820477
219.3397688627 83.7548568266 251.2042470089
219.1486022883 67.5805156213 257.7214620710
227.4150868389 93.0884083303 241.5535537916
224.2170267044 95.1148464308 218.1026572663
203.0307728153 144.0752292508 230.4175572489
218.6298506150 52.5019526217 252.7228803595
218.1283502643 88.6033283071 245.3153161987
217.4378494212 76.8052920715 252.8134279832
198.7205196551 132.0017628653 225.8678917144
215.5219492763 107.3148596309 216.8193550765
221.5211849703 69.8187501432 242.2606782511
210.3330081697 157.3116899499 221.5106170585
218.7306840588 85.0139674660 242.1435024726
229.0074189218 88.4055231076 231.3322134150
199.3463598632 141.5566842614 229.6292102603
223.7954208797 70.2771046927 259.0431015629
202.9911128312 126.7398391645 227.8340686920
207.0232164770 125.7892053183 221.3859765723
219.9873673845 59.5464351970 254.3762496078
199.9472550759 129.9430277573 229.6344270009
209.9434479023 122.4893284511 220.8076167013
220.0146827981 71.1684333472 255.9760152491
213.2677772049 158.9720004501 220.5823921646
227.2162286131 86.9551004422 234.5121465755
220.4840276921 63.6356601835 252.8955067536
214.5557888208 107.0509260839 210.4764249361
220.1348543178 160.5053653975 221.5571200581
222.4448405031 87.8539253008 244.5978929870
220.2758073310 46.4837648029 249.3452404470
203.0422900268 141.7690034184 224.4718560414
193.9324508623 136.8484980294 228.1504654707
226.2973279422 98.3704829319 229.0610586564
226.7988378860 69.9036348756 252.4985483826
225.0806594441 157.0178344389 223.1680002758
204.9316565014 145.5310479816 212.2347470453
222.8571876749 83.0744614041 240.0653823034
191.9877239357 132.8297054577 228.3521041973
224.9639473628 89.6235796249 224.1819127060
223.7066060333 87.6208993131 246.3781430070
213.2498603660 117.0908133697 216.4440132190
236.2342916064 96.8761863943 230.2912176647
197.9698059420 139.7687955161 228.3680202160
216.6227559587 89.1217744079 238.8172748892
212.2119203850 154.8712214567 219.2409490199
224.6424466384 65.4926776736 255.1122097547
221.7684315731 160.9271376133 224.7123499132
212.0095867946 153.5146010490 220.4405642752
216.1959838196 67.9950592979 252.5182571498
220.5704021348 94.7602064062 224.3344576527
194.4264943083 149.6158710278 220.9764787533
230.7252501602 72.7385890694 253.2501354944
211.9869870982 109.7227832428 215.5118667659
224.6614788740 104.0217945969 218.6006740110
219.2117641698 99.8207894483 219.4129984829
213.7230685480 154.0352806365 222.8872288199
216.9368036477 74.5446967666 248.8666721530
203.6070873341 128.3572775155 228.8747539702
219.4475095042 83.5290420225 249.8791957463
220.1678507751 69.9508800935 251.8644038516
222.3352650444 96.2257586363 216.9048515876
209.9309141769 100.2591988120 215.6408632156
216.3483178144 51.5431882608 254.7719673102
223.6784309587 86.6605973121 242.7918377769
220.7815176800 162.5446078437 226.1525641298
224.2918025080 160.0029941583 232.5592028159
220.8762959306 95.3540709067 215.4089678266
222.0885843327 96.2260827900 224.6769586489
224.1929809269 99.3461877164 217.6771177082
228.5754042520 95.6956106811 220.2240950725
216.8984828103 44.5463105224 249.5585756972
234.5284097306 91.2270184575 242.0394864547
201.0232046540 134.0413328317 229.3934720073
194.8389134906 138.1284800634 227.9774254039
213.3728442832 159.8615426861 224.6487223358
206.9781918476 119.6171758236 218.1379137982
208.8421231841 145.6332499792 220.0627063105
210.8465333047 119.3559019547 226.7092345477
199.6449578355 126.5225934866 227.4005640442
216.8184228534 70.8884541194 257.0184106173
221.6439176597 70.3616290277 242.9810407044
209.2552854005 96.3848294492 215.0006097044
217.2100901941 51.5459075182 260.1231181031
190.6749366707 138.0797673129 227.2496829002
221.7978948918 89.0843285843 244.3880486488
210.7447408079 156.5285923069 224.2842010823
222.9106672615 157.3877908199 223.2861639073
217.1199449941 115.8873654407 208.0097474597
223.2461210451 83.2446149218 244.5146745327
213.7287561911 49.6218778032 252.0749619829
216.2564087195 54.7806578316 252.3396085874
218.6116674290 89.4009761736 238.8188520970
227.9868544238 76.3076660154 257.4534285042
224.1027082051 73.9204894784 255.5773638405
198.1211032375 135.8906016629 228.8672550824
225.7161390027 69.4823033687 255.9968384125
191.5970529171 137.5260727133 225.4667601638
213.3087814916 161.2305383037 226.2154457313
216.6793765144 82.4555273774 247.6011115557
199.0295774793 134.1677375626 225.3789645097
214.3589483551 54.4847971166 252.4959532610
215.1658394802 147.6810017138 222.7646312598
220.5496412857 110.7401562363 212.4750134445
216.9123555103 78.8670115287 239.9491373390
224.6252807843 153.9881366030 221.7998438041
218.3424655334 77.3467963800 240.6474036493
231.3411793208 91.7251825879 231.9674646929
213.0405538534 74.8551433138 251.3194448305
200.4341780756 145.6856571139 217.3742166512
223.1726889866 83.7425574219 248.2716105358
205.6131447142 121.9054140836 224.1877908329
232.8230912392 89.8568975478 242.7181033965
227.9005350044 92.5754173030 243.1646601630
213.0405538534 74.8551433138 251.3194448305
222.8728303460 88.3279499690 241.1490358192
203.2603754306 147.5421512826 212.6400200590
226.6198434431 102.4875527615 215.9804839631
206.3733794980 125.4838948242 230.1383172549
216.6773446048 73.0397594965 249.3102130171
218.5006480791 45.9172326478 250.7040899703
215.5138223622 68.2063158864 252.4892835674
226.7655369569 101.4841216500 216.6490798848
222.6474975149 73.6846574049 253.2216787162
216.8449315966 49.3424664457 254.7823690584
216.2435403164 74.8771575503 243.4496279589
223.0603959487 70.8302053964 242.9504142227
222.6495920789 86.4915413561 236.2451873471
222.8446624460 98.9513030535 219.9068612731
207.1756527560 145.2385577434 213.1460850623
216.9437359616 47.7687049161 253.9300761500
218.0771058505 159.1264910965 230.7396740418
219.2980845172 153.0037397479 221.8582597285
192.6669183567 147.4330454688 221.0936104501
211.6567638157 119.0979148869 217.4505634254
223.4593447152 160.4188183620 231.0450065325
220.5520211920 100.8169036156 212.3434030916
220.9241226436 82.0627049205 249.9041149107
223.3437785021 74.4175039900 248.7704674449
196.6246363417 139.7403176659 224.1669935301
233.8135837818 96.7637815447 230.6922598609
198.1825376808 147.5110661281 218.1230032291
216.5417435662 95.4139388286 206.6523103222
220.0470294240 121.1518567307 218.6633071858
218.3873284149 88.0837886709 245.5364198460
220.2510820802 92.1836951721 240.5933734276
226.6698606560 97.9422470110 216.4734157369
219.5114841731 74.9202395891 247.9438129049
223.3871622420 157.0422799228 233.1972663215
227.1439730925 82.7192658095 230.9249838873
209.2639933852 108.8150950246 208.8599699031
227.8565718798 93.8369896840 220.9432528961
229.8280243152 68.9977991358 255.1183288739
207.9007561991 98.6608302103 213.5236988396
216.7229584128 118.3055980595 222.5544924978
222.0326691001 94.9669277260 224.8500763852
223.2814345043 51.1883390008 256.9347339726
226.6544249530 61.0179920993 258.7597814968
225.0262970448 83.1487232196 229.5924994054
222.2840028692 153.0524379132 225.7558033492
219.1789983321 74.1607199622 253.6157395904
196.4014234605 131.3244728942 230.8352773987
214.0200425546 116.5742374749 212.1467725386
224.2618597666 98.9157630865 219.4767571515
196.6356587127 127.1208717947 227.9507931466
205.8812933083 120.4377547830 217.2028293337
226.6624107705 75.3408937977 255.3306868545
225.7162756795 83.2581539263 238.9174322987
212.0014651145 99.9324884519 211.7964885861
213.6309548484 105.7568377786 217.6533428133
213.7989133454 161.5025088178 225.6855223241
214.5718097694 146.8702832424 224.8392447405
216.8011060488 90.7413446282 240.9793835923
229.3725428546 96.0656615348 222.2557004541
219.6213742161 57.8254276987 256.1788294951
195.7567924372 141.1064907770 228.0418898387
224.2580468213 63.5075693441 263.1979243606
226.9515261450 98.3076646635 218.1189602975
224.2465294258 96.6127879385 234.7375385156
218.5006480791 45.9172326478 250.7040899703
217.4340882275 51.7630996853 246.9848415710
219.0168572843 157.9286248817 229.5826820569
221.8530073994 84.8071805585 243.5393102465
221.3278581182 64.2800057244 258.5876254107
216.0061532575 117.1009378832 222.7763055027
218.1945891259 157.2641571516 230.4954693421
223.9906932578 97.3163499699 227.0154470009
221.8117016565 158.4052387486 233.7866329582
214.9636696519 99.9123404960 216.8125950843
206.7858797157 108.3210882082 214.8237804806
220.8161525905 91.1326628104 246.5604467353
213.2852480971 52.7037160081 250.2168644340
220.6224090783 73.4376391996 245.7757229112
202.7041606685 124.0633986157 220.1930726609
216.0404797361 80.5525408126 246.5341393894
219.4989877932 66.1016501306 257.6106897430
200.1071575127 131.6901105730 228.8234656588
207.5106143627 122.2012745158 224.0314582654
209.9141974339 160.2299330447 225.5720886059
216.5331902428 53.0288421255 255.7059885262
216.3300634440 116.0547170000 213.1162034445
227.8808777369 87.4952094009 232.5827273160
224.5280775697 99.5654342223 225.4954354832
220.5050638671 91.9871732947 242.0923926490
213.0290302719 116.8687897581 221.4802969331
200.5175046509 143.4399433947 230.0985096554
205.6304021383 124.0553824140 231.9679255768
203.0643996527 139.7974463123 227.8044840652
215.2017339356 156.7298541933 224.9455598879
216.6675706508 55.6149310992 251.0698453093
225.8513568576 64.0493742629 259.5584270796
229.9182019248 98.7010546813 223.5952812937
210.6679623213 109.2581920235 214.5591519557
212.8690577036 157.7078395194 220.2401380950
212.4124603403 100.7835433227 211.0804687004
226.2667926041 51.2292148970 257.3839598927
203.6240960578 126.3749160730 223.6159880363
221.5478633961 60.6745414876 263.2894078732
219.2181568013 95.5212599130 210.7854638992
198.0677732946 149.1816270953 221.6252488111
224.4849675934 70.3549093507 250.3315583276
200.6168850032 123.0149899994 229.5906030012
195.0236555074 128.9095871007 226.9743481302
194.9710719494 130.3980854194 227.7617006313
217.9181993469 119.3154295356 216.4140419188
217.6785590024 55.1192149802 250.6929869272
211.3539397721 149.9945653302 223.6763295610
220.6904110082 70.4792963276 250.9853023353
196.5834129853 148.8275764256 221.2585864755
203.9802175404 146.2315296264 215.4987570519
212.1595288627 103.0060541813 212.2574199681
203.3914102298 146.9557409836 214.6181393103
200.5213584976 142.3142120966 223.2901592631
207.0232164770 125.7892053183 221.3859765723
220.6530898617 102.5634154968 219.1669513871
210.2601387634 122.4386837700 223.5865541093
230.5466299002 89.4169783609 232.0219493866
206.8438972732 124.6144373773 216.3995885482
214.0270840002 72.8973426158 255.3778275886
211.7839761685 159.3544527773 225.8649801241
204.8543846548 127.6487419820 230.1856609317
215.9119705357 69.6084793379 257.1914621792
214.5029309297 147.3007078723 223.0396052971
210.5203943729 153.4534313170 219.5572470158
216.1319293306 72.7328414674 254.1379508542
229.4730314947 91.8336230480 243.6379024596
201.5230469550 128.5432966578 228.1052655495
214.8940867954 112.4926649227 212.3759390308
221.7116427143 87.9563427379 237.7952795697
206.1130290693 149.9908609223 215.7770673165
199.1429996291 146.1880600545 224.3944426079
225.5771391599 91.9639767214 222.1097952098
201.7272152070 127.3505174186 228.5272499411
216.2839547657 108.6867166776 215.0870142854
202.7358264858 121.4879553735 219.2064701690
217.0146481185 77.8929773495 255.1696051225
210.1982530820 148.2543627719 215.9580680773
195.2296692568 137.7616427357 228.5099782505
221.6065670731 161.1839305662 224.1586680894
212.8683603188 150.6493747709 223.2976478135
222.6474975149 73.6846574049 253.2216787162
205.6338740230 142.3268775010 227.8157404905
213.9726870917 76.3661783437 249.4942543714
209.9434479023 122.4893284511 220.8076167013
215.2374119682 146.1515047755 221.0142299128
221.4582099597 80.6723272838 240.0290369511
195.2831847050 143.5438793794 222.6037637391
198.7053353858 130.2115209215 224.5494856851
216.2993016040 55.8998801165 248.8962753131
219.6692507981 98.7456884120 215.5040098568
225.3238824689 81.5232325606 230.1093862804
194.0582392485 149.9008327434 218.8028983273
207.9007561991 98.6608302103 213.5236988396
206.0817776885 149.5761312125 212.0464659889
201.8336405464 147.5831969577 214.9422371711
213.3399296314 74.8927087931 250.8323259372
220.5225255780 76.0520931277 249.5183371310
222.8446624460 98.9513030535 219.9068612731
211.3926213393 150.7366394245 223.8277446817
234.7609185480 95.2376832157 228.8368188733
224.9195045441 94.1521700405 229.4600732657
226.1480775057 69.4744473393 253.0548598728
221.0848533288 102.2293284749 221.7152767997
225.5519881985 79.9259389686 233.4488522763
195.2838857507 137.7304447657 222.8404849576
205.1311577161 123.6564340148 227.9404166451
214.6159980236 145.9261529227 223.7587485300
213.7287561911 49.6218778032 252.0749619829
215.5511690078 68.3565094425 256.1343321492
213.3736378922 121.1024161094 220.7783640815
226.6819745591 84.8051030517 239.6888864768
202.2216587974 123.6946053379 221.7342068254
221.6510865930 79.3215331725 242.8531507578
213.9596748462 111.8026996711 211.6497253095
215.0788519141 94.0353845683 208.0836897604
221.8504198838 161.9002983033 225.6361590524
196.2637177683 143.3696470074 221.5504176552
211.0974214165 98.2099831331 211.6356343925
220.9314734994 116.8045333501 218.7916480316
211.5802996949 144.6231538731 222.6935893940
217.4267716179 110.5582659159 215.8487892799
224.8278186361 62.8998392581 256.5988309261
226.6198434431 102.4875527615 215.9804839631
217.0245922483 84.4485994574 245.1607220631
212.0884273137 122.1281987042 224.4642993024
223.8117743971 65.4412229033 252.5331715392
234.1065467835 98.7193216313 232.0761803184
222.3277397118 88.5856475785 241.5384995905
223.1940073860 70.8180987959 249.0455778287
215.0071144012 79.8924587805 240.6919785892
222.8608781448 99.4312319401 221.3725199819
199.9914194617 128.9989021821 228.5539492055
210.7848854950 123.0496718242 221.2500138760
204.6529864260 126.3567655407 227.8992892092
217.6052688797 56.7297678910 253.0929847716
219.1384306893 117.7271300456 217.0188985900
221.5283448751 87.5378028030 249.1533273264
225.1785763284 94.4577264425 230.3120110244
217.2236320022 98.8355549159 208.6393119010
218.8073127257 98.0751617255 208.1902862784
204.5622042656 126.1874854974 218.4483174486
224.1643839816 87.2374414494 247.2252308850
227.0140256774 94.3038421495 232.4510763766
199.6204919428 145.8145001864 217.4463946456
220.5710304126 120.4550796376 221.6885715153
218.6444436767 101.6822838282 211.5703513265
209.5909552018 148.1578200666 214.9461780409
224.3917719419 71.4183136449 242.8126740945
224.2619354346 50.2233637892 258.1560163822
236.0118167040 97.5039844314 231.6162537585
200.7407160513 150.3282387666 218.4050131660
223.9086509023 83.9761014718 230.9261327166
221.9587554104 86.4314304327 243.9443868019
210.3673061438 155.7224438865 225.7726246327
224.1740946027 95.4473723770 218.2206058815
218.5984405032 51.2857266383 252.6298200946
218.3688761253 101.8872183324 211.5344260101
218.8892611350 116.2834788969 210.5597355454
220.8222203189 102.3688937039 220.1935975873
234.5179907522 98.4009559870 234.5045779936
223.9505631552 51.8183067638 256.0459965442
223.7949661869 87.7742623391 239.3661366839
221.9569548916 85.3693788132 244.0794354261
226.8159086720 81.9607822843 238.4000165413
199.9988407046 143.0331881727 227.9571509722
218.8113944547 159.2723470281 229.4517424391
222.0630922820 69.6564058310 254.5052660952
212.2275454178 151.3240038178 224.3350235858
213.1333053382 149.7256273263 222.2998545922
202.5936930480 145.3355320741 227.4956576433
223.0695606878 49.9155060120 255.8529521652
221.9950269839 72.2081607461 254.8937494993
220.1945700441 97.7379995147 219.1022075982
215.3452502643 71.9633388968 250.7889517916
212.9263943229 97.0237420893 213.9882077655
213.5790693238 153.9404885682 224.4578679990
217.4613138285 87.2823113423 243.6416903238
193.7482022782 128.5089716438 233.1260373121
220.7675253179 118.7976467256 217.7489008502
223.4585938465 59.4971654902 257.0243818496
196.8373947720 148.6310545482 222.7576056968
218.8326064754 99.5717788573 217.8728451977
226.9484210495 86.9291160032 233.6171642752
220.4078618081 100.1382127764 210.7239284512
218.9814718327 75.0068948950 248.2619821043
221.4331768629 162.7590483756 230.5304016808
221.6072022971 74.9281234466 254.2999236787
213.1504013916 75.7017187144 250.4070168332
228.2724088427 95.1769668622 225.1805648315
219.9080871037 102.8986735857 212.2241619817
210.0193483378 155.9916793443 223.7189696567
228.0349815051 69.9203958313 253.3455794324
225.4053820025 57.8223149308 255.5225597948
232.8112211438 91.2532727826 239.0546782596
218.2936689430 55.2085317240 248.4278033756
230.5601781025 91.7068021071 225.8322858135
211.1094240034 146.1912360442 225.3078374041
215.1555669507 55.4265809996 249.0770061503
225.2826574957 52.8947273635 254.5672577698
214.0519797297 158.9197288934 225.3498797066
210.1958448804 96.8691628729 217.3863040776
209.8129644983 147.8185992210 223.9704910914
210.9101620224 145.0412593960 222.6785936834
229.2594757607 97.4402164844 221.5365572213
219.6602738844 101.7102192944 218.4899842284
202.5255397209 139.9775900452 223.8747145461
219.2551028361 99.6765582051 209.9617075668
219.1354863848 159.3665247367 226.1634489528
230.4650747400 92.9363754802 226.4367559699
219.8135244629 54.4812856316 253.3990850608
198.9165223195 135.5422901399 224.6598120693
193.7612173282 135.6880726233 228.7902831950
224.5280775697 99.5654342223 225.4954354832
202.4253652529 125.4348439846 216.9049369204
206.9640241457 119.8574471568 222.6248568550
202.1656819216 127.6356641338 224.0103883770
221.8619019044 99.0592494812 222.0468894391
226.6226764264 92.2041524502 227.0470206508
228.9952510066 89.6884879958 241.5785599250
222.0630922820 69.6564058310 254.5052660952
209.9141974339 160.2299330447 225.5720886059
194.6383991391 145.5111565731 216.5246114839
221.7225820978 87.7545022694 244.9655232230
217.6785590024 55.1192149802 250.6929869272
204.0003087020 141.9051029128 224.6605014279
193.2405416017 144.3815671809 218.0763512823
211.3431400209 73.7259153480 257.7159945996
197.8592307492 127.1834402053 232.2630811657
199.4859023093 145.6172640560 217.1355424224
218.3688761253 101.8872183324 211.5344260101
221.7544665339 86.3842652216 249.7289656762
218.3125405242 48.7399556957 258.0003140371
216.3237379033 71.5074120420 252.8329735015
223.1067615783 160.6302904263 231.3499182280
198.5097383588 151.9340958472 217.9669881424
224.4016418855 84.1548110553 239.4562036765
219.1749994703 100.7724539970 215.4751356679
224.4290030331 100.2245521711 219.3061801609
224.9327191179 97.5216102530 224.9188590109
215.3150627260 156.8286071945 220.3633725371
218.3462720954 53.7200403751 247.6404744757
219.7390112464 156.6245384420 221.9164732752
222.7487040239 163.5484988232 227.0184403349
221.4768637366 96.0401809048 224.1614181970
205.9885765455 125.3223888895 229.3107747684
211.7597012937 121.7645425779 219.0085544286
219.2567593018 80.6340482443 250.8960577183
196.7761491298 144.2111297688 226.2801185894
212.5213271358 104.0797426584 211.6221402952
222.6876999534 90.5893745576 225.6509218643
196.5183701748 143.6755542564 222.2794335670
200.1615150865 133.0431741487 229.9107545897
211.0705826790 105.8405272806 210.2227517906
221.5402482338 90.0589312807 241.0286125343
218.5166738097 47.3102819367 260.9893148589
216.6115691346 154.9805192828 226.2751179332
198.7688485151 125.7891460859 230.8206207999
207.8069517778 147.5614971562 221.1264766065
189.4114201473 135.8829394816 228.4893749174
224.1740946027 95.4473723770 218.2206058815
211.1369907927 117.1440053424 218.8247012271
211.4117434876 122.0337780356 216.9548994526
223.9065153339 89.0327111781 224.7582935329
224.5240354910 98.3241243962 232.7221439040
215.5219492763 107.3148596309 216.8193550765
194.0582392485 149.9008327434 218.8028983273
217.0498402394 73.1701447548 249.5858003812
205.1715108555 145.8944760802 216.5445690468
193.1121413981 147.7598983312 221.2273894993
214.4102083944 145.0891767320 223.2052603472
210.3122890193 147.1933804653 219.0473163027
224.2619354346 50.2233637892 258.1560163822
213.6309548484 105.7568377786 217.6533428133
205.5936550712 125.0833222687 225.9867020359
200.7051216248 126.6758883066 223.3558979402
225.5107632253 51.2974337716 257.9067237657
223.8248320960 96.4399419774 229.1640702678
231.0545040079 92.4304376665 238.9337470511
211.9020619302 146.1058453299 220.5123643207
204.2195441247 139.5281155248 225.5970698959
224.3045467568 63.5434420985 263.2941139366
196.3842657219 130.3377017570 226.2945300885
199.6798053429 151.6045371041 218.2580292500
206.8254456518 123.8634168335 224.7488811674
200.9237781314 144.3196211525 223.8147133547
231.7573445367 91.0322604194 233.1611117733
217.4340882275 51.7630996853 246.9848415710
208.2398556046 109.8333225442 210.3691804629
193.0951766461 145.2698761231 220.4833643917
189.4114201473 135.8829394816 228.4893749174
210.0061569766 122.6352056474 222.0875348880
196.1614278444 145.4260601946 224.6027610281
223.9505631552 51.8183067638 256.0459965442
205.2940918491 150.5799014538 212.4262659859
229.3725428546 96.0656615348 222.2557004541
203.0937284688 124.1139201295 218.7286408083
219.1052968195 88.9856441524 238.7612367551
207.3651782014 108.2912448261 215.3165455381
220.8206946362 159.3893603504 233.7699254589
200.3994857529 153.6750479983 215.7785672494
208.9259313493 150.3520166209 224.0309592351
213.9082090680 107.7594616828 210.7596151086
218.9832661674 60.6947487870 258.1823051981
227.2631286428 95.2797811646 232.9554384111
232.6368927134 98.2109478280 236.2007193238
222.5386952689 85.5025527147 235.6944986304
206.1865027740 124.0515379922 228.8418908989
215.9038140595 155.8593984967 225.1819201814
225.4122784514 87.7887041552 236.2679660046
218.9379321009 91.4939809780 242.5227739391
214.9982647754 78.0621389417 253.0575274201
227.6362057709 92.6372081941 232.9955222967
226.2973279422 98.3704829319 229.0610586564
197.2787776251 147.1726269405 226.2076262752
217.9164288427 74.3457817982 248.8082865154
195.1001652638 146.3172539552 223.7368135307
221.8720233894 68.7643354359 246.3205067004
215.5896480937 78.6328613667 256.3140549175
209.8992596481 123.4334587708 221.8881129117
223.5035329695 159.4746880423 229.9645103220
207.1143320402 126.3250183824 224.3781451285
215.8184323573 121.3306664352 217.5114691386
197.2217305187 146.2685748345 217.9929676044
205.5723989556 119.3242851503 217.8233415092
225.6303888891 83.5112632817 239.4472136256
212.0540496989 98.4439976685 211.0091354739
220.0046759208 96.6421493860 216.5967097673
196.2236335890 135.5947412308 229.0235876499
206.0884380672 124.6982758759 231.9202637606
207.2684956429 145.2246281456 220.6360185462
227.7481934246 88.9140609288 233.1706654380
224.8859819544 95.1850730410 224.7613408333
216.9561084073 51.7424293955 258.6240988818
224.9291086535 51.5109944006 255.0237037173
213.9405078615 94.5889870350 210.9631719730
209.3744451714 158.1453226803 224.9289831867
200.2270624445 152.4270976352 219.4520682744
221.3355353983 50.4581844148 254.2638593171
226.0361165412 87.7910776584 236.0815946552
220.5621708037 91.3291846878 245.0614275139
199.0405953657 143.1628410165 220.2059849509
209.9526344192 121.1280534398 217.7033404824
216.0472137553 88.0863555167 240.9511612644
216.2741741382 51.0692010948 247.1399397117
215.0779695211 110.4985608423 216.3887247703
220.5803792305 87.7739338879 248.9497811421
216.7035798409 100.0813485211 210.5278294655
202.3203337158 141.2070770976 229.8387928572
222.0713051090 52.2136142403 258.2933328160
211.7203571354 73.3951359532 253.5217439314
227.9693199353 80.3570486611 233.3715261711
221.3467965762 152.7147857687 222.0033389626
204.0556198113 141.5212241559 224.5543042993
214.3161574908 47.5744545769 248.9169606130
223.7949661869 87.7742623391 239.3661366839
193.8583118305 144.5636819999 223.9738861060
214.7749257178 96.6599932459 209.0119021848
220.9818442510 98.3567940519 221.3328205391
223.4740408269 158.0286079751 222.9329969041
207.5937961131 124.8283835530 219.9701049478
215.1923068600 50.1514272662 252.2684917413
224.6745821818 49.3741296879 259.0767241389
224.0825590263 99.6411979256 215.3864920706
206.0884380672 124.6982758759 231.9202637606
198.5759340491 127.7151067913 224.5389814084
200.9960133554 121.1158151564 218.3074345389
197.8525858830 143.8767369162 220.3341598667
214.4967661256 120.5786047010 216.2407865055
230.4229731829 92.6906900328 235.2143334993
212.3891133493 104.0032634510 217.8904061810
197.4839500202 132.6380336009 224.6452902881
225.8073108687 88.3618678269 238.2559235924
211.0805254964 108.4428087441 215.6849062216
226.9729418710 100.5389757104 233.0591518269
221.9738450670 75.3624998948 250.0071056062
220.6530898617 102.5634154968 219.1669513871
198.5707716702 136.1185199593 226.3154156715
225.1352427606 98.5980391689 234.3670443969
233.2390080880 94.7887306669 227.4988186029
223.0603959487 70.8302053964 242.9504142227
210.7447408079 156.5285923069 224.2842010823
219.2166546709 67.9873490898 257.6962011817
229.5519128910 93.8410446800 243.0969441384
223.2814345043 51.1883390008 256.9347339726
196.5183701748 143.6755542564 222.2794335670
216.8379421348 45.8397763497 251.0388454892
218.5079651205 79.3662962073 249.5645544386
218.2090240516 110.6964611616 214.2473897727
220.0133223361 114.5422610058 209.0923266542
229.9978235779 95.6039277228 236.6390968051
193.8458951582 127.1057878830 230.6698768050
224.8763748505 87.2446055397 239.1233827331
194.7954206063 139.7311563485 227.3165147487
218.6265601099 74.3758238050 243.1302736806
221.6714569731 83.2634566393 249.4207763857
222.1531933430 62.3566281290 262.8995581305
205.7566704549 127.6732501645 224.3552339865
219.4305437570 112.7718415604 207.9189662511
224.3703805572 71.9890346960 257.3797365735
202.5015409177 126.5212476219 231.0457849229
228.7306421468 91.7999423387 229.3037406020
215.9198261382 80.9817376404 247.1243527518
214.7749257178 96.6599932459 209.0119021848
223.6786663553 94.2581829865 231.9491986784
204.7462792262 118.6954755891 220.2554960371
217.6312136662 98.8253706672 208.4741904046
230.6409868930 88.8272956063 234.4874311639
227.5382568369 73.1659017612 252.2425656268
218.2422184960 115.9281697042 208.3377259537
195.3444128505 128.9325392269 233.5440013321
224.3917719419 71.4183136449 242.8126740945
221.6980187858 89.7084460596 241.7785901780
194.9745823807 149.4747141997 219.7944046299
231.8487646355 73.4768709110 253.7535844804
222.6127056150 88.7027404478 245.3560653205
216.4098183222 159.1293207209 223.2475462273
232.0542010831 92.8416457923 234.5719045902
205.9885765455 125.3223888895 229.3107747684
223.8685697626 95.3540328325 234.4547086154
214.7417142883 75.2846508767 248.9856650637
222.3635239384 96.7877411145 220.3811252707
222.5475931182 103.4398959809 219.3085781529
224.1814605836 153.3483007176 225.5994799893
214.5782502924 113.9494502297 218.8120106525
224.9933902229 60.9900883197 258.5200143026
214.1543507445 76.9583458579 245.4954942158
222.1895005943 48.9830730147 256.5707019696
218.2221511659 56.1547589837 254.1401125839
191.5760997743 133.0405914361 226.2035521782
213.4949824127 155.6325811981 219.5477864251
222.2220718280 51.8464823693 257.3405600519
214.2212533504 122.8053275178 221.5742042310
214.5782502924 113.9494502297 218.8120106525
202.2639829429 128.4348850688 224.1901157737
200.5920937314 143.5916214089 226.8255765835
216.7321313785 117.4694599509 212.2896080038
228.8502992367 81.3492850080 233.7274508760
213.2426736683 145.7788868008 220.6674651465
226.3324072230 98.9027736954 227.2888722932
225.4730252898 95.1657139367 234.1604167509
224.4229602892 82.6088640798 242.6595405091
223.6278996783 80.8436131301 233.2205018103
223.8869634102 73.7604787336 255.6439930436
225.4648816038 86.3002128063 235.4806371046
216.5333088117 48.6403600380 258.5655046545
214.7929373382 97.9852040964 212.5736563549
218.8113944547 159.2723470281 229.4517424391
209.2639933852 108.8150950246 208.8599699031
208.4942989035 106.6621464186 208.9854126726
222.1667003754 49.7232752290 260.6930811086
216.5507698310 53.7802147286 253.2648349355
219.7796847958 118.5325916947 223.2462648659
230.4137830073 97.3430375137 234.8864753256
214.3530710365 93.7736037556 212.0889262389
223.7615478574 98.3513492046 221.1653197466
206.2980834257 123.3542429000 231.7573082130
220.2443642785 67.9302274439 256.8826479193
222.9886429634 101.5799891658 215.8947737487
217.6463359344 88.1649982577 246.5416159483
200.1810207313 144.2897956589 228.6016298453
221.4398866645 47.6889240027 255.1245464393
219.8487954231 118.1275144330 217.3185366590
215.4743962862 117.3789445776 212.5142780771
221.2608770504 67.2608925530 251.4203034101
204.8873913662 125.6163673283 221.1734052949
218.2493567541 91.6106924079 239.6543282608
215.3753834479 79.6075097633 242.8655485854
217.5531639286 97.8554958367 214.9861162449
218.6447808875 103.6572322379 214.6667533196
221.4108933266 120.4168336115 218.9445006073
216.8494423850 50.9883567882 258.2105498799
211.3179589336 74.9645499681 254.2199152699
222.8143915601 62.4868040750 254.7534124950
220.8060029788 100.6203817382 213.8424223129
233.3710301060 97.9187762603 235.2468571678
221.6980187858 89.7084460596 241.7785901780
215.3753834479 79.6075097633 242.8655485854
224.5370078918 99.7803404247 232.7347098054
218.1612327792 120.5460230274 220.1483007357
219.3696476293 90.4758328068 238.6909805214
219.8445601821 71.4772706381 251.3833014451
223.4502376741 72.4439928195 257.2494346236
202.3824735053 148.5150039856 223.6658833195
213.8081132903 94.3202279313 209.4242193369
218.6365976160 99.7537925659 217.1164077764
216.8968236409 84.1572786098 247.7262042702
224.3831731443 95.2121844190 227.9966021547
219.4415101781 60.2801982371 259.2139032283
219.5785787921 112.8600131658 209.0675565629
208.4961403547 153.4282490542 222.3389004386
217.2228517969 156.3239948792 226.1346251730
202.8182910232 126.0201423462 223.2163993505
207.5029136714 147.6506634432 212.2269088968
215.8329616778 104.1174348258 212.5802969380
198.4796547075 137.9811670224 226.4254549287
219.4141316104 81.1097847989 244.2896211443
225.8517438219 94.2135411912 218.4263136655
219.2182555130 159.2206013230 231.8690537793
212.7332168739 154.9384725034 224.8558878112
225.0557362479 97.9774630667 226.4691425898
231.6105604881 92.0134093783 234.8002729803
230.0150559668 97.4897305010 233.5287217449
225.5152864172 72.1565954865 243.3161230805
220.0133223361 114.5422610058 209.0923266542
229.8011118787 97.6926100693 228.1801442572
223.3458043262 97.9746986158 220.4370063423
227.1705202739 92.3178632534 240.5233470982
211.3826493625 162.3035031572 225.2917836613
219.3446041398 98.9033880898 219.3802038169
221.9804023883 61.4368198213 254.6381664600
215.3493317319 120.7413701292 227.2254031893
200.9953506194 142.7901242142 222.0643120077
213.3087814916 161.2305383037 226.2154457313
222.7183364841 151.7883168836 225.0304829736
224.5081006733 156.5684316581 230.0860111839
228.0681142244 56.1461748624 253.8838874480
219.2722109302 72.6742173547 252.9137094165
222.6268452887 85.3667575421 242.5501649257
214.6450989946 148.4591999080 222.5492555650
197.9115174769 153.1164098012 216.3346431211
201.4948755078 144.8007347456 221.1780697297
214.0270840002 72.8973426158 255.3778275886
221.8522155675 57.0629913056 253.2084052209
214.8911537759 80.4796202255 245.5774439169
198.5709068783 152.9487605639 217.7345300526
197.8295036345 130.8584238018 230.4984352191
222.4409695439 162.4218667596 229.4686726045
223.4818051565 93.3227471520 220.5832509062
212.7430602348 115.9117526296 217.2840984105
207.8436595132 151.9517451428 224.0109597268
210.2302493400 118.3141712387 218.8715553161
219.2117641698 99.8207894483 219.4129984829
209.1599911199 99.1373989504 214.8235346503
222.4481745651 94.8645380934 224.8096596131
217.6981342874 78.1369297948 250.7612901812
226.3241516908 95.5410158029 224.1500125891
216.5967566780 103.5951223322 212.7410537460
228.8056196117 81.4063736978 235.1179800478
226.6457910716 91.9070476197 222.9529253067
218.9796624936 69.0981004791 251.4060316933
221.5478633961 60.6745414876 263.2894078732
220.1578389598 95.5755896855 223.2087033868
210.8874176050 108.0673216835 209.0577450311
222.2644069743 48.4751761759 252.8331354648
204.5448006233 124.7576073899 232.0942800582
223.6677316356 46.9273082492 259.1506158111
222.0761991477 71.3307923876 257.5376385842
209.9590183192 117.4564413092 221.4977657855
206.4792874693 125.6674927052 220.5797326091
223.2422481408 87.7911290793 249.0081300203
223.2090603305 83.0283348181 238.9139154744
211.4652396911 148.9720713329 216.9706811254
211.3648238071 109.3286723678 211.9643096798
211.0202500579 151.3821054613 218.6616408588
193.2272470530 135.6995484585 228.4345353792
221.1004708134 156.1391911989 233.0152519996
221.5107787166 119.7927158534 221.5539711842
224.1197704680 72.9986503882 242.6161819949
218.5160231044 160.7641948172 229.8726218849
215.8325183990 121.7775409429 221.1852672579
214.1922360551 102.9265123720 210.5706691513
223.7258470794 86.7237408327 246.9461396957
234.9764496700 96.3245147755 235.2739404280
225.2937299727 100.4770730021 232.5967011347
194.6383991391 145.5111565731 216.5246114839
197.8137915078 149.3781489727 220.1262295898
219.1907837583 101.1624774664 216.1858025778
215.8910534832 51.0813186711 259.1704125004
200.1332152366 150.0315484534 218.7051275259
233.9909177041 93.8614909918 228.4646704757
219.4339428064 45.6455902748 259.9261871912
221.4108933266 120.4168336115 218.9445006073
211.6558767222 123.0605716192 221.6137930541
216.4643258906 49.4606204269 254.3814096329
216.7421013137 120.0656460126 216.6979454339
