136.4972229004 199.7453613281 200.8700103760
147.5738067627 193.9472045898 190.2312011719
133.2897796631 164.3457031250 217.0418090820
137.8572235107 132.9053497314 238.3300018311
150.3099975586 207.3252258301 195.6873931885
146.2574310303 203.7598571777 189.7799987793
141.3539581299 115.2200012207 243.2138061523
151.8055725098 192.9059143066 191.4190063477
152.3616638184 203.1793518066 192.1804046631
137.9367065430 146.7297363281 234.4900054932
154.5559692383 182.9788055420 169.1468048096
137.4182739258 196.4833831787 205.5359954834
153.8946685791 187.6223449707 177.2299957275
140.7883911133 183.9979553223 211.9960021973
134.0146636963 128.3823547363 239.5599975586
139.5722045898 176.7398681641 215.1799926758
134.0716552734 198.3393554688 210.5204010010
141.4143066406 209.5240631104 205.8023986816
142.3239898682 113.0422058105 239.8000030518
156.0255737305 186.6359100342 182.1289978027
147.6389770508 207.9092559814 202.0390014648
137.9640045166 151.7221984863 221.3000030518
131.2897491455 142.3500061035 232.2400054932
140.2979125977 176.7176208496 215.0269927979
135.6797485352 164.5299987793 213.3300018311
144.4967041016 167.1597290039 228.3399963379
153.0817565918 191.3068084717 172.2010040283
146.8262939453 156.5886993408 214.3849945068
143.6998138428 204.8167419434 195.0999908447
149.7382659912 189.8173065186 174.3010101318
139.3688201904 127.1640319824 241.6900024414
156.7467041016 192.9897308350 176.0899963379
137.6382598877 152.1972961426 235.8410034180
134.9808654785 129.4729766846 242.4299926758
153.4588165283 199.1440277100 189.6999969482
152.1689758301 190.2992706299 171.4589996338
138.5334014893 185.0398712158 216.6926116943
134.2551422119 201.1199951172 198.7230072021
141.6708679199 159.2229766846 215.4400024414
142.4908599854 118.3329696655 241.8399963379
153.6233978271 182.2098693848 176.0726013184
132.2019195557 203.1689910889 203.2980041504
134.7042999268 197.3440704346 208.2523956299
141.2792053223 172.7075805664 220.3081970215
142.6640777588 181.4928436279 216.5599975586
143.9255828857 162.4159088135 229.8789978027
140.2667694092 210.2620086670 207.0046081543
134.2382812500 198.5333862305 200.3659973145
150.3052825928 160.6869201660 225.6540069580
147.2606964111 200.4510345459 196.1502075195
145.5588226318 144.9640197754 234.6299896240
140.0988159180 156.1840209961 225.9899902344
142.3797607422 203.2400054932 200.0000000000
140.5489654541 177.3592681885 211.7789916992
138.7537994385 165.9671936035 220.8412017822
152.4051361084 196.9400024414 176.4230041504
147.3917694092 203.1567993164 185.7710113525
143.6188201904 176.6740264893 214.8300018311
142.2431945801 166.1345825195 218.0379943848
152.4994049072 202.8325347900 189.6840057373
145.7052917480 114.7469177246 243.9739990234
136.6683959961 137.3279571533 235.3560028076
142.8588256836 150.7040252686 229.5999908447
160.5821380615 183.9969329834 171.6431884766
151.3108673096 196.6129760742 183.2399902344
159.7888183594 183.9540252686 172.7500000000
147.7979125977 158.6776123047 217.2269897461
139.0749969482 148.7669219971 236.3954010010
143.0567169189 173.1897277832 213.4499969482
149.3583831787 204.5679626465 196.2460021973
157.1843109131 117.6240768433 236.2723999023
134.2108612061 141.9529724121 237.9599914551
148.2667083740 117.5997238159 233.1300048828
148.8238067627 202.6671905518 191.6911926270
141.6994018555 157.7125396729 232.1139984131
131.5817565918 183.9768066406 214.2410125732
140.0236511230 203.9178161621 200.8339996338
149.0208740234 202.0529785156 193.5299987793
135.1186065674 129.1156158447 242.4575958252
147.4589538574 183.6781768799 213.7769927979
155.6338195801 192.2484741211 185.0713958740
142.9921417236 151.0769348145 230.1631927490
127.9357604980 182.1359100342 217.4830017090
138.5904693604 141.8269348145 237.6473999023
149.4046630859 197.8923492432 190.3399963379
149.8416900635 159.0073699951 216.6199951172
138.5388183594 196.7840270996 206.5399932861
130.0046539307 187.8923492432 208.9499969482
134.4487457275 183.2760009766 211.4186096191
139.6739501953 169.2799987793 212.4438018799
145.6851501465 206.9299926758 201.6330108643
140.4736175537 177.1869812012 211.7295989990
144.7467041016 183.5697326660 218.0999908447
158.8546600342 111.2423477173 234.7500000000
139.8340759277 200.0528564453 211.3600006104
133.5451354980 204.5599975586 199.9530029297
134.9640045166 181.5322113037 213.2500000000
148.0108642578 117.3229751587 241.3499908447
129.5533905029 131.4498596191 236.5326080322
140.7447814941 144.9353179932 235.9409942627
136.2866821289 125.2699966431 236.9120025635
133.4608612061 199.4029693604 203.7899932861
157.8936462402 113.6178207397 230.7639923096
167.3916931152 113.3473663330 234.8000030518
134.8051452637 157.9400024414 218.0130004883
149.3516540527 203.7193603516 188.3603973389
153.8320617676 173.6303863525 170.0570068359
142.6967163086 150.5397338867 221.6100006104
159.3721313477 188.2669372559 176.2931976318
148.7299957275 113.0408477783 237.4600067139
136.6288299561 161.7640228271 215.8000030518
136.3067626953 173.9320068359 218.4346008301
143.4943084717 142.9640655518 229.6324005127
153.6982727051 187.8233795166 173.9259948730
132.5882568359 119.1373062134 241.7810058594
155.4267120361 118.0897293091 240.2200012207
157.6989593506 194.5281829834 178.4869995117
141.3008728027 148.6129760742 239.1599884033
136.4821319580 139.2869262695 236.2931976318
156.5655822754 111.8959197998 238.2489929199
155.2127380371 189.0001068115 171.5189971924
147.6974182129 161.6398620605 213.1900024414
140.0699920654 141.8552246094 233.9673919678
134.7339630127 202.8999938965 197.5337982178
147.4539489746 163.3999938965 216.2738037109
160.5818634033 182.8375244141 169.3320007324
143.6716918945 151.5373687744 228.7599945068
147.9700012207 112.9108428955 236.3500061035
150.0839996338 113.6722030640 236.5700073242
139.4138031006 159.3972015381 226.6311950684
156.9440002441 180.4322052002 170.5100097656
152.8738098145 189.6671905518 178.2012023926
141.7059631348 160.4687957764 216.9168090820
136.7120666504 179.4080505371 212.7420043945
163.4952850342 111.5269165039 236.3240051270
140.7816619873 210.5193481445 208.0704040527
141.8408660889 149.9929656982 233.7599945068
136.9127349854 194.4701080322 207.2989959717
138.2149963379 190.6969146729 207.7453918457
156.4252929688 189.6269226074 183.0440063477
161.1667175293 177.2697296143 177.9599914551
138.7537994385 165.9671936035 220.8412017822
146.8216552734 165.2593536377 223.7304077148
147.0698089600 192.8467407227 185.1300048828
148.8652954102 157.3469238281 216.0540008545
132.2349853516 193.5869293213 214.4053955078
135.4774169922 165.5898590088 214.1699981689
138.5047760010 148.1353149414 230.5110015869
152.3846588135 184.8423461914 169.4400024414
133.7551422119 189.8399963379 204.8830108643
139.8167114258 169.7997283936 218.2599945068
138.8786010742 155.0056152344 234.7476043701
140.7867584229 164.9820098877 220.4546051025
145.1852874756 179.0169219971 215.9840087891
142.2992095947 201.9975891113 207.5381927490
153.0817565918 191.3068084717 172.2010040283
138.4346618652 179.1223449707 214.4499969482
131.7082824707 128.5233764648 234.4859924316
134.2508697510 129.4729766846 240.3999938965
135.7082672119 202.3972930908 212.6510009766
160.5888214111 110.9140243530 235.3099975586
137.1663055420 206.4087066650 208.2050018311
138.5904693604 141.8269348145 237.6473999023
156.6797790527 184.0057067871 177.4918060303
133.6797485352 194.3699951172 203.4700012207
145.6386260986 116.5417709351 234.4459991455
145.3199920654 152.9552307129 235.3173980713
157.7283935547 192.9379577637 180.4759979248
146.0197906494 199.0757141113 193.8318023682
136.6936187744 145.0069732666 230.9695892334
132.5255737305 190.3459167480 214.7890014648
145.5188293457 199.2440338135 202.5800018311
142.9482727051 199.3933868408 201.1060028076
147.5998077393 112.8167572021 235.0800018311
143.3717651367 182.8267974854 212.0210113525
146.5167694092 201.5520172119 193.0646057129
131.8657684326 200.0159149170 202.5130004883
144.3097534180 161.2599945068 219.5299987793
149.2843017578 207.6040649414 195.3224029541
137.4620513916 124.9503860474 237.2270050049
128.8733978271 187.8398590088 215.2725982666
139.0436248779 177.1969757080 211.9196014404
139.0774230957 179.1198577881 223.3699951172
139.6167144775 201.1097412109 210.5200042725
149.6567077637 202.5897369385 186.1999969482
136.5621948242 194.9598693848 209.0999908447
140.7772216797 176.9153594971 216.5100097656
138.7297515869 176.4100036621 222.3800048828
149.6147766113 191.1853179932 186.4609985352
150.5689544678 205.7381744385 203.4669952393
148.2138061523 206.1972045898 205.6112060547
140.0474243164 168.0298614502 214.6399993896
134.9465789795 133.7716979980 238.9857940674
147.2889556885 117.4081878662 242.5869903564
146.6082763672 157.8033752441 211.7859954834
141.0921325684 130.6769409180 242.1331939697
135.4208679199 208.2329711914 210.0999908447
144.9588165283 181.2040252686 218.3799896240
154.6734008789 185.6498565674 177.5626068115
145.8647766113 206.6653289795 193.7510070801
136.9085998535 124.7356109619 241.9875946045
136.4646606445 175.2423553467 214.2799987793
156.9197540283 118.0599975586 236.7400054932
136.0307159424 187.2366485596 215.9860076904
131.9839935303 126.7722091675 237.4400024414
130.9386138916 137.5256195068 235.6475982666
157.3639984131 173.4721984863 177.5400085449
142.2846679688 118.9023513794 239.2799987793
154.1047821045 173.0353240967 168.8910064697
143.6667175293 203.9897308350 205.5800018311
142.6649932861 116.9869232178 245.5153961182
143.0233917236 152.4998626709 238.0026092529
138.5046539307 164.2523498535 226.5500030518
133.1302947998 136.4898376465 235.7949981689
141.7540740967 151.5928497314 233.8199920654
139.8121337891 198.0469360352 206.4431915283
131.8751373291 182.4400024414 213.0230102539
145.8027343750 152.2501068115 234.6989898682
130.2208709717 138.7929687500 231.3799896240
132.5297851562 198.4757080078 205.7118072510
135.4597625732 162.8399963379 213.8400115967
139.3916931152 199.1873626709 206.4400024414
135.2282714844 181.8033752441 212.9859924316
130.3859558105 139.7288055420 236.2168121338
136.6367034912 165.8197326660 215.0099945068
136.7120666504 179.4080505371 212.7420043945
146.7264709473 159.4912414551 223.4600067139
131.0020599365 193.1580505371 209.3020019531
130.9608612061 134.5029754639 236.5199890137
141.9516906738 150.5773773193 223.1999969482
143.9237976074 115.8372039795 246.1011962891
138.4008636475 176.7529754639 224.6199951172
131.9839935303 126.7722091675 237.4400024414
142.7263031006 112.9587020874 241.8950042725
147.6227264404 207.7301025391 198.3089904785
141.3633880615 176.8198699951 213.8226013184
149.2416839600 161.8173675537 220.8099975586
138.5597839355 147.7557067871 219.7118072510
144.4720611572 159.9180450439 222.7320098877
137.6702880859 119.6098403931 241.2649993896
142.8425903320 206.8699951172 194.1479949951
143.9088287354 160.4340209961 225.5500030518
139.5039978027 178.6622009277 213.6100006104
145.2446594238 113.1023483276 235.1399993896
145.3892059326 141.7375946045 231.1082000732
142.3039550781 161.7400054932 220.6538085938
166.5379180908 114.8776245117 236.5970001221
156.0772247314 188.1953582764 170.6100006104
155.1574249268 179.7298583984 175.8000030518
133.5306854248 137.9010314941 239.2102050781
150.9172210693 119.4053573608 237.6399993896
149.3739929199 198.2022094727 191.3000030518
147.6316833496 163.4973754883 221.0000000000
146.1389312744 118.6358337402 246.2120056152
141.0899963379 175.2008514404 225.2400054932
141.8846588135 177.0023498535 214.2700042725
144.2699890137 168.6252288818 225.2673950195
137.3633880615 150.2598571777 232.8126068115
138.7121429443 119.9569320679 238.9331970215
133.0757598877 198.2259063721 202.1130065918
136.7140655518 183.8928527832 217.3799896240
146.6321411133 150.4269409180 236.2731933594
141.8297576904 200.5299987793 200.7700042725
135.1702880859 198.9398345947 213.4850006104
134.6734008789 195.7198638916 213.3626098633
136.5236206055 167.3069763184 218.1195983887
137.7639617920 147.0000000000 234.0938110352
149.6359558105 193.0888061523 185.4968109131
136.5243072510 190.0540771484 205.9924011230
133.1392059326 185.2875823975 212.2682037354
147.0759582520 115.8087997437 239.5068054199
140.2913970947 161.8999938965 222.6887969971
135.9208679199 131.7929687500 241.8300018311
144.9916839600 179.2873687744 211.8099975586
153.1736450195 191.4878234863 179.5540008545
139.0702819824 128.2398376465 243.3450012207
136.7008666992 176.3329772949 215.1199951172
139.5955810547 148.6959075928 228.6089935303
147.8316955566 118.2273712158 241.0500030518
136.4986114502 155.2556152344 234.4076080322
153.7464752197 114.4412307739 240.6999969482
145.2202911377 115.9598388672 245.8450012207
135.9986267090 131.2417755127 242.6159973145
162.5402832031 114.1798400879 237.8249969482
134.3038024902 134.3972015381 239.1112060547
145.8946685791 201.9523468018 190.3399963379
140.6327362061 141.4600982666 233.4489898682
143.1689453125 143.5681762695 229.8670043945
137.8316650391 133.8593597412 244.7704010010
133.9246673584 186.2823486328 211.4700012207
142.7297515869 207.7899932861 195.2300109863
156.5043029785 187.4840698242 168.4324035645
146.6952819824 156.8269348145 215.8840026855
134.6988220215 117.0940246582 240.1900024414
134.3189544678 136.5281829834 232.5469970703
132.6851501465 201.1000061035 200.4830017090
133.4108734131 120.7829742432 243.3300018311
146.0307312012 120.1999969482 237.0225982666
136.8736267090 181.1269836426 207.9095916748
152.3052825928 193.6669311523 188.9040069580
135.5902862549 197.7498321533 202.9250030518
146.6188201904 200.5540313721 197.0999908447
129.0467681885 188.8220062256 213.3545989990
142.7143096924 207.4440765381 204.0823974609
145.5314025879 202.2599945068 195.1188049316
158.3442993164 189.7540740967 174.9324035645
146.9616851807 118.9673690796 244.1999969482
164.6889343262 115.9358367920 236.2519989014
132.2097625732 196.9799957275 208.1699981689
141.0352935791 163.4169311523 218.9140014648
146.8947753906 119.7153244019 237.0509948730
161.5289459229 175.9781799316 175.9369964600
151.8288269043 193.2740325928 188.7099914551
139.1239929199 120.4922027588 237.6699981689
134.6399993896 182.8208465576 218.6300048828
152.9706878662 181.7210388184 174.9302062988
149.2289581299 202.8881835938 203.7070007324
150.9857635498 195.4259033203 180.4730072021
143.9955749512 163.0759124756 218.2989959717
135.1589355469 204.8358306885 205.2019958496
143.3688201904 177.8540191650 217.3499908447
151.9266815186 193.8200073242 183.0119934082
141.6913909912 178.7200012207 212.4188079834
144.6508636475 119.5529708862 245.3199920654
152.2889709473 201.7192687988 186.4389953613
128.5497894287 186.3457031250 214.1217956543
154.3025817871 190.0899963379 171.3379974365
144.9552917480 114.7169189453 245.1240081787
142.9225921631 180.1300048828 210.6380004883
145.5946655273 192.3923492432 190.0699920654
151.1792144775 206.0675811768 196.8381958008
153.9936218262 188.1069793701 169.3395996094
159.4052886963 112.4269180298 235.8540039062
150.6989746094 162.1592559814 222.4889984131
130.0046539307 187.8923492432 208.9499969482
139.2386169434 168.9017791748 224.5260009766
134.6262969971 197.5587005615 200.8950042725
138.3989562988 192.2481842041 206.4869995117
139.9366760254 147.6900024414 233.0520019531
138.5147857666 200.2253265381 200.2810058594
132.5191345215 133.7458648682 239.5440063477
141.4808654785 120.1629714966 242.4299926758
141.5543060303 176.5740661621 211.0124053955
137.1308746338 153.2729644775 222.9799957275
150.6436309814 191.0069732666 175.4795989990
139.1746673584 153.3123474121 229.5200042725
142.0582733154 146.9433746338 231.0859985352
156.0338287354 175.0684661865 170.8914031982
146.1816558838 161.2493591309 214.2004089355
143.7846679688 199.5723571777 202.0200042725
142.6516876221 182.1873626709 207.8000030518
158.3583831787 190.7679595947 174.5659942627
153.3716888428 197.9273681641 192.6900024414
155.2789459229 196.5881805420 178.0469970703
151.3108673096 196.6129760742 183.2399902344
162.5488281250 113.7340240479 237.2299957275
157.4752960205 191.7069244385 183.1240081787
154.9186096191 179.4656219482 175.7675933838
140.2916870117 201.9473724365 210.1000061035
138.3049926758 128.6669311523 237.3853912354
134.9640655518 185.4928436279 219.2399902344
146.1540679932 119.4428405762 245.5999908447
147.3097534180 116.3099975586 231.4500122070
137.6751403809 174.3399963379 211.2530059814
140.2957611084 170.8759155273 212.5130004883
147.0240783691 118.7028427124 242.4499969482
139.1940765381 133.1828460693 244.3699951172
146.2574310303 203.7598571777 189.7799987793
159.4717559814 118.6268005371 237.5310058594
141.8440704346 182.6628417969 209.1999969482
130.4807281494 186.7700042725 211.5026092529
149.1816864014 113.8573684692 236.8899993896
140.8499908447 146.5408477783 224.2799987793
151.2042999268 202.5840759277 188.0623931885
134.8536224365 202.5569763184 208.7695922852
138.7121429443 119.9569320679 238.9331970215
132.7717590332 120.1768035889 239.7510070801
134.3540649414 188.1128540039 215.6199951172
160.8602905273 173.8998413086 178.9550018311
130.5117645264 139.2667999268 230.2810058594
139.4919281006 174.2889862061 222.8680114746
137.9867095947 177.2797393799 214.5599975586
155.4714050293 184.1900024414 166.8787994385
141.8040771484 178.5428466797 219.4299926758
147.9299926758 161.2252349854 210.4873962402
136.1808624268 143.2129669189 232.1799926758
138.1072235107 182.7153472900 209.3000030518
143.1967620850 153.4820098877 236.0846099854
142.5852813721 150.6369323730 230.6940002441
140.4440765381 151.4928436279 235.8799896240
141.3098144531 173.5067443848 221.4400024414
139.3916931152 199.1873626709 206.4400024414
138.9147796631 139.2753143311 234.3509979248
135.5307159424 204.5766448975 206.2860107422
148.8567047119 161.8697357178 214.0299987793
156.7116851807 187.2773742676 171.4499969482
140.7883911133 183.9979553223 211.9960021973
152.7939910889 199.0122070312 188.3000030518
151.4920654297 114.8680496216 239.9720001221
144.7399902344 202.7652282715 196.4473876953
147.9379119873 206.1976165771 199.5269927979
143.5852813721 176.9769287109 215.5940093994
139.9040679932 143.5528564453 235.8600006104
135.2386016846 157.1056213379 225.5276031494
135.4516601562 188.1193542480 214.9504089355
143.4597625732 114.6399993896 238.7500000000
143.5099945068 123.2552413940 237.4373931885
140.2951354980 143.9199981689 228.2430114746
151.7991333008 116.2858581543 241.0639953613
146.1416625977 165.2093505859 222.4104003906
141.4808654785 120.1629714966 242.4299926758
134.9588165283 184.1840209961 218.6799926758
149.3799896240 158.8408508301 225.0599975586
141.8236236572 165.3569793701 223.9496002197
144.6788177490 177.0440216064 222.7200012207
143.7272338867 203.9153594971 200.2799987793
137.9772338867 156.7853546143 218.4100036621
159.7940673828 185.2628479004 173.3099975586
150.3351440430 200.7400054932 186.0330047607
146.1389312744 118.6358337402 246.2120056152
142.3339996338 199.3222045898 201.3300018311
133.4608612061 199.4029693604 203.7899932861
157.9352874756 182.1069335938 174.9940032959
137.9772338867 156.7853546143 218.4100036621
138.4266815186 204.1900024414 200.4320068359
142.0472259521 154.4353485107 226.9400024414
143.2131805420 175.6345825195 218.8579864502
147.7062988281 191.3986968994 187.3450012207
135.8574218750 126.4798660278 240.1500091553
143.9616851807 148.6373748779 231.0500030518
138.3813934326 155.1199951172 230.4788055420
157.5998077393 173.3067474365 176.2599945068
134.0233917236 160.5898590088 221.3026123047
139.0914001465 168.3600006104 214.9087982178
150.5616607666 203.3493499756 188.9804077148
143.4013977051 119.5400009155 237.6587982178
138.3300018311 127.6108474731 244.5200042725
159.5902862549 114.7098388672 240.3849945068
148.7299957275 113.0408477783 237.4600067139
136.1808624268 143.2129669189 232.1799926758
151.2352905273 197.8169250488 193.8040008545
139.6225891113 165.2200012207 224.6679992676
133.1392059326 185.2875823975 212.2682037354
156.9767150879 192.1897277832 178.3199920654
132.1936187744 197.9669799805 209.1595916748
140.2514038086 142.6199951172 228.5588073730
139.8192596436 161.0091857910 223.5742034912
138.1302947998 206.5998382568 210.2350006104
143.2072296143 148.1853485107 220.5900115967
150.4351501465 163.8699951172 222.3529968262
149.4736175537 202.7369842529 191.9595947266
139.9438018799 171.8672027588 217.5811920166
128.7140045166 181.4822082520 216.2900085449
145.7292633057 121.7791976929 238.2742004395
133.5520629883 201.9280395508 205.9220123291
158.1566772461 112.2399978638 229.6719970703
134.3414001465 188.9600067139 205.5388031006
131.1591339111 186.7958679199 215.8740081787
144.7627258301 160.9701080322 213.7689971924
153.8320617676 173.6303863525 170.0570068359
143.9486236572 151.0217742920 232.7760009766
147.1767578125 164.8520050049 217.4246063232
141.8047790527 152.7653198242 222.1510009766
155.6440734863 117.0328445435 241.0599975586
151.0252838135 161.8969268799 225.7839965820
133.8152923584 181.5869293213 217.0140075684
148.7731933594 161.3545837402 218.9479980469
136.8936309814 174.4469757080 215.3295898438
138.6217651367 209.5868072510 205.4910125732
155.8543090820 196.4440765381 177.9024047852
139.0936279297 164.4569854736 224.9095916748
155.2997589111 187.3399963379 174.0400085449
157.7416534424 186.9693603516 173.4304046631
144.2713928223 206.7799987793 201.4888000488
136.7682800293 195.7233734131 208.0459899902
140.1655731201 171.5659027100 221.4589996338
152.6446685791 176.2823486328 173.5699920654
142.9940643311 140.6928558350 233.9499969482
166.5840759277 113.8228378296 236.1999969482
144.6652832031 113.0269165039 243.0140075684
140.9479217529 139.9276123047 234.6669921875
143.9346618652 205.0423431396 198.4700012207
135.8267669678 156.6120147705 231.8846130371
136.6252899170 190.8969268799 208.9840087891
141.7743072510 181.6740722656 206.4324035645
137.0686187744 177.4417724609 212.7959899902
143.9055786133 160.2659149170 223.3390045166
136.3489532471 200.1481781006 212.2669982910
142.5616912842 151.1173706055 232.4199981689
148.7299957275 113.0408477783 237.4600067139
144.8440704346 158.8428497314 218.7200012207
136.6791229248 151.6958618164 225.0639953613
136.4622039795 139.1298675537 234.0399932861
142.2282714844 145.5833740234 231.6959991455
158.3838043213 182.9971923828 175.1011962891
145.6082763672 159.6833801270 220.2059936523
139.0839538574 147.7100067139 228.8238067627
133.1392059326 185.2875823975 212.2682037354
156.9767150879 192.1897277832 178.3199920654
132.1763000488 135.1287078857 231.7350006104
135.5427246094 161.4401092529 223.7289886475
146.0772247314 162.3453521729 214.5599975586
147.5118560791 117.8275222778 243.8320007324
144.1739959717 157.4022064209 216.7600097656
153.6783905029 194.6979675293 183.3759918213
140.2172241211 182.3253479004 205.6600036621
150.5821380615 202.0669403076 195.2231903076
137.5433959961 150.6398620605 228.9925994873
155.6157684326 182.0359039307 168.8529968262
130.9608612061 134.5029754639 236.5199890137
153.3089599609 163.5181732178 223.9769897461
147.0540771484 160.4128417969 217.9700012207
137.4333038330 196.8326873779 211.6479949951
149.9472351074 205.9953613281 202.8600006104
148.4716644287 204.3793487549 190.3303985596
141.6672210693 182.3453521729 210.5299987793
136.0708618164 178.7729644775 212.3399963379
142.8742980957 153.4740753174 227.9723968506
134.1166839600 185.0299987793 210.3119964600
133.2146606445 200.6823425293 204.6900024414
151.9988250732 188.0740203857 177.7899932861
144.0597534180 207.6799926758 202.1900024414
136.3052825928 182.0169219971 215.2539978027
144.4955749512 200.3659057617 198.7489929199
136.5236206055 167.3069763184 218.1195983887
136.9897918701 145.9757080078 236.0118103027
138.6913909912 174.3300018311 210.2288055420
131.8499908447 131.9052276611 233.8473968506
157.8507080078 191.5666503906 176.3860015869
154.1013946533 191.1799926758 178.4087982178
143.4739532471 152.0299987793 234.9338073730
143.4227752686 170.6990051270 216.8262023926
131.2539978027 180.1122131348 213.1999969482
141.5497894287 162.8657073975 229.1118011475
139.9827270508 178.2501068115 213.8089904785
145.1092071533 164.2175903320 217.1481933594
143.2833099365 162.6926879883 228.2080078125
131.6967163086 142.6697387695 236.7599945068
136.7689514160 198.9581756592 201.7070007324
145.5640716553 146.2728424072 235.1899871826
140.2964782715 171.9612426758 218.8899993896
155.8886108398 117.2356109619 241.3675994873
130.2059631348 187.7588043213 209.5068054199
139.4640655518 125.1728439331 242.2699890137
143.3336181641 183.4469757080 213.2796020508
153.8121337891 195.1569366455 185.9832000732
146.8464660645 200.4312438965 199.3700103760
143.9352874756 144.7869262695 235.8639984131
140.6272277832 178.7353515625 222.8099975586
149.8852844238 115.2769165039 240.4140014648
132.5297851562 198.4757080078 205.7118072510
158.9482727051 173.5533752441 175.9160003662
155.7819213867 174.0889892578 177.6880035400
144.9964752197 199.5512390137 200.9800109863
152.0802917480 187.5598297119 176.0549926758
137.6174163818 206.9698638916 202.3699951172
141.6913909912 178.7200012207 212.4188079834
150.0655822754 204.9259033203 197.9889984131
136.6646575928 148.4423522949 220.2400054932
139.2691345215 182.6958618164 216.7340087891
140.2514038086 142.6199951172 228.5588073730
143.5874176025 183.3398590088 217.2599945068
143.5283966064 166.9279632568 214.2259979248
158.1516876221 176.5773773193 172.6300048828
160.7588195801 112.6740264893 238.4199981689
153.7797851562 113.7857131958 235.4217987061
140.6855773926 146.2359161377 231.5090026855
139.8102874756 150.1398315430 235.4349975586
149.5049896240 119.8969192505 236.2053985596
141.3633880615 176.8198699951 213.8226013184
155.6867065430 188.8097381592 172.0099945068
131.6262969971 127.5587005615 235.2949981689
142.0716857910 152.4173736572 224.7400054932
142.3016815186 181.4273681641 211.3699951172
145.0392150879 163.5575866699 228.7281951904
134.9997863770 148.2657012939 222.3518066406
141.8139495850 178.7200012207 222.1737976074
158.5740661621 188.5628509521 178.3699951172
129.3017578125 183.7967987061 214.8810119629
143.0482635498 118.0173034668 246.2510070801
166.5302886963 112.9798431396 235.7850036621
144.9852905273 146.9469299316 238.7140045166
137.1236419678 176.2178192139 218.6640014648
140.7927856445 155.1690063477 226.5061950684
148.0839996338 158.5222015381 222.6800079346
130.4239501953 185.6199951172 210.7338104248
135.5486145020 125.2556076050 241.4376068115
138.3174285889 140.5198669434 232.4199981689
136.6520538330 173.8680419922 219.3920135498
141.7017669678 116.2468032837 242.3010101318
132.9419250488 119.1889877319 241.6880035400
144.6634674072 194.9630584717 188.7559967041
152.9916839600 164.5873718262 224.0700073242
145.8289642334 116.5992660522 240.3689880371
139.7132873535 208.9781036377 204.2039947510
153.2533111572 200.2026824951 193.4179992676
163.5037994385 113.6472015381 237.2312011719
156.2882843018 182.2333831787 167.7859954834
156.6367034912 191.5797271729 173.4299926758
156.9197540283 118.0599975586 236.7400054932
143.1179199219 174.5376129150 214.0769958496
135.3508605957 181.2529754639 212.0999908447
149.1467132568 208.3597412109 204.0999908447
138.2946624756 170.8423461914 213.6000061035
137.4647827148 175.7453155518 216.1510009766
137.9772338867 130.8753509521 237.1100006104
139.1239929199 120.4922027588 237.6699981689
140.7936248779 149.3969726562 233.6495971680
137.5452880859 126.8169174194 242.0039978027
143.8759613037 160.4288024902 221.5668029785
145.8308715820 193.4829711914 190.9099884033
133.9140777588 188.3028564453 212.0999908447
136.1188201904 157.9440307617 225.7899932861
137.1316833496 198.8273773193 201.7100067139
142.9986114502 182.6556243896 218.2176055908
136.1013946533 130.0800018311 237.1287994385
141.8704681396 159.7769317627 226.0773925781
155.4714050293 184.1900024414 166.8787994385
130.3262939453 180.5086975098 214.4750061035
134.0716552734 198.3393554688 210.5204010010
145.1449890137 166.5369262695 215.7653961182
130.4420623779 189.2880401611 209.9620056152
141.1059570312 114.2488021851 244.2868041992
140.7855834961 153.3759155273 225.7389984131
162.5488281250 113.7340240479 237.2299957275
139.7808685303 180.3429718018 217.7099914551
133.2025909424 130.2500000000 233.2579956055
137.3508605957 177.1629791260 220.4700012207
153.8491363525 177.6658630371 176.3540039062
156.7255859375 183.7059020996 177.1790008545
141.1308746338 161.8729705811 216.1599884033
143.3408660889 158.9529724121 218.4400024414
139.5872344971 184.0753479004 210.5400085449
145.6516876221 158.3673706055 217.3200073242
146.8522033691 160.0998687744 218.2200012207
135.6533966064 155.6298675537 233.8026123047
144.8221435547 164.1669311523 227.8331909180
148.4263000488 204.3386993408 202.6549987793
146.4849853516 210.0869293213 195.2854003906
146.3774261475 118.0998687744 237.6199951172
134.4898071289 191.8267517090 204.4299926758
142.2846679688 118.9023513794 239.2799987793
152.0317687988 191.2468109131 175.6310119629
130.2788238525 182.7840270996 218.7500000000
136.5097503662 142.8699951172 229.9400024414
136.0449981689 204.6669158936 199.8353881836
133.3816680908 142.0193481445 237.6903991699
131.0159606934 127.4788055420 236.8068084717
138.5308685303 168.8529663086 218.8199920654
139.3192138672 141.2375946045 237.0182037354
132.6851501465 201.1000061035 200.4830017090
143.3688201904 151.8040313721 233.1399993896
141.8139495850 176.3500061035 210.7537994385
146.2367095947 195.8497314453 190.0500030518
144.4043121338 177.5740661621 219.6324005127
140.7936248779 149.3969726562 233.6495971680
136.5508728027 172.7029724121 217.7299957275
137.7736206055 158.7869873047 222.4795989990
161.7189636230 118.0692596436 236.7189941406
151.5492553711 119.0391998291 239.2742004395
145.2152862549 145.1369323730 235.0540008545
142.9267578125 177.8920135498 219.7446136475
143.3892669678 203.6492004395 198.3342132568
144.0446624756 193.8623504639 187.0399932861
156.5655822754 111.8959197998 238.2489929199
136.6321411133 202.8169403076 201.1431884766
145.5231933594 146.7545928955 232.4579925537
132.1763000488 135.1287078857 231.7350006104
137.6840667725 132.4628448486 240.5699920654
134.4451446533 119.6600036621 237.3830108643
138.1379241943 208.4976196289 211.0469970703
147.1167144775 194.4297332764 190.3499908447
136.5899963379 138.0652313232 237.7173919678
150.7440643311 118.9628448486 239.8799896240
162.0389556885 175.1081848145 177.7369995117
147.2182617188 206.5872955322 205.0910034180
136.6288299561 161.7640228271 215.8000030518
153.3286132812 177.8156127930 175.2675933838
157.6916961670 192.6473693848 183.8800048828
156.0255737305 186.6359100342 182.1289978027
149.4882812500 113.8533706665 236.3359985352
160.0567169189 177.0197296143 179.2799987793
144.7807159424 165.4866485596 222.2660064697
158.6821441650 181.7069396973 171.7731933594
138.8462982178 149.9486999512 233.4049987793
156.2238006592 186.7671966553 172.0612030029
154.8719177246 174.8589935303 177.0480041504
136.6267700195 190.3820037842 206.5946044922
136.4389343262 130.4058227539 246.9219970703
142.1240692139 208.6128540039 206.1999969482
135.5251464844 155.7799987793 218.0330047607
132.1174163818 136.0198669434 236.9799957275
149.3516540527 203.7193603516 188.3603973389
154.9752960205 113.4769210815 240.1439971924
143.3717651367 182.8267974854 212.0210113525
140.5334014893 158.7298583984 225.9526062012
152.4872283936 163.8253479004 222.6300048828
143.7016601562 165.7293548584 225.3104095459
154.0057678223 193.7959136963 178.8930053711
141.1836242676 179.4269866943 222.5296020508
142.2972259521 209.0553588867 203.9600067139
147.1167144775 194.4297332764 190.3499908447
129.3736267090 184.8169860840 215.8195953369
160.8742980957 118.3940811157 237.4624023438
141.6819152832 157.5989837646 214.5480041504
127.9357604980 182.1359100342 217.4830017090
147.6618652344 148.8075256348 233.2519989014
135.3617553711 167.2068023682 217.7510070801
143.4597625732 114.6399993896 238.7500000000
155.3574218750 119.3898696899 238.6500091553
147.3416595459 161.8493499756 213.6004028320
143.5138092041 164.9371948242 230.1011962891
145.3802947998 157.2498321533 216.3650054932
159.0627746582 185.3489990234 179.0261993408
140.1783905029 205.0679626465 200.7960052490
143.2736511230 165.1878204346 221.1739959717
139.4927825928 127.2689895630 240.9461975098
136.3289337158 159.1258239746 226.2019958496
158.8716888428 193.6973724365 182.1199951172
142.4537963867 173.5072021484 213.9812011719
137.1699981689 185.4552307129 208.3973999023
140.7727355957 155.3601074219 234.7489929199
140.7640686035 177.1628417969 226.3899993896
135.8574218750 126.4798660278 240.1500091553
154.0739898682 112.9622039795 238.5700073242
142.8486022949 159.9556121826 218.2976074219
138.7767028809 207.1997375488 203.2099914551
137.8572235107 132.9053497314 238.3300018311
142.6246643066 205.8723449707 195.3699951172
144.2619171143 193.1089935303 187.3280029297
138.9674224854 125.3298645020 238.2400054932
137.2889709473 193.4292602539 203.2189941406
146.2574310303 203.7598571777 189.7799987793
142.2888183594 205.3140258789 207.4400024414
140.4164733887 158.1612396240 225.9499969482
143.1689453125 143.5681762695 229.8670043945
143.7798156738 178.0767517090 211.5899963379
150.9463043213 187.5687103271 171.8650054932
147.7308654785 197.1529693604 187.5800018311
155.2127380371 189.0001068115 171.5189971924
136.5425872803 207.8399963379 204.7579956055
135.8046569824 127.6923522949 243.4700012207
136.7559661865 151.2388000488 224.1968078613
145.9252929688 146.9469299316 236.7040100098
142.8300018311 159.1852264404 223.2673950195
130.8886108398 133.9256134033 237.6876068115
150.5689544678 205.7381744385 203.4669952393
137.7127838135 155.4790039062 234.1862030029
131.8657684326 200.0159149170 202.5130004883
139.4962921143 139.0587005615 230.0249938965
141.6999969482 160.7152252197 221.4673919678
139.7299957275 127.8752365112 237.8773956299
136.6267700195 190.3820037842 206.5946044922
149.5027313232 203.9100952148 190.9689941406
144.1152954102 174.7369232178 222.3540039062
146.8746643066 113.8923492432 233.2200012207
143.6316680908 122.7793579102 242.3003997803
146.3272247314 119.8853530884 243.3600006104
148.6674194336 200.4698638916 191.5800018311
146.9616851807 184.5873718262 214.4499969482
136.3527832031 137.4589996338 240.7861938477
135.0138244629 192.1084747314 213.0713958740
152.7559661865 194.1388092041 179.7168121338
132.7274169922 200.9698638916 212.0400085449
154.8908691406 176.4229736328 178.0399932861
139.9040679932 143.5528564453 235.8600006104
129.9759674072 129.2687988281 235.8468017578
145.1659698486 114.5888061523 234.4568023682
132.5417633057 201.8267974854 209.8209991455
138.1838073730 132.1472015381 246.1311950684
151.6472320557 118.1953506470 235.7900085449
157.3816833496 190.7973632812 179.7400054932
154.8251495361 194.8800048828 176.8630065918
147.3879241943 207.2676086426 205.2870025635
131.9188232422 180.2440338135 214.5999908447
140.1655731201 171.5659027100 221.4589996338
131.9382781982 187.0133819580 208.1459960938
152.1117553711 198.4768066406 177.6410064697
138.5074310303 166.7198638916 215.3899993896
140.6083831787 153.4279632568 226.9459991455
144.1062927246 157.3487091064 212.1450042725
150.6721343994 116.6669311523 235.3131866455
136.9967651367 167.7020111084 219.2246093750
150.6489715576 165.7092590332 223.7589874268
131.0608673096 189.7929687500 213.6699981689
140.0416564941 125.6693572998 240.1304016113
159.8698120117 112.6867523193 236.9299926758
157.7716827393 191.4573669434 175.5299987793
133.9816894531 135.8073730469 234.4700012207
139.0494079590 210.0225372314 206.5839996338
160.5888214111 110.9140243530 235.3099975586
130.3474273682 139.5098571777 229.9799957275
133.1392059326 185.2875823975 212.2682037354
142.6579132080 141.1176147461 233.7669982910
141.9714050293 162.1399993896 213.3188018799
142.4008636475 208.1329650879 197.4700012207
137.7167663574 151.6220092773 227.0746002197
149.4140777588 160.8328552246 217.0899963379
153.8946685791 187.6223449707 177.2299957275
146.0146636963 116.2923507690 238.1799926758
137.4098052979 176.6767425537 209.3099975586
134.9055786133 198.0259094238 206.4790039062
156.7472229004 191.7153472900 178.9000091553
149.2843017578 207.6040649414 195.3224029541
150.5267028809 120.0197296143 239.0399932861
153.2089538574 200.3881835938 187.6569976807
142.8497619629 119.6500015259 237.8800048828
136.7167663574 128.3520202637 236.2346038818
153.8149871826 178.5169219971 171.6053924561
138.1151428223 151.6999969482 232.5930023193
146.3021392822 148.2969360352 237.3531951904
138.8072357178 153.6053466797 221.0200042725
139.1943054199 198.8940734863 206.4223937988
149.5088195801 115.9040298462 241.0699920654
153.9408721924 191.1829681396 178.5699920654
137.0339508057 179.9100036621 215.0637969971
158.0588226318 192.8640289307 182.9599914551
141.2233123779 182.5526885986 217.0980072021
143.8947753906 174.7853240967 219.3610076904
157.0016632080 180.9993591309 174.8603973389
134.7086029053 129.3756256104 241.0276031494
148.4943084717 206.9140777588 201.9824066162
141.8846588135 177.0023498535 214.2700042725
140.9392089844 140.5975799561 235.1181945801
155.2734680176 176.7130584717 178.4759979248
136.9039916992 177.2221984863 210.6600036621
152.6082611084 195.7673034668 183.2310028076
142.3797607422 203.2400054932 200.0000000000
134.9862976074 199.3686981201 199.5350036621
133.8951416016 199.3099975586 200.0830078125
149.1188201904 200.5140228271 198.1299896240
145.6799926758 165.6952362061 213.8473968506
137.8452911377 195.9369201660 210.3139953613
137.1308746338 153.2729644775 222.9799957275
151.5616912842 114.6373672485 237.1300048828
131.2708740234 139.3729705811 238.0399932861
145.3238067627 120.8872070312 242.9411926270
149.5004730225 200.2869415283 196.5673980713
137.6799926758 161.8708496094 216.3300018311
142.6340789795 181.5028533936 210.2299957275
133.2836303711 121.4669799805 239.5995941162
155.6585998535 185.4356231689 174.3376007080
143.3751373291 159.1000061035 211.3330078125
142.2972259521 209.0553588867 203.9600067139
144.0538024902 164.0171966553 226.6712036133
160.0427246094 178.2001037598 176.7489929199
136.6232757568 159.8780975342 222.3939971924
135.6188201904 127.3840332031 236.8699951172
135.6507110596 133.3666534424 240.2960052490
130.2788238525 182.7840270996 218.7500000000
152.5216674805 191.3793487549 176.8404083252
144.2421417236 152.7669372559 231.5231933594
153.2464752197 198.5012359619 192.6900024414
146.6640014648 191.9322052002 189.2299957275
150.0559692383 188.0787963867 176.3868103027
157.6792144775 113.0375976562 237.0981903076
134.4733123779 133.6026916504 239.9080047607
143.6022033691 145.4998779297 231.7299957275
142.1167144775 157.1397399902 231.0299987793
132.5297851562 198.4757080078 205.7118072510
153.6839904785 114.0622024536 237.2500000000
137.8452911377 195.9369201660 210.3139953613
157.4179229736 186.6076202393 172.0670013428
141.5433044434 204.4226837158 207.5879974365
136.6321411133 202.8169403076 201.1431884766
141.6999969482 160.7152252197 221.4673919678
141.3207092285 171.1766510010 217.2560119629
141.1059570312 114.2488021851 244.2868041992
153.4607238770 181.2100067139 171.5926055908
137.1663055420 206.4087066650 208.2050018311
136.2839965820 154.3422088623 223.4600067139
130.1497802734 190.7957153320 214.0218048096
156.4327239990 196.0101013184 181.4290008545
142.9807128906 154.8466491699 230.9660034180
136.8233947754 166.7198638916 221.1426086426
143.2440032959 160.3022003174 224.1500091553
145.1689453125 165.3881835938 227.4769897461
138.1302947998 206.5998382568 210.2350006104
144.8540039062 199.1122131348 201.1800079346
141.0989379883 177.4258270264 226.1920013428
139.0936279297 164.4569854736 224.9095916748
137.9640045166 151.7221984863 221.3000030518
144.7297515869 161.6699981689 214.2799987793
143.3740692139 153.1128540039 233.6999969482
139.1697540283 124.2699966431 237.4000091553
151.0252838135 161.8969268799 225.7839965820
156.2882843018 180.1433868408 170.8659973145
145.6189727783 182.2692565918 211.2089996338
143.1192169189 150.5675811768 226.8681945801
157.7421417236 190.9769287109 181.6831970215
138.2149963379 190.6969146729 207.7453918457
142.1774291992 204.2998657227 200.8399963379
149.4020538330 195.8180389404 191.0620117188
153.8149871826 178.5169219971 171.6053924561
145.6692657471 164.6591949463 217.6942138672
134.9459686279 180.6188049316 211.4468078613
143.7846679688 199.5723571777 202.0200042725
138.8246612549 167.1823425293 225.7299957275
131.6813964844 195.0200042725 208.2088012695
144.1816864014 178.6873626709 216.5099945068
133.8489532471 140.2581787109 232.1069946289
136.1440734863 186.9128417969 215.0000000000
157.0774230957 115.1898651123 232.2100067139
147.3965911865 165.0016937256 218.9458007812
161.1752929688 110.3469161987 234.6940002441
140.4362945557 178.0287017822 208.0449981689
157.8507080078 191.5666503906 176.3860015869
156.2127380371 196.7501068115 179.2989959717
156.3999938965 115.7352371216 233.8873901367
138.7586212158 178.8317718506 223.3359985352
132.8533935547 199.9698638916 206.8626098633
136.9427795410 192.3090057373 210.5061950684
148.2297515869 203.4100036621 193.9600067139
149.3902893066 204.5298309326 204.6849975586
148.2667083740 117.5997238159 233.1300048828
148.6108703613 196.3129730225 189.8300018311
136.1333923340 172.9498596191 220.3526000977
148.4420623779 198.2880401611 194.1920013428
142.3008728027 162.5629730225 218.5299987793
137.5839996338 162.2722015381 213.9700012207
140.1816864014 127.9973754883 240.8500061035
141.3916625977 209.6793518066 205.7904052734
146.0108642578 204.4629669189 199.8999938965
146.0439910889 200.2422027588 203.4600067139
166.4167175293 116.1597290039 234.3000030518
146.5321350098 146.4869384766 233.6931915283
144.9100036621 178.3008575439 213.9700012207
156.8788299561 191.8140258789 184.7200012207
158.6272277832 114.8053512573 231.6500091553
144.3343048096 164.7340698242 223.0424041748
150.7488250732 113.8040237427 237.9700012207
134.4733123779 133.6026916504 239.9080047607
160.0567169189 177.0197296143 179.2799987793
157.8488159180 192.5240325928 179.9400024414
139.7808685303 180.3429718018 217.7099914551
135.7386016846 204.0656127930 207.9275970459
144.2713928223 206.7799987793 201.4888000488
142.5786285400 181.9317779541 212.0659942627
136.6986083984 145.3356170654 235.0675964355
131.2697601318 187.1999969482 209.2100067139
131.7366790771 194.1300048828 207.4819946289
136.6520538330 173.8680419922 219.3920135498
142.8487548828 200.9560089111 199.1686096191
141.0639495850 163.5299987793 219.3038024902
133.6879119873 128.1376190186 239.3569946289
139.9767150879 147.5997314453 233.3600006104
159.9672241211 185.7053527832 171.0700073242
142.9842987061 176.5640716553 210.8224029541
139.5374298096 155.1198577881 228.9600067139
138.5055847168 187.4559020996 208.1289978027
138.9236297607 207.3769836426 203.1795959473
140.6040039062 173.6222076416 222.0400085449
148.2047882080 197.6053161621 194.9909973145
131.8846588135 193.7523498535 206.9900054932
133.4214019775 203.2100067139 199.3287963867
137.8282775879 195.8433837891 206.8759918213
135.5116882324 117.9273681641 239.3500061035
150.1831817627 203.3745880127 197.3379974365
149.1240692139 201.8228454590 198.6899871826
134.8046569824 197.3323516846 209.0000000000
139.6316680908 184.6493530273 212.8704071045
140.1436309814 178.4169769287 222.6895904541
142.7672271729 168.2853546143 216.5299987793
150.5616607666 203.3493499756 188.9804077148
136.3067626953 173.9320068359 218.4346008301
134.3240661621 195.0528564453 213.3499908447
135.3238067627 193.9571990967 212.4212036133
146.8721313477 181.3369293213 213.7332000732
153.6233978271 182.2098693848 176.0726013184
145.1689453125 165.3881835938 227.4769897461
143.5138092041 164.9371948242 230.1011962891
149.7152862549 191.8369293213 188.6439971924
138.8582763672 169.5333862305 214.4059906006
144.8440704346 158.8428497314 218.7200012207
145.8102874756 146.5998382568 235.3150024414
155.9293975830 192.2825317383 174.1940002441
138.0182800293 177.4533843994 207.4559936523
137.5740661621 178.6628417969 212.6199951172
137.7037963867 130.7671966553 246.1412048340
154.5892181396 191.3775939941 185.8481903076
135.3697509766 198.0800018311 207.6000061035
135.7331848145 190.9845886230 212.5379943848
146.9616851807 118.9673690796 244.1999969482
143.5139923096 178.3222045898 211.2500000000
138.2488250732 162.4040222168 215.3699951172
135.6616821289 138.8573760986 235.4600067139
136.3233947754 177.8698577881 218.4526062012
153.8939971924 195.7722015381 176.8200073242
135.1146545410 163.7823486328 214.7299957275
133.8536529541 186.4078216553 211.4039916992
146.8186035156 165.1956176758 227.2276000977
135.4597625732 162.8399963379 213.8400115967
150.2216949463 160.3573760986 215.6900024414
154.3031921387 199.5845794678 191.5979919434
157.6792144775 113.0375976562 237.0981903076
158.0288238525 173.6040191650 178.9400024414
139.2467041016 126.2297286987 241.4299926758
130.0046539307 187.8923492432 208.9499969482
145.6182708740 156.6133880615 213.6159973145
137.3013916016 180.1600036621 205.3287963867
143.7308654785 208.0229644775 204.4299926758
148.0502929688 201.6798400879 204.9250030518
145.8027343750 152.2501068115 234.6989898682
154.8467712402 186.6320037842 175.6446075439
137.0040740967 121.9528427124 243.5199890137
133.9257659912 156.3759155273 223.7929992676
147.5120544434 114.7280502319 238.9220123291
143.4155731201 174.8759155273 213.4389953613
150.8074188232 165.8898620605 223.7900085449
138.7217559814 157.5368041992 230.9610137939
148.3627319336 195.0200958252 188.9689941406
137.4492187500 202.5675811768 199.0681915283
136.6774291992 173.4198608398 216.3300018311
140.4082794189 178.6233825684 206.8860015869
141.4886016846 116.0156097412 245.6475982666
137.4227294922 189.7601013184 209.5690002441
144.2364654541 199.9312438965 204.5299987793
139.6047821045 200.4753265381 202.5410003662
156.7327880859 185.4989929199 177.9461975098
130.5146636963 194.5823516846 210.7599945068
141.0736236572 204.3869781494 201.2895965576
152.6146545410 114.5223464966 238.0899963379
152.3088226318 162.0740203857 224.3099975586
139.4766845703 156.3399963379 221.2120056152
148.6088256836 113.5640258789 233.7799987793
138.1182708740 178.2033843994 206.2359924316
157.9072265625 188.8553466797 173.4400024414
136.1891326904 173.7758636475 216.2539978027
135.8574218750 126.4798660278 240.1500091553
157.0033874512 185.4998626709 178.6426086426
145.9192047119 176.1075897217 220.1282043457
138.1855773926 171.0059051514 219.9689941406
141.4274291992 149.3298645020 237.7599945068
141.2843017578 151.7840728760 222.7223968506
139.0072326660 160.0753479004 222.6100006104
165.9140014648 112.3822021484 234.2400054932
156.1839904785 189.0821990967 172.3099975586
134.0517578125 201.8568115234 208.0010070801
142.4343109131 143.7140655518 229.0124053955
141.9997558594 158.8800048828 213.2000122070
136.2208709717 153.2929687500 234.3899993896
136.3074188232 143.9298553467 230.7799987793
153.5039520264 183.9400024414 166.0337982178
134.9459686279 180.6188049316 211.4468078613
142.1455841064 207.3359069824 208.5390014648
144.9916839600 179.2873687744 211.8099975586
142.8197479248 117.9899978638 239.6000061035
138.8686065674 178.5356140137 220.3576049805
148.2467041016 166.8297271729 226.4599914551
146.6188201904 200.5540313721 197.0999908447
141.0438079834 165.5372009277 219.8211975098
135.1946563721 123.1123504639 239.9600067139
139.2392120361 184.6375885010 211.7182006836
142.7155761719 152.9459075928 224.0690002441
149.4882812500 113.8533706665 236.3359985352
137.0497894287 200.8557128906 201.4318084717
144.2619171143 193.1089935303 187.3280029297
149.8816833496 160.3373718262 213.4700012207
158.0272216797 194.2753601074 178.2600097656
139.6192169189 188.5975799561 206.9781951904
142.7767028809 141.7497406006 233.1100006104
129.9846649170 137.7023468018 230.5399932861
148.7992095947 159.9675903320 211.6381988525
147.4586029053 117.5756072998 240.8675994873
145.5188293457 199.2440338135 202.5800018311
145.9267578125 122.8220214844 237.4346008301
