211.0183222906 116.7802883728 208.2741318860
223.3619577511 58.8906652009 237.5806028888
215.0917014786 98.3649611041 236.8030400605
228.0688522015 84.9479815011 235.1961350416
192.3363709458 150.5476199631 244.8411208804
209.1774160490 124.6344830425 207.7729321752
228.6761462771 65.2139121636 269.3946780332
205.1275239357 148.2636119901 222.0420710323
216.9490636250 71.1263564040 231.1868696937
214.2991770158 142.8171461449 210.2970987238
225.3081903885 85.2777589312 238.2176598290
214.4432393437 134.4765030012 209.7638435506
216.1889202119 55.3436285213 245.7220214708
214.0726203291 142.9855719506 220.2556100432
210.6766713764 89.7280774339 238.9822510880
220.1904171324 87.2366401801 237.2075563317
212.6615900508 73.1648126252 237.3456351320
213.3974029800 62.8247205189 241.7404527189
214.3895744303 86.6778784718 233.4504549281
214.5254585868 102.6015157074 240.0817430600
228.0688522015 84.9479815011 235.1961350416
211.6241010961 129.3763592769 208.8315578846
215.8587307757 141.8208064144 214.4629948838
193.6451404298 145.7236112038 239.9892960697
213.3858415490 101.4678895593 231.7646334251
221.0826225886 77.0951598814 239.0517323882
219.1012671083 57.4421537054 244.9147611000
213.8140017619 144.0148246296 220.6842612746
213.2645455497 119.0626556076 223.7762779973
203.2302121989 150.7236515207 227.1501588277
228.3208498270 60.9790555830 259.3808419810
218.2656218445 139.5963313007 202.6850172374
218.6117951238 92.0373241279 232.5696016176
212.6139291663 143.0483869425 222.4001998055
224.6648996384 57.0236253117 258.5109001341
214.7808817043 107.3828938157 228.8783924662
224.4521124277 51.3205306957 252.7328476870
215.8295353653 111.0189928967 221.4098863820
210.6783255992 115.4623744768 218.4928968625
218.3704717892 142.7439781171 211.7996602809
223.7641135658 52.0446329563 257.7290188395
227.1795702265 53.7120643715 255.6808057481
213.8417718679 118.9577514236 210.9528801428
212.0755298623 102.3711441462 226.7417410699
213.4564438004 90.3423290648 232.8434115297
217.9192612656 100.6333671960 233.2624084721
221.7227215601 52.5166917400 254.2203065872
213.8831762481 66.1895829721 238.4488654506
221.5769320468 56.3071706178 256.5581787318
196.8482896969 138.1409314542 245.8184959706
216.6998311432 128.9995530931 209.7500975167
221.2392021411 104.6367990913 234.0579010685
205.0258337463 147.1299155316 224.2312791695
225.8065533526 57.0469283070 251.7011657523
210.2136558390 102.7840398186 227.9393812413
217.1230875550 98.5984660926 231.0896373135
214.5160480495 53.9223677151 248.5483159742
218.4781966386 105.5316902020 219.6939597539
222.6388205493 74.9865548769 236.9962471695
219.6748180726 65.1399948207 237.9535192334
211.2414015400 86.1044963481 236.7222217500
211.6124962507 149.4922353362 221.3035521853
218.0429206306 112.2948324625 211.1104577818
219.7118143696 100.9038104242 229.5147973609
212.6234447100 139.5781607493 207.8510366176
212.8809557722 127.7869397377 203.0363603210
210.9782687100 91.9239068719 229.2884522743
215.8150620752 88.3779768476 241.7397622264
202.2865355033 146.6957018523 238.3994628557
231.0926135058 62.3730503471 271.7540419152
212.0250695220 114.2723517574 216.6542592240
230.9222143247 59.6076036320 260.6015575108
218.6301281038 87.8949851388 233.2346836394
217.7621631643 59.1286073096 249.9558611031
218.5896405159 126.6098483450 203.4074457237
217.1532436792 111.5634493583 210.3043511961
198.4936164645 153.2732805569 238.2326370912
208.0681775674 147.8207869068 233.5112536068
214.4905055316 68.8385928433 234.5382234081
223.9358600164 85.3227667577 234.9293355417
214.5800653716 108.9019278027 221.3108693272
222.9557941703 56.7839628640 259.8802415789
220.2693344075 73.2213446897 239.3870501791
211.1067050552 101.4509787045 236.3758356980
225.4973948271 58.6630033261 266.3880320467
221.7039433767 51.8602304218 256.8698565046
217.0124864629 103.2472660118 237.0679160188
214.7054440242 114.8506364318 208.9798340829
217.6053227882 114.0815040527 210.5768431811
228.6761462771 65.2139121636 269.3946780332
219.5276327813 110.7191695327 222.3373477102
208.1527524637 135.3158281887 203.0224195762
220.1602101608 106.1372612345 218.3069025956
203.5401293091 146.0724941084 240.9372717634
222.0073058597 58.4037777210 241.3760755976
224.8469564428 80.7266895605 233.8672692253
220.2752887686 85.3890278777 229.0828796621
202.2695806948 150.9072136407 233.8905615664
209.4786330400 125.2282570463 212.7163130084
227.0736557644 55.2861595435 252.5863936300
210.6202254043 146.0467088709 210.0166667429
209.6364239294 115.8693441234 218.8427440600
216.5098206225 109.9039109565 220.8903979080
214.5101919174 111.1153389485 220.2100115722
224.5650521673 95.0219739474 225.2164926925
209.0821189587 128.7104384776 210.1015991385
209.3971717849 147.6938139200 216.8418364045
208.6170082568 128.0243047804 208.6263942520
221.1172466618 73.8413753676 234.2008523692
218.8724740955 114.8549402509 224.2115528142
190.7908785507 148.2391201487 242.1341013777
216.7761658671 102.9360976404 236.2049502053
202.2933041619 143.7317660109 235.3930745039
218.8487400046 100.4744126170 239.2708143948
194.5302051704 151.4408694256 235.8127843916
218.6686716146 97.9482110465 233.0244623676
222.7895073052 104.5236994136 217.9763853894
213.1123525904 139.6435239244 205.8237654437
225.2796116629 84.5528788086 234.4103844780
225.4342320765 59.7999953484 264.9883397095
215.1258385048 139.9687705591 210.0031484565
218.1699943767 103.8963722273 228.1156458691
207.1304167598 146.7391391442 228.9497275486
224.5141498697 60.7455515563 254.0988439245
227.2929959163 65.7693646747 273.5845154926
212.7005220377 105.2534682335 226.8935518589
207.6655007038 147.8596973612 223.8813001210
213.3458820508 66.7865063754 239.8403502378
217.0377332483 112.0892791284 224.3304354520
213.1748251801 91.8548779271 233.1388986804
190.7060060690 149.0620947685 243.9183259469
212.9002525060 121.1837304232 222.4844525316
215.5418875809 112.2441195722 219.7007481271
193.8001943819 147.6357381009 234.6288024746
210.6202254043 146.0467088709 210.0166667429
212.8974130984 90.3665432134 238.9156226503
226.7319148718 61.0437982460 239.6315365247
215.5027537679 118.7707163759 206.3555654609
217.4434894318 139.1865946749 201.6055779539
216.9948641204 93.2713021494 234.3769250726
218.1238630494 134.6495294881 199.3028880021
213.2060656709 113.0257463186 221.8668790430
225.3120467928 80.3484259826 234.2469226754
217.3185197724 59.9498629621 240.8795540250
212.2691585044 138.6839206162 208.5014523719
214.5374745093 130.9991443137 203.2713789392
212.6615900508 73.1648126252 237.3456351320
225.5044162990 65.9199003271 269.0082151429
225.7172332256 85.0611973021 229.7709565012
227.5263458787 58.4026841782 261.1694631010
203.3123026447 146.8205393489 237.3042489651
218.2963475970 138.4347536274 208.6981457313
212.2634558479 94.4492418951 232.5402925807
213.6313710434 113.3485093021 226.8297677539
203.5374266288 149.5759458394 227.1327236821
224.6279726828 96.7931218748 234.8819639282
208.7060370831 149.0131885108 217.9626964381
215.5694378107 122.4650989490 206.6520576490
221.5680223429 100.6745240056 230.4151766561
221.5920795873 58.7818356899 256.6606779535
224.7431317607 82.3574862578 233.0728119452
210.4800610209 132.6061342992 208.3445887511
195.6474405112 146.7016555623 241.8112758180
214.0727994755 144.6340293585 219.6968974967
211.8491483574 117.6956883175 212.4651897176
218.6612534962 103.4109939700 235.9059958815
223.4856645658 84.4677560943 227.8397892574
198.9846840055 149.9363736799 240.8903365022
224.5650521673 95.0219739474 225.2164926925
217.2764607145 141.4011767018 205.5217121220
211.6911948237 117.2701518712 211.8831724383
212.3905506685 101.7464784825 234.4605592907
212.3843498726 137.2118530547 205.1207492571
219.2655038229 99.4078714778 236.3183924001
215.0606201937 112.1281807387 220.6547713811
218.9258849641 91.3069726550 231.9536948495
208.9234480257 124.1226878557 210.7045461701
216.0807790832 105.1055897213 223.1237488798
219.5264794416 129.5098082264 204.0345844044
213.4401367317 65.2058615050 240.7131804008
221.5021502774 140.8342573659 210.7870304124
212.6599742555 94.8060421026 231.4101470805
217.5125512020 93.5058265645 235.6597274332
226.5756007497 83.7075577618 234.0554495390
221.2340793265 59.1317274419 252.7380265695
200.5539262123 152.6681950569 237.2061257133
211.7288187464 117.1591655461 207.2475357527
216.3947411042 100.0342983624 227.5421891046
201.7784948962 138.7901441179 249.7794076804
212.9179860889 123.3914591890 212.1394067530
213.9710796085 126.1566230929 209.3519711485
211.9310609925 149.1041809755 221.9858528831
204.8130002314 141.6756955032 221.3454752061
217.4522066613 58.2986434189 249.3480402394
212.9013854877 120.1421575918 205.1348600939
226.9149841594 65.2379975502 268.6604771760
220.9760972137 76.4716243386 233.3125353866
226.2481559557 61.6640968491 258.3154599471
224.6291773656 82.5042414394 238.9669114624
220.1090859236 79.7698069381 235.6824666475
221.0437342041 56.0584293125 245.9676868636
226.0076091032 96.8709553169 228.1893808646
211.4631507033 110.7097841431 214.1967802547
225.1353388906 60.5333661746 263.9133920906
196.6346809380 147.5606679946 245.7032921071
219.3797667570 88.1825491677 233.6103035715
216.2715096814 51.3074677395 247.5770950097
230.1482162274 64.5728838116 265.2565824542
213.3231513419 121.9762271810 210.9597696592
215.3192174916 86.0567248651 239.9897407496
204.5710469208 145.0061706040 232.9863504246
219.9741392693 53.1107763119 245.9646295756
212.1294349420 118.0512870107 212.0649716611
217.1927584169 89.5970459715 228.2878351498
216.4768208957 121.6052413972 208.3330759115
222.5682454770 76.4794203257 234.2541576203
196.7307902477 145.6875456434 241.3253664083
224.0566203751 60.8110608864 253.3921636043
222.3008540151 72.6010091317 239.2167668735
217.2788360572 99.6023589956 233.6790125538
217.8124433569 52.3662963078 245.8457945564
208.5909800712 146.1971153186 223.4595227292
226.3242061277 63.2096849143 240.2126881136
214.7659786736 91.0774023799 235.8557328527
210.1254905570 121.7477876046 215.7052202686
219.5691060837 54.0225448865 245.1551315083
221.6315049126 81.1423241127 232.2904110031
209.0149767677 137.7160958974 208.2952210395
218.9897922832 116.4795500516 218.3553605698
213.4567205308 113.7941244085 216.6678923383
214.1610390587 131.2923256254 204.2127171320
214.0438752266 132.7090948856 208.5749028680
225.3430158190 96.9344075992 228.9505877188
220.7721137583 97.8424802529 223.6810347846
225.3987467873 81.4623755439 230.8394620839
224.1150032068 97.3261550248 231.4312850602
224.3246001695 80.5973443484 232.3753333900
213.7208894096 117.8181027202 223.7707204906
213.1118333055 71.9406668509 234.6920833739
217.7117639371 73.9999584503 236.1645426955
215.8610101835 115.4249589940 223.0090283894
231.5918464867 65.1886892929 270.9814877978
196.7224527261 140.6445219305 247.7860779378
217.8589946115 59.5208198463 247.2083215305
211.3032816186 122.4641401342 205.0254034557
220.7970424883 54.3171619655 247.5885069073
212.3153769788 101.8202952957 233.2219666933
221.5889472115 110.5335945485 221.3109189171
214.4179414397 137.5491730398 214.6587549176
207.1203301412 146.3804475456 223.0750358287
212.2691534530 114.6122760388 214.8714798783
213.0237747328 106.1097265246 225.9999806665
214.2345951911 87.4243557805 241.5933276972
218.4661093306 100.7003091651 237.2365479962
200.4937266853 145.8755166069 242.5587025787
223.9927760201 87.3673054519 235.3270063948
210.5976214484 120.7590584005 221.3648791874
223.5717363277 100.4017343030 224.4690932224
203.5458586386 148.5172266428 238.6963937642
226.7247256656 83.7091942117 233.7177784354
217.5405751163 115.7073168121 215.4123518602
195.1105466785 148.4830921991 246.0353748494
200.4877051110 142.2831273671 249.8681637575
195.3207179413 150.5635203250 236.5585569202
224.0566203751 60.8110608864 253.3921636043
206.4987830346 144.4175392503 232.8247664396
203.3907771300 149.9100058027 234.5377050869
215.8164396360 132.7887889689 205.1768204543
223.9317065856 60.8212018179 253.8300636379
216.9152125346 69.0867759000 238.9962074562
215.7249375714 117.3055287432 209.6496126360
213.8808676364 109.5999627821 219.7965702987
216.1592162840 95.7680780960 230.8721011113
213.5793668242 115.7788031944 223.3781596137
217.4676285458 117.3583963851 220.2115196681
210.7816213587 90.5249054415 229.8351551021
213.5498139286 114.2677783377 208.8945833421
206.7053143593 149.4948476939 230.7787595601
196.2182144633 150.3750500001 233.9868117706
220.1357805177 135.1113510693 200.7564450355
213.4492983757 117.0728461358 209.1159351370
214.9577968065 125.3663490010 202.5746427558
223.4095873527 84.2283928352 227.8538281749
216.2156704583 72.3158552395 231.7903547790
214.6933836510 66.8186904027 238.0681829606
214.0726203291 142.9855719506 220.2556100432
202.5665439456 140.7207788619 248.6392334604
198.0946733697 144.6019441901 243.8878558536
214.0881242305 113.8340726435 222.8053573052
197.9515566338 149.7662653869 239.2741483284
231.6505027577 66.2795678536 268.4147227646
214.2460260998 113.6397649967 217.4539667573
196.9005512655 152.8041758712 237.4686068854
217.1515612182 77.5167415035 235.7753782581
212.8110072944 129.7923996984 202.4501313794
218.8066997534 73.2434548680 240.0212397037
205.6259191137 150.3859694789 220.2704217136
218.0285586334 100.4638985634 238.1983299147
196.7215571555 150.5730790499 246.9242936406
222.4981099872 51.1449574644 254.1362991317
233.2285659728 65.9817557594 273.1949817980
203.9686567047 141.9638317035 227.3360664507
220.2931753885 143.1002063007 208.8225138346
220.1162782019 139.0352368538 210.2777143107
204.8820986972 146.1550931139 222.7246083622
221.7227215601 52.5166917400 254.2203065872
220.8375145289 55.6860582186 249.8109596423
218.9376541331 106.5754174696 223.4097332100
216.0449283141 117.9821470085 219.5065703424
225.3343038377 52.5593515785 252.9114131216
219.6390233874 55.9147927893 245.6382479643
217.5781308652 103.7183479150 236.9907206001
227.0412996081 63.1876307287 262.8816940696
212.6599742555 94.8060421026 231.4101470805
221.7066977347 55.9461844784 255.6261155639
193.0891047386 142.3488524972 248.5497191802
217.6647145559 134.2218476266 201.4478060522
224.2033040420 97.2325980041 224.2339137339
208.5544653852 146.5905263542 226.8141034061
218.9258849641 91.3069726550 231.9536948495
207.4149001869 123.2059870076 210.5362476815
222.9731197958 60.0860239467 249.6910776223
221.5622844431 83.2411654260 231.8088897267
207.3567452740 150.4862332647 220.9323866272
224.2307782129 78.7727080957 232.4743664085
218.7779175352 99.8165895830 228.7073635559
209.7911382145 128.9438358407 210.6379263743
206.5240707771 148.2041662197 227.3406719881
213.6483392539 115.8454805180 222.4107239814
216.5003055875 89.0259473279 241.4928882427
215.0651199360 110.9958307235 228.8058506106
219.9027658608 66.0528168944 238.0630424314
213.5487493515 117.7596487724 208.8271043322
219.7785671264 91.0680224092 230.7035155254
224.4396504591 78.5893675912 233.4468628752
229.0750844571 58.8569818446 262.2235981452
223.9662371634 97.1937869086 228.9369563371
224.9769911394 61.1122752955 257.5315730265
209.5978398362 125.1175820552 212.8435969599
213.9636808303 118.2628822964 205.0197749188
207.9924571856 147.5501666617 216.5124076680
223.4412447803 81.5151448471 234.1314005380
214.9192393103 140.4147324865 207.0576111620
219.3496640341 143.2983332653 211.2782570576
212.8488880960 112.7539410285 225.9466269561
222.9996564797 100.3620010794 234.5128556090
222.6129883298 54.4633113905 258.4572170434
218.5241173092 61.3630800370 241.0747958828
216.1999529289 100.0647261068 229.9802382751
204.5035003426 149.6715822713 220.6675959042
222.9731197958 60.0860239467 249.6910776223
209.4085881629 137.1250624459 208.8497625794
210.2942772164 142.9805150017 222.3375767359
216.9728765396 61.5304705467 243.9399950407
216.0993306606 100.0328839697 231.6828398927
230.2452997339 61.1758416852 259.8321802351
229.4419476027 68.4603117373 270.4966212358
222.0019121209 56.3372799490 253.2215177714
213.7495072057 121.8646157228 205.0724890696
220.2889693205 59.6430191075 241.4065200162
214.1610390587 131.2923256254 204.2127171320
226.0585746907 79.7629904152 239.9105777487
221.9353611398 75.8113589666 234.7383199554
210.9393250043 112.9074143869 220.8603318780
222.9286863877 109.2815225853 218.1823038473
221.8557391626 57.7079752425 258.0981393118
207.8283981669 123.8706499525 212.3381653900
214.1610390587 131.2923256254 204.2127171320
216.9977657677 133.6199998041 204.7273277510
225.5326168255 65.0543108417 268.5369420082
199.0894376927 150.0022354572 240.6830331711
217.2106467508 85.6610700230 232.8510162907
225.3772141436 85.9592888614 234.6811080315
206.6397180555 141.0033819177 223.1021100417
220.2484549689 65.3822074452 243.2622352927
230.0042653240 65.7732766792 274.9110793447
211.7218517881 100.1183544778 236.4794735708
224.4385549772 107.6221688117 222.3023191789
204.2097571517 144.8860774787 229.4315818726
195.4069722613 149.4053168353 233.6520307567
218.8007033326 63.1838468873 244.4342661778
210.8902644679 118.8597793305 207.5055439423
212.0537228897 118.0539654600 218.4638382651
216.4367993969 113.2232649333 209.4900388176
226.0047626411 107.6597961077 219.6257713726
192.7346148524 149.3029031885 245.0057304502
213.3520463978 146.8253098830 224.0105208334
217.0733387950 91.9488932762 226.3976945464
224.0878779421 84.4178062555 237.8690839387
221.4987191000 85.6706203727 227.2577384444
217.3531677323 142.3250426899 207.3645364485
210.0306749916 144.1881043148 217.0345775336
225.2919341324 100.1397665480 227.5118454430
224.2104203134 104.6716111299 219.1544505514
219.0377823309 90.4714487540 231.7627507496
210.5976214484 120.7590584005 221.3648791874
205.2005597054 149.9040987305 227.2689096666
214.6584186437 134.3864144251 203.2265665926
229.2042214143 64.2549070788 266.2359493564
211.6601321753 120.4222673148 221.2474684485
214.6850783957 73.5137651691 233.0009963120
221.7823368198 75.4110159699 239.4188023768
219.1795494823 143.5675127844 211.7333994845
197.3062044554 150.6378011465 245.5126397550
202.9199576693 144.8590088503 222.3790481609
221.1097040837 85.9543679298 231.2734413675
204.2726775491 153.1872288222 233.7722868733
221.8011894684 58.2143084625 241.1661058011
219.6416893293 136.2560501284 200.1948551345
221.5290888107 63.9609024522 244.4703926674
202.6589588335 147.1819675694 242.7593186168
205.0258337463 147.1299155316 224.2312791695
228.3433656438 62.7411096831 260.4623993075
225.5019458018 76.7100922958 233.3317777002
212.6139291663 143.0483869425 222.4001998055
222.7548647485 83.4484106688 227.1216373903
211.9285468022 119.2335875950 206.6493427055
232.9030505004 64.5490520443 266.7558455632
221.8705798166 75.5278468913 240.3446123005
210.3573333883 144.3011716984 210.7888554427
217.5341493090 58.3759780082 249.2828694979
224.1026354545 62.7303532040 261.3824102614
217.4439643433 115.0057092348 212.5245971188
214.8041467976 126.9434640906 201.7436310614
222.2639946253 82.2966657093 238.0125759718
214.9924610103 63.2911039804 237.7633879224
214.8154423040 89.5056592082 232.1994988240
213.7211239055 139.8251233008 209.6737197199
220.9012356069 102.2512533461 236.2784207724
215.6089183245 132.4190226734 205.0045324816
210.3022546890 110.9403889256 214.2945505818
222.8694112430 62.7004771132 253.9451488129
200.3116225595 153.0367044390 229.6887760802
215.9977439683 109.8215623933 226.8774184275
202.0319144538 149.0339363537 228.3742104557
225.7412218909 99.7543599552 237.0905353232
221.9411641170 74.3229511921 240.1935613781
215.8164396360 132.7887889689 205.1768204543
214.0821025888 137.6532449038 204.4023718167
200.7703466517 147.4627678130 234.2265430731
219.7890183248 60.8426261743 251.5748867975
207.1415194948 147.5117337374 234.2519206655
194.0553883056 144.5436257545 244.0787652266
198.2501473945 139.5399064593 249.7783451514
213.0451317385 145.7745799687 218.7273962583
212.3186825612 112.5871405408 222.2999257354
192.3363709458 150.5476199631 244.8411208804
194.4529999722 151.2422677012 238.0344563112
230.9222143247 59.6076036320 260.6015575108
216.0307433445 63.6649122449 236.9071866856
206.8364863204 136.3781263542 205.1064986796
215.0245493043 89.2553259481 240.9939896978
227.9521795747 103.0806597115 233.4820840242
218.6135865619 68.3309750727 233.0539123961
213.3523559346 122.0894965983 215.9687738077
224.4254003400 64.2107367152 239.3216694760
220.6705072211 74.5614092043 242.0605508314
212.3445410161 102.8079017073 233.3601649572
219.0493146725 103.4555471151 237.5456055231
192.8349903944 148.3297551525 242.8959248544
221.4644110800 59.0967689010 244.2073295930
219.5635423385 59.4077977424 263.1369701881
218.5458198317 139.6499674075 202.3326136860
210.7130838412 139.0161890339 212.9309166346
214.4069460001 138.7980813742 202.3278289307
225.5935743240 58.1356716327 257.0358151743
191.6570488057 150.1586210234 240.4687969620
221.6991881371 59.8178557715 254.2132365374
224.4385857060 84.0422901280 228.7510050729
221.6436363683 99.9270423270 229.8833254092
195.9294358055 142.6902452861 248.7085909035
214.7677698640 111.0189560596 213.7370573765
220.2798040300 99.4141984469 224.0354750809
214.6770970804 145.2921991067 220.0491084175
211.0853361062 146.7328425681 211.4918716294
214.8872425943 129.3053511114 201.7324966627
214.6247122035 131.5553941768 209.3910768345
212.2416504464 111.0997447693 221.4556256276
214.3214468060 104.2010231430 233.9248603370
215.6098316047 110.1314715321 217.1687394360
217.1824106226 133.1526432205 205.9433448836
223.3199479764 89.5696927059 231.8915283721
217.9251200664 118.3735984188 216.8129470041
203.7731038415 145.5387567494 228.5038560089
222.2536728719 96.6922348651 235.3292994757
215.7297618837 103.1453691075 224.8033886270
215.0606201937 112.1281807387 220.6547713811
217.5405751163 115.7073168121 215.4123518602
214.9345762341 148.2556170023 214.0695718769
221.4716407721 80.6785553028 242.1264675696
213.8653087639 73.0521957917 237.0819199713
229.0378879294 59.5381013312 266.9836478556
217.1800606422 103.4137590669 226.8112920309
212.3445410161 102.8079017073 233.3601649572
215.2328538188 109.4313049457 226.2625550173
211.9261678165 148.6668974449 220.3869641055
221.9845062294 60.8922257690 257.4742820918
212.4976008249 71.0777809977 234.9543435864
212.7382266634 113.4294131112 224.7121091444
215.8621780999 110.9466811121 226.6759962907
197.0751798223 142.1470518788 243.2180773005
219.4526446458 119.0165556574 219.3042499093
216.6987293115 57.1871091106 246.9582087233
218.5147600229 128.7994215671 203.8691716017
220.4325282196 117.0263149231 218.8428506239
220.0093057837 83.3916163907 236.1681175510
200.1146671587 147.0743197922 234.2370301086
218.7833984004 132.0065013583 206.8310876689
227.3159572722 84.1253874921 239.2158370070
228.1970693425 55.6568312832 253.5614298858
209.4088981121 133.0936184847 202.8863185220
216.2883956716 85.1313553967 236.8355365620
217.0763688620 137.0159789958 214.0475536790
221.1057225539 93.6687526861 230.5152455030
212.1494216178 111.0210589618 227.2190357647
225.1513373438 61.6855586491 256.1198819642
216.7749743332 125.0562459553 209.2967162149
226.0795998436 54.4002518461 256.5147045284
220.5518613365 61.3885562801 240.6343313164
229.4348473668 59.1932375594 263.5317133170
218.8550803654 103.8463005494 233.4469814639
210.3022546890 110.9403889256 214.2945505818
221.0060885858 86.4083733034 229.8010315291
219.4891719572 95.2803409527 232.5043291614
226.2873829571 62.2102488957 241.7492324206
211.9691729230 101.5092781208 230.1257510890
224.7989883793 78.2044706053 238.5011260154
232.7362676088 65.3730722774 272.2492967057
211.5607531838 112.1161941959 214.4675038081
212.2180830378 117.9338357420 219.7574517366
227.2929959163 65.7693646747 273.5845154926
209.4714306517 141.5246852617 224.0759241453
222.6055743649 95.3688803253 223.8214663869
212.3837876299 124.4793776386 212.8751886936
221.6019730191 109.8646773655 220.1512935789
211.8491483574 117.6956883175 212.4651897176
219.3000180609 137.1597636654 212.8640294307
215.8610101835 115.4249589940 223.0090283894
217.5674299835 90.8041942171 226.9592844474
210.9782687100 91.9239068719 229.2884522743
217.8239581852 86.1453978730 232.3839600469
214.0438752266 132.7090948856 208.5749028680
196.6127230316 145.8682655334 234.0445186874
221.2696940763 108.5794112546 218.6958582314
213.1115185435 70.1808971156 235.0847777770
219.0081303969 117.1716235709 217.8346611850
219.7071917478 97.3349025259 225.0306891614
210.8995460483 125.3761687625 213.8943781704
224.4254003400 64.2107367152 239.3216694760
213.0759014792 71.0220847516 238.5574636275
224.9962223812 60.2685690800 252.2463925357
221.0817804060 59.3226654491 242.1730631944
225.2720197433 97.5951184896 231.2906602306
211.8501331276 144.6999840652 212.9953867952
219.0954336116 102.2156853315 237.6499892697
215.4243373746 117.4136619722 222.9237684438
227.1651939937 99.0543707372 235.2764464658
206.2574390923 150.7382699663 221.9136161638
211.5661736345 124.2096773067 204.2532147560
214.6870109523 127.2042355337 205.6095374356
203.4149987710 153.5621160246 233.0215180081
219.9364132581 73.3817400568 240.7707761217
221.1887006606 95.1638901282 231.3632465810
223.7499597911 60.6181168063 253.9019272498
215.8587307757 141.8208064144 214.4629948838
217.8548874676 64.5395115945 236.3739506540
223.7697945987 80.9248887055 229.4256536359
201.4532879172 143.3463139974 223.7212678383
214.4905055316 68.8385928433 234.5382234081
222.4209206906 76.5634723906 238.0096271436
214.1903790930 88.8071459039 229.4695597793
226.2543027103 98.6122280315 226.5685557395
212.1030436599 102.6493852735 235.3597933624
224.0882415033 61.3466359798 259.1126551253
207.2026363172 147.3905134503 222.7409594993
215.8167716171 140.3753708365 210.6593880031
217.8408642550 62.1009243526 241.9691090972
217.5193439620 104.5812306351 223.2780815457
213.4699533195 66.5370979078 239.8933241782
211.0035799790 109.2925963474 210.6696748788
210.8615175729 142.2558883734 220.4251476816
210.6070620727 147.1411883915 224.4774579624
214.1665099919 117.8877982543 211.5306672263
219.5164075751 84.6777331497 235.6812081253
213.6325221919 144.3324070617 209.4985240412
198.0946733697 144.6019441901 243.8878558536
223.7123748723 100.7999775635 233.9277165518
227.9605825549 59.3690485030 265.6758762851
217.4352779410 77.0212643055 241.0878160875
230.4945240955 62.4251498698 270.4778283951
206.9293221321 135.0342356938 204.8475607938
219.9676949840 114.8160396134 219.8246608049
223.5915115645 60.1249325568 251.9169536364
213.8135256809 87.4048012752 241.2439626982
221.1097040837 85.9543679298 231.2734413675
211.3550483836 129.2026586390 209.6048977810
198.5937168111 147.7412004268 245.5465231175
206.8861544424 144.6107321004 223.1003903093
222.0750818758 68.2606705963 238.5242595815
222.7701007968 50.7149650308 254.1198997639
213.9998775101 121.2361395360 211.3914680586
228.0815578357 64.2257415454 264.6461953347
217.6335857593 104.5515445802 234.9364946431
225.4961881259 100.5985257728 224.9204263952
219.4775987319 138.8768186227 205.2035719260
217.7613511130 138.1215232248 200.8543269171
215.4243373746 117.4136619722 222.9237684438
210.8567553465 127.5305940857 213.9408505891
212.3997690477 107.2711309346 225.0292054561
225.4398842301 61.9042471810 272.6632302930
220.1550210648 93.9279222140 226.1619861028
205.0371266460 149.8783172907 221.5650402735
210.2156983833 125.0082913069 206.9167309385
228.4176948885 59.8049928950 266.2126689365
212.4864443826 108.8398073616 210.5453858546
211.1240622563 146.0993512346 208.7704980878
215.0143138155 108.9210531737 220.7114594577
213.8200485191 120.7397335515 220.4502681889
222.7620588139 63.4910731004 272.9861161738
220.9711854193 57.3861849019 253.5102203508
202.2114337980 145.9706961254 233.3988245936
212.1873212086 73.1356436030 236.5135610098
223.9358600164 85.3227667577 234.9293355417
209.2427506699 99.3774010407 229.3444097412
223.1061154613 61.3971852626 254.2223031193
216.3906061706 109.9974456435 221.2901548880
204.4863578473 148.5014418167 227.0140577735
225.4737085381 99.1116023860 230.3600192463
232.4626297204 61.1299759225 264.5123549314
203.4149987710 153.5621160246 233.0215180081
224.9389497552 88.6287286670 229.7176770167
218.9945092423 96.8782800039 227.2895107211
203.3427455083 146.5097742414 227.5559421190
219.3797667570 88.1825491677 233.6103035715
218.1969648902 140.2981236157 203.9954145513
218.4535488546 73.8345290426 240.8950651460
209.2889477502 118.0036833354 212.0845280820
202.2670058802 149.2890441884 230.6636889191
228.4591707720 100.3171639223 232.3313631156
224.4396504591 78.5893675912 233.4468628752
212.2723768289 127.2097189072 205.7849999308
218.9945092423 96.8782800039 227.2895107211
207.9737624730 126.2537304183 213.1045080845
213.7762403839 65.8154888834 240.7882641276
210.2798054921 142.6770339675 223.7154989677
213.1241502749 105.1365784886 223.8901750708
213.9747348174 111.4800415002 208.6691159958
214.6932376799 60.1339754881 243.3462438170
216.1873043578 105.5459281711 239.0109120050
202.0724527572 141.8654779211 248.0776435593
203.2273208778 153.0114762008 231.2755909262
220.2007068954 77.8433532467 233.3965479235
209.2823930164 99.8881320682 229.8768255445
228.6840048865 79.9285193712 232.7246571988
222.3223683010 117.9536701231 222.0855376017
217.0573212615 117.4609008609 220.2702455710
200.2841141055 145.9057525773 243.4346237165
215.2208657387 121.2063670501 208.8693119606
210.3573333883 144.3011716984 210.7888554427
212.6980618743 149.0691612691 221.5417387307
213.0039367011 113.2439879390 224.6840982580
220.4952134285 100.2542736358 229.6155346661
209.1593757041 121.5347402925 214.6251068455
209.5748165305 123.5234532444 209.7390474219
224.9963391948 50.1738112008 255.1319277442
194.0025001282 148.4995034054 238.7298540757
211.0650762621 71.0394811766 237.4631152086
212.6148777869 127.3128414258 207.4928196791
230.1157211733 67.5621352359 269.8997310415
218.3390873483 56.9222334111 260.7488658401
212.7458280003 103.5111373042 232.2254028929
216.9360237073 114.7515511037 213.4378130628
231.8200401698 65.7510268923 265.7341313823
205.6259191137 150.3859694789 220.2704217136
213.3370101199 85.7589614172 239.4782271540
211.3803457624 122.2813440118 206.8764563638
211.5592521998 149.0193791270 222.7703606796
215.0143138155 108.9210531737 220.7114594577
216.4440145140 90.4335171098 225.9842532729
213.9270266881 91.4475681244 226.1746756422
215.3100070262 147.7251473756 214.5136182329
202.1666303382 150.2621922245 232.7734945148
213.3458820508 66.7865063754 239.8403502378
205.3752613732 139.5737868424 221.6054889653
214.8181229068 131.1985461727 210.3580505167
212.1055654539 129.1586686458 203.1203728579
217.3566758765 60.8803545103 260.5138639965
211.8483606077 94.7791743529 226.7411010435
218.0753372641 54.1118388479 245.0736007753
211.8483606077 94.7791743529 226.7411010435
211.1037732344 85.7702143947 236.6791372853
217.7633925200 94.1925399411 228.4540028898
211.7113059533 89.9662080542 237.4387670577
197.6860611954 150.3448006603 241.3815514631
205.6165481247 151.6957321307 235.0401032209
212.3295083190 141.6020957647 212.3538825172
217.6161559522 136.2140644853 211.3136432163
216.2653195381 66.5461362953 242.7820600063
213.0248646128 142.1962621100 211.9446105179
197.0385909052 148.6960462698 232.7935625832
213.9747348174 111.4800415002 208.6691159958
220.2798040300 99.4141984469 224.0354750809
233.5037298905 62.9147784636 265.8542705827
222.3085318776 114.4381507585 222.0022566801
215.8164396360 132.7887889689 205.1768204543
210.4726730980 119.3813752500 207.3836368069
222.4209206906 76.5634723906 238.0096271436
208.4355089980 145.9474701732 222.6715448946
221.7475001768 55.8044081440 255.3115927669
210.2336354901 125.1359351215 213.0554098528
219.2123843904 117.6303827956 215.2432421372
218.4535488546 73.8345290426 240.8950651460
208.0599166519 136.6597188491 203.2813574620
217.9542713614 99.3584073574 234.1421270133
221.5607856117 62.6173708268 258.2349856830
208.9216528599 132.1846011587 203.8742851731
215.0788631213 122.6197668048 208.9365844722
219.5519017943 61.8151254632 240.6843077034
216.2885842488 59.8049623624 240.2163429038
221.3942486939 107.5452900420 217.8296332677
214.8776335390 113.9420361248 217.8459575003
211.4887609243 131.1294451594 209.9757971249
206.2177148306 141.8193427614 221.6749039426
225.6829806185 57.2657507533 260.5801278636
200.4090741409 152.0736396102 234.9840077083
221.4684408385 88.9374452152 232.7501249239
216.8266451879 90.2076205617 228.0185196715
219.5530033577 66.2978425717 237.3014165539
209.0821189587 128.7104384776 210.1015991385
208.0489734472 141.0125672199 225.2489209337
209.4403080650 126.3800202150 207.0007434754
215.1002342631 90.6521418597 239.8851169587
212.1194999606 114.5627506201 211.7007075477
216.7081829879 117.7091617501 221.0084920364
206.3930244484 139.2621092032 224.7229351669
226.7258969575 57.3033491672 253.6122217831
225.1353388906 60.5333661746 263.9133920906
199.6283427565 139.4467016008 249.9596288396
220.2889693205 59.6430191075 241.4065200162
222.9014231980 57.9874160248 239.0075503782
215.0302317663 111.4982040120 218.8256881999
226.2543027103 98.6122280315 226.5685557395
213.8078466997 71.8926522842 238.4270184081
204.6431450007 144.1056100487 228.9053556478
216.4557188742 68.3951880585 233.9627379371
216.3343994848 86.6350524156 241.0326489161
197.5957300940 138.6175158467 248.9307317001
231.6621907714 62.9843796399 263.6025699864
212.4965922177 134.2738639396 208.1499022872
211.3790535663 127.7908375054 212.1863662945
225.7099135870 55.3965878290 257.3845135102
205.1698902979 148.3266338457 228.2824340323
217.4676285458 117.3583963851 220.2115196681
190.9871309140 150.7565731798 242.4876521064
219.6845761103 105.8876815975 223.4786975838
206.9054138898 147.2197847976 228.1655700050
213.8763452831 114.2359484262 224.6663945192
210.8499169963 142.3404515544 226.7465546543
214.4069460001 138.7980813742 202.3278289307
219.6130748504 65.8791118237 240.0630086922
227.5596845832 81.9175406813 232.8464637639
225.4342320765 59.7999953484 264.9883397095
213.7444543376 85.9768398913 233.9123426403
219.5895248001 101.0709862723 238.2115791708
213.7889877195 131.8185394471 203.4249639021
221.9229674489 77.5183460449 238.0572211804
226.4752210361 100.2644202860 236.0876343141
202.1280850513 141.2838857654 222.5710772521
204.2399512879 143.9344050727 237.0070157675
218.2682601475 75.2949406686 242.2619064750
231.1496834002 68.4281790631 274.0420357864
227.0252323410 98.4570357508 233.0919309175
219.9519378170 105.3800147145 235.6276059354
226.5756007497 83.7075577618 234.0554495390
198.7158501720 147.2313028688 238.4393842194
216.2885842488 59.8049623624 240.2163429038
216.8266530071 71.8122320228 231.5398213357
198.2629876646 152.0175627752 235.8072455998
214.6850783957 73.5137651691 233.0009963120
215.4468591094 67.9302193434 240.4580195580
202.5252462929 145.2551810489 242.3884192731
221.4058030994 104.4391561669 218.0077113175
216.6280837125 140.9534219369 211.6019993271
218.2148747284 129.1566530208 208.4187774460
214.3274788088 92.5861996478 225.7155172494
212.4902053259 138.1378043935 214.8203389026
196.6346809380 147.5606679946 245.7032921071
216.6461137623 98.3602946737 236.9942219298
220.2819385305 62.2972539543 247.2013131070
219.1358920413 114.1140478589 219.0189977965
217.0799323403 106.6062883379 225.5669352917
224.2820321171 62.5730793796 237.3399951921
219.3758730758 81.5258294426 234.5238675246
231.5361912306 64.4066238553 273.9652453994
226.6906865259 78.1231960658 236.5298641676
199.4706995022 147.2175834424 237.9097844444
217.3525248531 137.9754399876 208.0999404307
211.3309617527 143.0322921946 216.1470038866
209.9940729409 145.6551251776 227.4853396148
221.9845062294 60.8922257690 257.4742820918
216.8244285839 61.0945620214 240.3179641239
220.4325282196 117.0263149231 218.8428506239
212.6359951154 62.1251788571 238.8177360954
225.3770463925 100.7940794746 236.1156064864
221.1334355300 74.8732932114 234.4264363585
218.8160597246 96.9830403449 228.2198289092
224.6108484213 101.5166604907 232.6729804528
226.8201201470 61.2536254708 259.5669692188
222.3564741648 101.1718374769 235.8428143866
229.3134020280 64.9493452577 267.3254477014
226.6554477615 67.2659093717 270.6750000635
223.1843537099 64.9793603443 270.2892073813
212.7027630294 108.3694215295 226.8276163179
223.1037958170 60.1384746941 251.4372922172
226.6554477615 67.2659093717 270.6750000635
211.1515671462 86.9755189596 238.6106358897
204.6569854437 145.5447734809 230.4342266245
213.4830681685 61.4640273180 242.0336013336
215.5027537679 118.7707163759 206.3555654609
217.3673734012 134.9454258182 208.2465661852
216.3787098147 125.5142607174 203.7527079177
227.9925160594 64.6107202008 267.7232837500
201.8936651411 148.8644599245 233.1524177087
225.2487129380 55.0004377005 252.3503097734
220.4206411291 120.3212436686 222.3333523896
226.7483938988 97.4675289723 227.1301456405
200.5359752372 140.8079147845 245.9640253800
196.1045821369 145.2524964636 240.5421773748
213.4740725595 70.9066410520 234.0365369970
223.7641135658 52.0446329563 257.7290188395
213.4740725595 70.9066410520 234.0365369970
224.4396504591 78.5893675912 233.4468628752
209.1653976638 114.2093359390 221.8508384082
222.4712215339 57.0329258164 247.0434572198
215.4057321798 90.0597088455 226.8404545096
216.2875274158 108.5822651637 220.1172636438
212.3502755737 110.7978727118 221.0072118318
209.3333567415 115.3904982702 222.5384039621
205.1608084118 149.6998357817 218.7952168271
211.9654029303 94.2113529132 232.2172474551
223.9927760201 87.3673054519 235.3270063948
203.5401293091 146.0724941084 240.9372717634
213.1269251060 72.5931571641 235.3677848598
202.0619975845 149.8751290881 234.2230007880
217.0124864629 103.2472660118 237.0679160188
225.5044162990 65.9199003271 269.0082151429
207.0903753131 123.1964043328 211.3812680638
224.9540143493 57.6222820068 240.4052182571
211.3220544039 101.2596152054 224.3519044725
225.4580792534 86.4971824393 229.4207836261
223.0208228927 80.5399654877 233.4390170521
197.2062724642 149.7907332296 239.3264581941
214.0674808717 122.3217028989 214.0605608237
219.7122560362 54.8504787067 249.3008782726
198.5168654014 151.0296859247 234.8443430848
209.3867496263 146.2812357158 224.1288820721
213.3641428960 141.8402263850 210.8103984870
197.3145920050 142.4111860480 243.1894593542
223.6558386184 62.6655247237 238.1880689995
225.3656644004 82.0467495686 239.4355287735
210.3120576349 142.8087703708 220.4917498534
222.5205236225 61.1659279858 245.5174379811
197.8685580145 149.0446472070 233.4960483508
217.5268120618 104.7062086249 229.4456046466
231.4855244161 63.5125690203 271.7853894310
201.6455571017 152.3151839219 232.5160864382
219.1416340153 136.7411977642 213.8523584592
218.3518126118 136.6661861288 207.5993728232
211.6320173942 100.9893770891 238.3678877105
220.7721137583 97.8424802529 223.6810347846
206.4737227941 145.9435441985 233.9745415856
213.8662164529 91.5886045769 234.0569199325
201.3669914979 147.7015936466 242.6158087285
223.2335436608 94.7672790531 225.0198805356
214.0726203291 142.9855719506 220.2556100432
223.2776377728 62.5829263809 245.1820735562
216.7492554311 105.6002614188 225.4731671801
217.5193135158 78.7218315909 239.8474308266
227.5928786302 61.7898680613 270.3490173887
217.9999273877 61.6725590172 238.2878578310
203.7106374641 146.0254248976 224.8868975084
208.1701019313 123.3798059861 209.4096186854
215.9699934668 112.5228648693 216.1108278227
212.3445410161 102.8079017073 233.3601649572
217.1092320760 62.0469535039 244.2612678032
224.2307782129 78.7727080957 232.4743664085
216.1241165363 117.9537729714 216.9691973061
220.0260794029 105.5054608789 218.8547926766
203.2302121989 150.7236515207 227.1501588277
218.1537978231 133.5130907293 206.3285859459
220.9931214328 70.2655602426 237.4211425178
201.6575393526 138.9535065186 246.6441187531
220.3490712133 86.0180274915 231.8582461365
194.2935040250 140.8630884562 248.5955134444
220.7169069663 99.2792967945 226.5597559468
216.9066130642 143.0890038099 213.6203879327
213.5123933976 127.3918490604 209.3396795512
198.0290339351 145.4492879333 240.9935105477
216.5451898257 103.9395219950 219.8885736302
216.4124969217 112.3369355666 221.8645149462
221.4789470405 62.9576975408 260.7079941724
198.4227405934 147.8777531396 239.7635712158
215.2772542680 69.6177685361 233.5414168603
212.7602145724 73.1856339446 234.5504760085
223.1658001057 99.0481959935 228.0271663107
214.7434482454 113.3461059252 220.0985069779
210.8284981046 112.7950216259 210.9337888818
195.7953876136 147.4603947292 241.3625000867
218.3679662942 60.2249163839 248.5166658927
213.7945255807 120.4980783181 211.6608289356
213.6969231001 119.0916682652 211.3901053821
216.8414150042 144.2681740749 212.6789953865
227.1215686882 53.0883067882 254.3601730003
231.9624820825 64.8932513825 275.1227594461
213.4194697529 103.2147394800 230.7466156406
223.2575716647 105.0330129203 222.3693795241
217.5093921348 132.7339592450 205.8453569683
215.5261867763 148.2106946204 211.7708736713
196.8382787414 142.7134178993 243.0268826716
222.5349727045 84.6615210588 236.8798518413
225.2607446747 61.3554601439 271.8942338303
198.0290339351 145.4492879333 240.9935105477
214.6807387059 63.6433947306 237.8746803371
215.1746826276 118.3475210681 216.9711209157
220.8832027619 81.2149728646 231.5666461670
213.8653087639 73.0521957917 237.0819199713
220.7017132198 142.6886664510 209.8772403861
193.6451404298 145.7236112038 239.9892960697
214.4520065183 62.3002301414 244.1512986601
212.9632517285 145.6748485354 224.3286426216
222.9248407566 106.3473801123 216.6189917346
225.1137384860 60.8951359086 268.3258058637
198.3556883101 144.8399095316 239.4972958328
199.4311764194 141.3068385967 244.8416572832
206.2880170016 146.2738766116 218.6046871421
215.8407291509 92.3276888513 235.1821734236
221.8136357782 56.4855229141 249.0429693386
209.5978398362 125.1175820552 212.8435969599
204.5710469208 145.0061706040 232.9863504246
222.9533661349 75.4737764377 236.0060049379
214.6911790996 109.8202259252 209.4834283743
231.5014135226 65.9447105595 270.3062663618
224.8166584996 64.7307724703 273.1764790534
208.5250447405 146.5240948041 223.4044645653
215.1710889746 113.9421066249 217.8031548698
222.9342672859 96.7194973092 223.7150380782
219.0765371339 93.9341643834 228.0397734784
213.8042368580 88.3953732724 240.6454138074
217.2356376750 67.8949837522 233.4671604092
227.4915580641 64.0007876769 273.7427779803
217.1532436792 111.5634493583 210.3043511961
219.3714563178 60.9030144229 240.7584675642
216.7175485021 73.6290061820 235.5608476346
208.1927121024 144.8598638488 228.8346423735
213.9183897451 121.9868402372 215.9521095023
210.7256150735 98.9246120549 229.2201207169
227.4803494004 58.1885349982 263.3708863330
225.1957738847 57.8443889097 257.1423988251
214.3591949363 99.0305029260 237.7759856590
233.2285659728 65.9817557594 273.1949817980
224.9769911394 61.1122752955 257.5315730265
225.6417509063 109.2240020778 220.6919462968
215.5027537679 118.7707163759 206.3555654609
213.9270266881 91.4475681244 226.1746756422
220.5543126345 110.2954639283 222.8544029474
225.9050664532 78.2589589620 238.5306028164
218.1763618862 99.5199292406 233.3789026641
212.7026967264 109.2632865041 208.8235545208
209.4085881629 137.1250624459 208.8497625794
211.1886457160 84.9472397750 234.8949127163
212.3851394207 126.9646189620 203.7010874836
214.3214468060 104.2010231430 233.9248603370
214.2345951911 87.4243557805 241.5933276972
212.1873212086 73.1356436030 236.5135610098
215.8578839237 84.9892125576 239.2669133719
213.8488094140 120.1871401025 222.5413769524
211.4631507033 110.7097841431 214.1967802547
221.8103960926 98.2162885173 222.8248335479
229.3667274077 59.2079031174 265.5792597375
197.5484322419 150.4586229158 234.1094500748
221.8779542899 119.9706151212 221.3342626126
194.0280654421 141.7455862459 242.8723915895
201.7521100542 147.6887357054 232.7619223293
221.5579506903 59.7754070036 258.1177108366
214.7566230911 121.8672091522 205.2903236909
220.5878398894 112.3703943806 221.3242746333
218.9176511971 68.5005547847 232.0801032510
212.6980618743 149.0691612691 221.5417387307
224.2595518738 89.0272062670 230.7457522221
206.1774019419 146.5469235875 219.7935061338
221.2843265119 106.4220189272 217.4882426217
210.7596525037 95.4732206341 228.0554414545
205.6525646321 150.0239771729 234.5031298452
222.3191586883 71.5946199948 234.2808224388
221.8527143498 107.4065913026 216.6949865779
219.7118143696 100.9038104242 229.5147973609
212.0537228897 118.0539654600 218.4638382651
212.3295083190 141.6020957647 212.3538825172
210.8902644679 118.8597793305 207.5055439423
214.1862346074 140.5112569980 211.1489246064
219.6390233874 55.9147927893 245.6382479643
219.9676949840 114.8160396134 219.8246608049
219.7222691193 114.6621887274 217.9794977576
216.3027461223 94.7184619866 231.5504130517
228.0251491159 65.4075577712 273.4604748629
215.5564914444 90.2000532793 236.6015053813
223.2113067037 63.8319753734 240.3057648952
214.5101919174 111.1153389485 220.2100115722
222.3901360258 59.3352245145 262.7708232738
218.8100351595 131.1696238014 203.2202720260
202.9026763236 149.3270630404 240.0263525417
212.9971912643 99.3972351276 234.3800850392
225.5044162990 65.9199003271 269.0082151429
231.8080243456 65.6742311702 268.2387483175
224.5650521673 95.0219739474 225.2164926925
213.4116111021 127.4189424443 208.1196830998
203.7731038415 145.5387567494 228.5038560089
211.1023670705 143.0882843598 215.2087116548
223.3619577511 58.8906652009 237.5806028888
216.3027461223 94.7184619866 231.5504130517
223.4779766770 107.2765132009 223.3106996352
212.0297080039 135.1744387906 209.9781314259
219.2148820194 98.9066207200 225.3851294577
221.4789235047 54.6527023420 246.8126976680
207.8618065124 127.8504858020 209.7530232482
216.5987418191 66.7617212984 236.5100517081
213.5921491006 105.1629612203 230.4415563963
217.4026251872 106.9564932014 218.7063301240
216.1360871342 111.2243895010 227.3801466305
219.5537825842 73.6076366049 238.7365097231
214.5254585868 102.6015157074 240.0817430600
229.6838120408 84.1441163016 232.6256275779
211.6176942244 87.4003815721 239.8865477527
195.1105466785 148.4830921991 246.0353748494
218.2715491791 63.9890860095 242.6975399129
223.3811109784 57.0261395491 258.6716728301
192.2147162706 141.3804105678 243.9710815492
222.3192908151 97.4268884313 236.6786798607
223.8975612883 84.1549683584 237.3554477193
217.5622400877 88.3410794426 237.8023476445
208.3964607997 136.4806014888 208.5650101700
211.5488075780 87.3386331121 233.8370011028
223.4412447803 81.5151448471 234.1314005380
221.7638391724 75.7406464906 240.3107829863
214.3703033417 111.1524709349 208.3807945575
212.6234447100 139.5781607493 207.8510366176
216.5355512153 63.3066498953 246.1051314293
218.4014313878 109.9800492185 222.3845033069
222.9323157548 82.2934645518 227.8269526044
212.2170032326 143.1792597336 209.5442659069
225.8178692766 62.9060382337 264.7068352873
210.8386520243 144.6040103888 216.5014441830
228.5822736923 78.9106110634 233.5209210870
219.0080731595 138.1439005951 207.0916879479
225.8065533526 57.0469283070 251.7011657523
213.5901539702 135.1333478239 203.2769617883
217.0719331414 117.3349618450 219.4381393638
216.7761658671 102.9360976404 236.2049502053
215.1944888482 105.2381478945 223.2587627848
215.7966629300 136.6629481985 214.4224292629
214.6807387059 63.6433947306 237.8746803371
219.1310822540 90.7573793564 233.5064977835
217.4907383825 129.2400009966 209.1638323524
200.5359752372 140.8079147845 245.9640253800
195.3057065568 148.1777475867 233.3873157010
223.9358600164 85.3227667577 234.9293355417
228.1860398242 66.0679994420 269.4643585305
220.8670174992 73.4579199966 241.7294326843
218.4157288120 60.0493420787 242.2999417166
217.7143229653 130.6538306521 202.9593815754
218.0649219784 52.7554589891 248.8814326084
214.2331944562 118.9469504015 220.2952916374
222.8234631317 81.0343463579 239.2448640205
219.7182902301 74.5772046836 234.1813394614
218.3750567692 57.9604406049 262.4829256586
224.6767465181 61.2416643356 243.7596363211
210.5838784658 122.8539017545 216.1404769453
