224.1476213192 88.1752273606 237.8156872475
217.0494313778 135.9616230648 215.0429538387
220.7389128269 116.4467043669 201.8307160734
228.3246509675 83.9309249736 245.8901152208
211.9517745328 138.3862940716 250.3345595585
224.3301528058 80.0539224697 251.4472489187
214.9385224258 110.9115043217 206.0555410538
203.5019231957 60.7473977527 258.9775658832
202.7574739544 142.8812142789 249.5483022387
221.6023171407 92.6768517918 235.3988910932
223.1043778398 106.0010833599 209.2508605549
210.2101204083 148.2025622565 248.9061644529
218.7766650576 84.9421879189 243.2620003298
229.5568149399 64.2752305074 249.1009634658
218.4004816108 88.6375078865 244.6319324641
198.9980433830 143.2725633531 237.2646380264
229.8203019642 80.9085744184 248.8864529124
203.5496926946 56.4132578968 258.8010554028
219.2156280846 59.3191439840 254.8344376458
216.4889586970 57.4227913365 254.0411445592
214.7598085046 57.8265931247 254.6041250807
221.1424914708 109.6697113006 211.5997514649
222.9840318492 91.1848452753 212.2595668083
219.4511481836 53.6093909836 249.0303227247
221.0414954050 102.9128834801 214.4822401071
220.7882445821 92.8045094542 230.9208255937
206.2163118969 149.0753911351 250.9618181213
225.9726325504 65.3907631947 249.6288757056
210.3138135781 134.5671164519 236.4455340303
213.5817882114 133.9640767600 206.0771039401
217.3457752010 107.8999324606 209.2310128222
221.4335513569 94.8169661020 217.6792974833
217.1480830522 117.6745826863 205.3817977744
223.5196913841 122.9104309448 198.0207209151
223.4852439238 91.1433751278 227.1751701868
210.5846483787 130.5558219205 203.4138159976
225.1210461611 60.6005724870 254.4815924132
214.3916234118 123.7217027792 198.1086022722
226.8484443599 69.3342838371 250.4362088624
227.2523416614 105.2592425116 210.2460620781
229.5008809880 83.8523494809 250.0296540964
206.7506254653 134.9298867770 219.9417780848
212.8158067225 139.3826557431 252.1506383792
212.7528282300 137.8560482394 214.9293649963
222.7904230293 56.9560662353 250.6763607629
220.2359467218 116.6080492680 206.3031173540
196.7883312503 130.7099194447 240.3134823979
208.0517431957 58.7060986363 251.5052301252
221.4042192753 93.7513054966 222.5473683230
226.2869496211 72.0192364595 247.3406241944
219.0776714972 109.2993824059 201.8236855706
221.2466603043 81.6589574149 241.4299614950
210.5033678240 128.0601810431 213.8620474364
212.5589114502 140.3592846328 221.5367131145
225.3039451369 82.7167202462 232.4524686024
207.5053211335 53.6811148742 258.7201850482
199.4103310835 146.4728427554 244.2910118196
217.2022074743 96.6480625640 226.0037582367
206.6154556098 136.6314685189 230.4706526010
210.3125253446 55.4489649974 250.7968981064
226.9860143194 77.5042602715 251.8983412074
228.8348378594 63.5557277177 255.3598131732
212.8860740638 51.6839387689 256.8845737677
203.3200598443 134.0570767612 234.9986638396
214.1318202613 62.5759622144 251.6259524994
209.2809139570 128.9647989756 224.5864868238
224.3621016934 96.2203396184 216.9193427723
223.3025604411 106.2885165281 210.8980333341
200.5792013872 140.9723457871 247.9987759771
213.7639662947 109.2000328673 202.0321875587
216.2337657374 122.3234638094 199.3026134630
218.1315519693 106.2131039158 209.5925023283
198.7088674067 140.0622278446 242.5402254938
212.4964484980 137.3939995399 205.6166707802
216.6576549806 115.2019803789 205.3202171393
225.3242970997 85.3981492117 240.7069539994
207.3093660634 135.8827417987 221.3149669347
211.2389368140 133.5351370816 228.8411918161
209.6176843176 139.7627429841 253.8580297236
227.0435769345 54.9749278242 254.9942797367
218.0006239404 86.0403716843 236.1176744341
228.0573594262 59.8557449228 253.6980958664
210.7867367621 127.3133640833 196.5167760704
220.8443803550 113.8584893697 204.6483577478
206.2769570728 124.2146958297 203.5577283880
208.6114579202 131.8488167162 213.9124705900
214.9800729582 55.8102320795 251.3492059677
196.6325403189 146.3158599356 242.4164882989
213.3792287277 132.8204086636 213.3777454320
208.1206057952 130.2240369541 203.8788278839
221.1359589429 91.7853814213 233.7280805479
212.5597253010 111.5601681411 201.3673101532
213.1148732818 116.5453271278 199.7166685377
199.8844338012 128.8214523715 239.2625936589
221.0064253651 83.1917000970 232.9226950539
215.3682729697 133.4617431319 217.7568554050
227.1039713111 65.9452549620 257.2172282831
220.5677314034 103.3857389708 216.5139015298
219.3074254217 114.0031806233 202.3084936239
220.8626663087 89.0623634555 223.0397270268
210.8697165940 140.6587073818 222.1761632442
197.7098213486 142.0485440047 236.7173836864
223.7787300130 73.1353881495 258.8142967809
225.2307478063 66.4995137204 256.3659260719
219.3669836903 121.1068092201 205.5485095570
193.6751623170 140.7922506315 239.2206732270
210.8008989342 131.4377634104 233.1820120621
222.4615683418 82.3328630353 241.9388641861
199.1605859276 145.8630337596 241.9762233748
214.3464819417 114.2750829527 203.8282448330
192.5062374979 139.7584659576 233.6249216475
223.6291892782 99.0453393288 213.6541971659
210.6771366806 135.4594628799 211.4326549926
193.3695568022 142.4500637730 236.1576050152
203.9381909053 55.2042795661 255.4276192487
215.5243477655 134.8613990441 217.4786276049
222.0632747115 119.1235828786 200.4719634231
216.9246014068 83.7741699217 240.1808435996
206.6400816502 127.8004103685 225.1502610047
218.3819126816 85.6279722355 221.0412495082
222.2146426412 96.3801192685 227.6899874852
224.5672334885 53.0786281861 254.7038413857
212.1632620429 135.7285200615 209.9867105043
229.6664791778 62.0217509719 254.5064224047
217.0591556248 55.0364569887 254.2488032166
200.5946408684 146.7395752822 247.0586188941
202.6193901163 133.0985088499 239.8941302753
199.8844338012 128.8214523715 239.2625936589
223.4937692887 80.6163961631 234.5871018945
208.0793526611 131.2327037775 206.7755608909
212.7695435762 135.3228790895 212.4750856049
215.4434084403 60.1655655200 253.5805550378
214.3862452520 58.1379431208 255.3462909220
221.1136722502 88.8028669057 226.9329337666
207.4727875634 140.9132515251 246.4288813098
210.7212367288 139.7158726956 209.1017940019
216.0700185341 125.9774944793 201.6149151591
201.9779144193 139.2563700812 236.7428823153
227.4884640573 76.5980283697 252.1876980181
213.0515451344 109.8559213731 200.0994023584
218.2750488723 83.7978622425 234.2198443421
209.4915422978 128.7249917225 229.5012612938
210.5918927390 134.1320704807 231.5739598308
214.4319494958 117.2547223144 204.1973912173
220.3628580641 123.8783762899 191.7408787707
228.0401591478 102.5849079190 209.7565448751
207.7382614411 133.3390536003 214.3329547148
209.8452067879 132.6625694900 205.9036700063
221.8901210729 73.8673590228 255.7209479064
216.9297347131 109.3277551715 205.0137863360
222.9569473390 95.8120641939 218.0224537916
206.3348456736 57.0666375440 253.0079788865
219.9818540457 126.2565364132 197.7049361154
217.9394871730 92.2932119729 223.1633444047
204.8037687891 55.0419315247 251.7040323130
225.8158746673 85.2733799614 239.5246284919
229.5417941561 66.1193030510 256.3922377824
226.0011306450 100.2180558641 210.6312007687
221.2082915570 121.2481414029 203.8539289762
218.1812310029 57.6466531178 254.4107398943
228.9564923498 63.9697836914 248.6475211834
208.0783746801 144.7669296751 244.8649796234
210.4796826226 137.8022120119 206.5663992573
196.2368728514 129.6557872578 238.3377920377
202.9738668354 141.1750739559 244.3377492128
212.0876067157 135.0029326413 231.1897570812
216.1193919949 110.5171082592 200.3972226729
204.7241551496 53.3081567163 251.1053611677
207.7888028150 131.1335837617 213.2880340649
220.2294786199 110.4179432691 204.5986617403
218.5404584393 116.6249746189 206.3142027373
220.1061516928 82.6042603427 241.0763025302
204.2430371623 132.5428312836 238.5728788686
223.0294122396 73.8091460441 253.8496331932
210.8233421522 129.2069931924 229.0827505724
222.9068273252 83.6429462280 229.2888473610
215.8176470201 130.0983490230 204.8044546298
223.7357103987 98.7266915376 218.7564503660
198.0705354345 141.5408036243 247.0074411679
204.3211162249 60.7498248130 258.1851880502
214.2802877884 133.5109791477 205.8051888977
210.9915105912 130.8282137737 215.0808778853
198.7692721921 149.6609590989 238.7953681353
220.2818824866 82.0582016350 246.9614027530
197.7334419648 135.7389136969 235.7466422996
225.6845938538 64.0375681345 254.2520184737
222.0753599605 71.0090548445 245.8890025061
215.3101917644 113.9295460398 204.7606844239
195.9761934574 143.7561404463 248.0591132590
215.9457169228 99.0349178590 230.0621632053
217.4758874260 104.7125784994 210.1581818603
217.5904701522 92.1821709635 228.2206324210
212.5689199780 127.2458645199 207.0281384749
209.8234814206 125.2311208920 196.8493405777
227.2272578009 66.5146183083 252.0011131645
218.6418696077 119.1963379948 196.6676527556
207.0675948553 146.7996078061 250.8296075531
222.5429054750 124.3685774746 192.0872945398
226.6958198625 53.1635328426 255.8800693189
223.8881459442 91.3090778755 221.4517040458
224.1217284021 61.9248994133 249.6883765018
207.6352238545 130.3909131065 235.3672360372
228.2769291642 85.3887805340 253.2186931587
223.5695418810 80.7424906084 243.1678645333
207.5638329003 141.4071965829 246.9254299409
230.7567337045 61.4041136200 254.3991480329
226.0248229680 60.4720079384 250.2030064872
228.0858652859 77.7982390754 248.8720430700
220.9705441283 74.9069399445 250.3668772560
197.8565604234 137.0304922281 235.5812272663
228.8348378594 63.5557277177 255.3598131732
221.4491767638 92.7169457073 234.8879818791
196.9501366332 142.0939565562 247.5901347685
204.1478104482 131.7457433608 232.9776038408
209.5570048554 127.6513909410 197.2472937889
211.3751869855 129.6724256264 230.2528653834
217.5534619758 107.8669473459 207.1210716707
222.7029027313 103.5984075860 215.9790638870
212.2960256568 138.1632547628 210.0443276663
209.1945518585 142.4677053030 251.2887733218
203.9746419257 131.8270098058 226.7398247626
216.9246014068 83.7741699217 240.1808435996
209.0312130750 54.2039489827 258.6010774468
209.2427323491 53.7702012083 256.4648149327
207.5920033880 131.6300872101 208.5967952699
225.0510759775 65.4305468673 252.0596780066
211.2641150455 123.1218005502 206.5989861169
221.0002305369 89.9504249607 237.2637691983
213.5079270500 131.3124065886 202.6140970629
218.0672990821 106.1190045602 208.3303660920
222.1011439391 95.5886044104 225.6838906346
208.5894810654 132.0747498035 219.7103591029
224.7231458489 59.0410357511 256.8360861381
228.8863012461 65.1198281142 250.2270008651
197.1481775238 139.8408735321 232.9737572403
216.9577598950 97.5592563693 226.0657743688
222.7139304234 81.3590985133 232.2363512892
197.3819229955 136.7474936915 240.1784429611
213.1309167334 58.7273938224 254.4641825740
201.2204663375 137.8560044198 238.7722965680
204.7336044926 145.1653951317 250.8795477800
208.2377711836 141.8493870083 255.9765642286
215.2585093245 130.5338414870 197.9766106422
224.6005726364 73.0175723761 257.7653446428
219.1837473120 92.7744025491 215.4710860442
212.7105489830 141.4671826571 255.5202901411
220.7981073988 98.0209388959 224.9239806621
218.9802514307 84.7220674959 239.0707468863
199.2152929539 143.0295597126 239.0942069652
227.7336907729 85.9166761282 230.8592911249
216.2159745239 125.5543270799 202.5998099762
198.1674192071 127.0231423086 240.0993099617
217.1260376901 93.2494954814 225.6058566841
219.6209152022 88.4438138847 235.9370456482
218.9802514307 84.7220674959 239.0707468863
212.8532732816 126.1283919259 197.2467735642
209.9389464616 58.0873920627 256.0758014364
227.0080654906 98.4457371748 217.5062267916
215.6549336270 54.0669725294 257.1792291584
221.6634501440 100.1050585704 206.7156233367
226.4826916003 89.8794760995 211.8535022500
220.4070798062 57.7208070698 253.6749475628
207.4327685678 134.9850525686 223.3065625099
200.0146218807 132.3967727748 243.0105679616
222.7484121925 104.0547850640 220.3107696067
220.4190857481 73.8528133331 248.3911921036
222.9895727964 83.5905618887 249.1924530488
198.7708966212 142.9135510754 245.9483337968
221.8814853866 99.4565269562 213.0502532039
223.3740072630 104.2916867570 208.2486833684
224.6037434349 88.0006709969 241.1134615641
225.8537740837 83.0906942421 234.5655346575
212.7528282300 137.8560482394 214.9293649963
227.2369494596 67.8173082079 257.3591909122
228.8729636818 70.8407305728 251.1247086529
212.8587179192 110.1452204700 204.7111231449
208.3500234624 130.0590371465 208.6060067917
213.6658818137 60.6914957311 252.7727436219
226.2078644992 68.2905314968 258.2919250797
209.5031640929 145.6389813477 247.8737346360
221.2082915570 121.2481414029 203.8539289762
223.5406424493 89.3588725436 228.9175788932
226.3970150142 63.3816796287 256.1848036739
220.2236746883 54.6725381920 250.1268639944
216.3756307239 132.5856157152 217.3464170366
205.4642474752 134.8821528993 239.6245927197
228.9444048419 70.5946027406 252.1932483672
215.9362830077 108.5184792962 202.0507595739
207.2103930900 135.7615213640 219.9245263313
223.5907582610 70.2698245082 254.2234907022
218.5058369652 51.4330190457 252.0717736952
210.7584961133 131.0748183766 222.6985519244
212.1070177183 142.0741599438 248.6772668420
207.4972504342 138.7344656872 238.8105327861
225.9340832401 101.5091261379 212.5466512053
227.4850209351 78.6192093750 252.0196127210
219.0839512081 92.5065937916 235.7805983513
218.7096359302 105.1206353906 208.1583365846
206.0638224213 60.6762416292 255.3335119334
210.6961616699 140.6545443565 218.3061018839
227.9151265468 84.4752182574 241.7678909435
212.9389950957 120.0527196882 200.0295807432
223.2066756845 80.1293967041 232.9009479512
207.3555223147 137.1103848387 218.9005823869
221.5189011298 112.3796254295 205.9435847673
215.1277418854 57.6609023182 249.8472329122
211.6843553840 56.1079731880 258.0304374091
226.1432925401 89.6486316069 210.5491423667
226.4775476617 102.0865958979 217.2890086910
219.7161908990 82.5997960727 236.1430134383
225.5542172361 83.2182979676 242.3702950886
215.9705004849 89.6965117239 215.9796840161
213.8666797591 133.8380777698 208.9427360917
211.7586917059 125.4483392323 204.1358206692
213.9444235153 130.6526077813 203.9531524185
223.0351929836 126.2159203713 196.1925420419
215.5008144528 89.7730039658 241.7381837794
206.2818548486 149.8753160035 250.5200112787
218.4039536489 90.1914347308 244.8678073229
225.1769941611 85.5531307612 254.2734517240
216.7155880923 132.6024550920 216.4413543592
227.0579328535 58.7780470091 257.7755154716
225.2307478063 66.4995137204 256.3659260719
208.3939258461 138.1574692226 224.2803633178
208.9023677451 137.4004972984 211.1602446474
208.3163515085 132.2791746885 210.4826016281
207.2462885606 128.4783655092 229.3408487960
196.1582093315 130.2148514374 236.9797018107
224.8248458703 63.4447843922 249.4456356113
219.2587248598 111.7265987854 208.8671726576
210.3315206106 125.0359527865 202.2132982113
212.0588558057 58.2538686480 255.7651521326
221.7995165122 81.9649448874 241.4448004855
219.5623630363 94.5305488174 214.2424037880
223.5169047602 105.3446459454 213.0589713603
225.1923530632 77.8240040789 247.2251094289
217.3563434349 124.7481082956 195.0601408132
224.8215442478 101.1649324323 206.4439807592
218.7966382640 88.5878806296 234.1302301203
221.4655091498 76.4697797949 247.6248745583
223.2784607927 93.8115483015 220.5490442187
223.4171576668 105.5497038004 209.1284807828
227.3497144858 74.8820513148 251.3185375386
225.4443212551 52.2789401916 255.8422103767
216.9363762829 86.6316372487 217.3435850608
224.8015270536 101.5645619790 206.7683072061
219.6651815270 94.1821524123 219.6611162332
214.5495596941 122.8614590130 201.9503284653
215.7786885109 123.4315020044 198.4973610755
219.1216647757 96.4256833057 224.3268189272
213.8848367250 132.4659941060 211.1329848465
208.5894810654 132.0747498035 219.7103591029
207.7037950532 138.9734960387 251.0179996138
203.0271256114 131.4289013401 228.1250287998
206.9995702468 130.6829756025 234.6317347581
195.5162275599 141.7677680959 243.1731405249
211.1934928439 131.9447223925 232.3983070858
223.6683529110 93.1420040909 225.5216332858
209.5502564331 130.8329762864 205.1995634670
203.7027966401 57.0015801009 257.4355599065
221.8994695709 84.5190736447 229.6992857294
213.2288090448 140.1795668723 218.5396963543
214.9800729582 55.8102320795 251.3492059677
197.3275316289 131.1734068332 241.2907261004
220.4984768895 87.3572663571 243.8656470203
217.7249613798 117.1521935640 200.6610842573
213.5817882114 133.9640767600 206.0771039401
224.9251368802 85.6363226021 232.7896813518
202.7216987915 129.4642385630 234.5278269789
199.3789573435 147.1584886730 239.6980279624
208.1206057952 130.2240369541 203.8788278839
223.7410529917 126.9722117710 195.8023322329
194.8892427692 142.1666496076 234.7076759519
219.9694962603 92.2302523335 230.0634875569
208.9600995472 128.0838911585 225.3840177531
219.7885700128 125.6437140738 194.6700254494
202.4935051288 137.1400837931 237.5062415238
222.8936940649 112.7531740849 205.3774086341
212.0904448829 125.7392250706 204.6756908586
209.1232782727 129.2604821254 214.4243506650
209.6178431793 149.1357331883 249.8034115870
212.9401654367 135.9363876701 209.3496600783
210.9915105912 130.8282137737 215.0808778853
207.9077535235 52.5588879411 257.5057482864
214.4969750530 136.8225807547 212.3329677150
201.2613600071 131.4919833878 233.3217549809
211.4512862009 57.8769126431 256.4539157024
221.7895314625 95.1356833334 213.3251811173
216.7918707632 56.1224441906 252.0769986716
216.5201015954 122.4783346677 196.7104236218
225.4988357059 84.8417116339 249.2143599661
215.3426768035 58.1626622145 249.3673116503
221.4042192753 93.7513054966 222.5473683230
219.9675432678 101.9116450923 211.1546043434
225.9539863022 85.6100986887 252.3884631913
221.5748271153 60.4124335700 250.5899469119
216.6644829724 88.0368455522 240.5751900128
216.1447851662 90.6032915702 242.5490140788
192.8761308928 138.9149100416 237.8975413206
222.3720330381 84.7993720714 231.1877845086
215.9943326872 54.2978170220 258.4835890417
207.9657694060 58.6044681587 250.1803259505
210.6859807595 137.0518037818 214.3613431627
225.1769941611 85.5531307612 254.2734517240
223.7324992453 81.2263108805 233.0575728985
205.2476042177 60.4353838169 259.9704227556
229.8053810410 81.7638645069 252.1019759338
219.9377489054 106.4209813052 213.1955565702
222.5546997256 62.6847128348 252.2834359104
222.7580673908 106.4057554611 209.5567791828
225.3610383603 108.9772186017 207.4862751663
212.0713269326 145.5403265294 255.1420397932
211.9049011106 135.2325188482 230.1390338959
219.9501425526 108.8360484718 205.8075277039
213.7376787556 135.1789162274 208.5727315362
203.0930712346 141.8405864342 244.1819910210
212.6100528480 138.2925341412 220.7725893872
208.2209075973 149.8295337477 250.3696618947
221.5176267202 98.6205882132 212.9420253678
222.8387719186 78.7690498586 251.0305099006
219.2577658235 107.2415061065 206.2663908224
221.4491767638 92.7169457073 234.8879818791
217.1286069976 61.6443745892 250.2579752998
219.4094381488 61.5804617158 251.4421209658
225.3832841827 79.1357932871 253.7735280997
220.1162660079 95.1580992409 221.7211979142
195.3925768140 141.6106662455 241.6905532676
202.2019681414 140.2003504336 248.0788410168
227.1178441433 61.5145685988 249.7108515668
202.4085208769 129.5430090670 236.1377636779
213.6239990872 139.7773032251 256.7795659841
228.1695671708 71.2254895459 253.9588073730
208.0301240989 133.8236034287 215.9710589539
220.4280697262 72.5068624991 247.4293130694
211.1502033129 118.8940926645 199.8925201763
222.9590591279 84.1757167547 238.1638712610
196.9501366332 142.0939565562 247.5901347685
219.4242114725 94.7274034387 220.5869999474
196.4262920589 143.1112208000 247.0606705267
200.5792013872 140.9723457871 247.9987759771
222.0315097487 62.3794302377 255.2662182283
228.6160913604 63.3190806701 247.4279498473
217.8499389585 107.7572799562 204.5706892833
210.7021224407 148.9671673550 247.1622405617
222.1565342357 86.9206087602 232.8542416480
225.9106145361 73.5639685736 246.7834263180
222.5515220355 83.4050262302 232.4305692218
216.4415282103 91.9717395659 220.5331229578
218.7756204607 87.6990892044 222.5696056462
213.0664367058 117.8697412475 203.6790586172
217.8189404276 98.4806591007 230.9134654166
214.4969750530 136.8225807547 212.3329677150
215.7703933443 88.6776943710 220.0978210478
208.4499682542 134.8543283639 212.3498776633
228.1722821298 101.1865020115 210.0114378967
218.7367623222 110.6186670514 205.0974738299
222.9044855806 122.8255716337 195.8869220804
196.2368728514 129.6557872578 238.3377920377
212.5944602335 139.1616139373 209.9530962133
213.3750115517 140.9718956021 253.6701791975
215.3101917644 113.9295460398 204.7606844239
204.0484007330 136.9866809320 237.6168184334
227.1290428564 56.9142203237 250.2117875187
195.3381643012 144.9682768482 247.5846410617
220.3137540917 83.3177244797 239.5059443403
207.7037950532 138.9734960387 251.0179996138
208.3045450701 143.7991516832 246.6031404277
207.9386926517 136.0099443840 225.1540541723
200.6538489383 140.8915931659 244.1039924642
197.0960859099 146.6410337441 250.5094839295
208.7824701293 132.7525887565 206.5328200004
210.3524683132 132.0586384556 232.1472718168
195.6159513584 127.9697255656 241.0081080492
225.7404732031 65.7164436173 253.4358961307
218.8639413385 110.8399226882 205.2308381726
229.4218860911 68.8632429949 255.3200163996
223.8848904790 74.9588222214 247.7219362188
224.9716818919 59.1486389424 255.4558225937
228.3649774729 85.8333824709 229.9792945678
209.1232782727 129.2604821254 214.4243506650
220.4045412262 79.7684811764 246.8486575691
216.1592528540 126.5662791650 198.5235604953
215.9283103727 135.2638939925 213.2055439339
223.2953079407 87.6060033339 242.8101491019
222.1004725335 78.3774974032 249.9989783766
222.5740332272 59.6628377234 254.1957297472
210.2003907684 130.2663433562 226.7855482879
224.5427163883 104.5365324541 213.9739022924
210.4796826226 137.8022120119 206.5663992573
213.7088336425 142.6884984360 253.1317502849
220.2079945891 95.3580413046 224.7690233891
220.2818824866 82.0582016350 246.9614027530
209.5887029237 138.5658788439 207.4551494659
207.9746229148 130.6217575992 236.6715959205
196.2438597724 139.3348829165 241.5583426994
212.7695435762 135.3228790895 212.4750856049
223.6998382474 94.0419107290 220.2692720219
221.3253941689 88.8263978175 224.2138217933
211.3266036410 59.8401097808 252.0957493148
227.4208242292 58.9494509566 250.8513718962
213.4999320831 138.0184958946 207.2612544958
231.0748736716 60.3602629118 247.9735029362
200.7373186872 144.2544408170 249.1840323960
205.6771955163 131.5962927854 223.4729619330
210.7086251676 139.2030577700 256.9592988829
209.7128892223 130.9841593132 205.5753272068
225.0354510136 71.1346438084 247.3027652523
218.7966382640 88.5878806296 234.1302301203
210.0610682517 125.9515008351 199.6285501205
215.5243477655 134.8613990441 217.4786276049
207.8447201937 53.9119593669 260.0245449315
224.8790351828 99.2694534887 220.2866298612
227.2600014631 56.2389590986 253.1567106143
208.5800328921 150.3876330044 249.0967282839
209.6425467701 131.4258724976 220.5917846031
203.9746419257 131.8270098058 226.7398247626
206.5632683049 130.5267887659 233.5303720137
210.4197135779 123.0363991835 203.1818024980
225.9788700174 66.7984362311 252.8814569235
220.1557100119 86.4987881220 222.0073024176
227.5848746288 84.9580847318 252.0844951919
203.2027360631 134.2131484503 234.5956183324
217.9371105453 134.5137200793 215.0648023001
214.5183934343 128.6638102118 205.0342642304
211.1818217863 136.5833272511 227.3137021897
222.6892990377 98.1368865554 208.6587500094
228.5887791082 91.0059577357 214.4929514866
205.0890363048 132.5468122563 230.1121621076
224.5007086802 103.2119197413 208.4752844247
205.7480716394 129.7983829514 234.5938758159
207.7037950532 138.9734960387 251.0179996138
227.1489905803 86.4080964692 248.8990301412
220.2502184160 89.3887596999 235.5994759534
222.3530083880 77.3514347646 252.0509697526
209.5104826712 144.9419226982 245.0092642773
223.2849308759 127.1467681347 192.5045579163
220.2818824866 82.0582016350 246.9614027530
219.0839512081 92.5065937916 235.7805983513
195.6864640694 141.2276882347 236.1237803161
202.2246153486 133.5742265791 232.9891904737
224.7795109145 86.2454145648 244.7620214517
203.1266557259 145.3565294383 246.1072148433
224.7231458489 59.0410357511 256.8360861381
216.0457942717 59.6825471934 249.1245707598
216.8916689517 134.4568412238 218.1000117133
196.5634568512 142.9750844594 237.0193397553
227.1644428421 68.9849419202 256.3876808289
206.0894258898 136.1973491893 235.3192896473
210.7527294225 146.5346196014 246.1386166067
219.2223946146 90.7628450098 227.5557177289
209.0158514017 129.4025149443 201.4749592471
218.6043079535 112.4832956444 202.5512345144
215.7215198338 113.8056368825 202.9285036684
221.8196436731 117.6533048167 202.8935078954
204.1933928194 128.3110672485 227.9439064019
206.8844341278 132.9789075390 232.0143265746
213.2271564199 135.1017887563 212.5145169519
203.6728478404 129.5115343361 228.2402109159
221.1950349425 116.2721480032 205.1284903900
215.5373517083 113.3521859545 208.3500837272
214.7177980134 119.9410316016 205.5716381657
225.8814997305 63.3114842730 254.5030757749
208.1824107543 134.6582673568 209.6741697787
217.7249792516 51.9817536191 252.0230954395
221.5538132950 120.9603094589 204.4047073391
199.6904920317 130.7036093463 236.1448896356
222.1821293715 106.6205974387 212.3485536738
220.5590774822 88.8775325986 242.6107204704
194.2896828095 145.3342271873 238.5779720826
225.9445855900 70.1568135758 249.6996244684
216.7117997981 54.1034309374 252.1303046193
209.5472513028 56.0751744913 259.3546721233
210.1084632356 128.7055175523 199.2229789414
225.1411881126 83.3995202487 242.3604909005
207.1294312796 132.3733480338 216.4282174076
209.0478409670 136.4831893992 217.4767532886
225.6482696496 77.1903651495 248.7609517758
213.5165148891 120.3369974176 202.7076467307
226.7265979088 102.9579630526 221.0529531724
215.8364736676 85.6312315454 240.7048193422
218.7009785223 92.6226113728 224.5075950374
218.2750488723 83.7978622425 234.2198443421
223.0819210848 77.8951591240 246.6769494962
204.6166336798 128.7830283378 231.6382700539
207.3852831243 133.3538066732 239.4941929858
220.5957571625 87.5437415944 239.3627138909
224.4996175973 64.3764202560 250.0839928541
210.2003907684 130.2663433562 226.7855482879
215.9644352420 91.9115795123 217.9428894376
207.3040115775 135.3358103482 228.1659776635
200.3765669920 129.1561777088 241.1539246518
211.3475833058 139.5388519151 253.6088448526
220.2305319153 89.8246193620 226.9157879360
223.2152950182 89.2950284258 238.2704211901
213.4253568813 113.4987617996 206.0937023356
212.5741276299 142.2321277443 254.9282842004
221.8952601427 84.2662061151 250.3844918859
207.1555640757 56.2527790025 261.2467244848
221.7743083361 89.4568238372 237.7961889149
215.9701605019 56.8853189927 252.1327265788
225.6728496847 111.8766793587 209.2842561013
215.7538140625 61.2708259338 250.8241514330
215.5424062656 117.5743512279 204.5561479289
223.4493619688 84.4700038959 248.3011007842
214.8738728092 121.3406875139 205.2934103655
225.1572589937 113.9929712225 208.5209021005
218.7966382640 88.5878806296 234.1302301203
225.9094834050 85.4757771487 231.8516875837
226.9922115690 72.4214340998 249.3379262509
210.3375346932 134.6673629390 240.7556462574
205.0219538637 145.5801812146 245.8255031149
222.7079132510 92.6726095779 212.6718503651
206.9768244571 138.5371716171 226.7268354232
212.8860740638 51.6839387689 256.8845737677
229.5981721589 58.8840460093 251.2041068114
216.3527205915 118.2097859304 197.7566149491
220.4546317689 54.2338873383 250.6749064404
203.1362698807 57.8292521962 261.7698326802
207.4327685678 134.9850525686 223.3065625099
225.1210461611 60.6005724870 254.4815924132
215.6180960581 137.5203098269 214.1703776198
210.8745070708 129.6830795005 199.0507895634
220.2978828930 125.5881807508 196.3829971675
218.4171195363 119.9648396101 199.0728265918
205.4497183307 146.0139802405 250.2091805933
196.6339036926 147.1638874505 247.8709916480
211.0528055960 111.2269935302 204.8350030790
199.6904920317 130.7036093463 236.1448896356
227.9790939568 93.5084281616 213.5902916595
206.7036795278 130.1463025888 232.1083914344
200.9208399166 139.0455469364 239.8668476882
213.0864622845 139.9262246113 208.2091775297
210.7110959986 131.0636696119 203.6695949813
221.4572602829 96.3601148162 229.1806092449
234.2813484276 60.1331668393 250.4537163185
212.9712639679 118.5251112253 204.7925347560
211.0263817490 137.7025068031 215.5809144988
223.3465561033 111.1833103593 204.2691360265
207.6980499105 125.3224673983 202.6328664240
225.2324932873 92.6304681972 228.7553739800
226.2869155429 85.4826952344 254.7955947691
224.4841553805 112.8667705472 206.7987248275
223.4171456662 79.1191718757 244.6135927053
218.7225187402 93.4700647415 220.3413244638
218.1781399787 91.7563869595 217.3467298064
212.9651504915 126.0778101073 196.9570747950
197.3553386339 134.8113819509 238.6932975672
216.7532699920 125.9148112621 198.3676752232
210.0811178461 131.3235829437 219.9360385004
197.4400816392 132.4550128696 240.4205463422
227.3641297526 88.2680596017 232.6177352078
214.1955079708 130.6740093802 206.0447088667
216.4574062703 109.6554426723 204.9426109577
205.6570112470 135.5104058673 232.2325859614
217.6354323254 117.2771992536 203.5605633954
219.2608404565 110.8084599937 210.3570152663
205.4304029823 137.9302268052 238.2425161601
217.5342625526 84.5280969161 243.5604945892
207.7888028150 131.1335837617 213.2880340649
200.4796211271 138.7454457506 238.1711767153
195.7230847152 143.4713795901 238.2086232824
208.8396927431 132.4743961974 205.9958113317
220.2437435324 73.2558153899 245.9315139331
226.7486908112 102.9321710238 216.1190321329
226.7603396104 104.4946318376 211.9899807617
201.7229676430 131.3067320063 233.9975953008
192.2092842795 138.4477476239 237.6105584414
217.4758874260 104.7125784994 210.1581818603
202.4927104949 143.2721915507 243.3936328104
223.7823200438 80.2450622014 233.9277471323
198.3897931984 147.7094814647 240.6645718422
199.0950600065 144.5683068229 245.4319833632
210.9127988016 140.4821813203 247.2414323067
222.3825947133 60.6299391275 251.2944925903
227.7426321554 81.3771221124 246.5902351939
218.8502870632 60.7493390939 254.9599897569
210.0154169145 139.3421391316 247.3559312606
213.8090111958 141.6207201486 220.0610953128
217.5119251294 113.9559617147 202.4348186276
203.6056931420 56.4224913518 260.3449011504
219.9182976258 85.0487617207 233.4466707965
209.1691788135 126.4075707740 205.9498389340
214.3246018867 139.5044282848 220.8244493136
225.0131135010 84.6803451290 232.2176203579
217.5796446437 124.2008307020 194.1724583206
221.5900522699 107.7779364819 211.5957816849
202.9403242959 143.3280811446 241.9843757106
194.1163482778 149.2358057366 241.3795577076
220.5738143745 101.0501581667 214.2617828294
214.7277394645 53.2082435859 255.7137317873
226.9012626153 87.3596200243 227.6620849340
212.4393380428 137.2063801060 212.8034542669
212.8365513572 130.1691071111 195.6410760620
203.8039509042 54.8786319316 251.5484582205
197.1414597274 133.6683262895 237.9941085184
229.5636788089 80.8338473587 248.7594775086
221.4062878669 122.4378820789 192.8106034032
211.5689628048 132.7768635605 216.7895935412
208.0996956809 122.7529183935 202.9480457494
225.9368669334 63.6932839484 249.0838478902
218.6418696077 119.1963379948 196.6676527556
224.9199966938 96.7245337835 216.8366325264
198.1841007081 127.4522052477 238.8282030091
226.1394721411 104.6402265909 220.8212975548
223.4713811223 90.7874618427 210.4383324294
218.6745905025 108.0576622286 211.0438469367
196.5902274089 145.9173466602 242.7916127148
203.9786372284 56.9128611868 260.7234682160
213.2640924445 133.3262121496 211.7673549451
200.3397911390 141.6000584593 239.7125725577
222.5515220355 83.4050262302 232.4305692218
207.3289092312 132.2718721705 217.4793786571
211.0396750042 137.7325514887 251.6010657073
220.4929053587 54.0712086840 249.8579426859
220.2113628075 79.3113039914 250.1946609427
221.9259659867 83.4749058040 247.9579444760
229.0255272942 62.2569790824 247.8393865194
207.0078038357 140.5969900596 244.6418981464
212.1796776237 137.0710258242 213.3901961275
223.6291892782 99.0453393288 213.6541971659
222.2356611322 84.9169091364 251.6040632220
209.8360328998 148.7055150305 247.3090826911
219.7156097704 50.8430517506 251.9500739125
214.4766619034 112.7843162712 201.7369357766
221.6453193834 103.9376539556 219.8970738775
211.2389368140 133.5351370816 228.8411918161
211.3266036410 59.8401097808 252.0957493148
222.1374338527 80.5674864341 243.0235694638
218.6376964138 93.3525754201 219.5650311787
220.0746652681 101.1809214828 216.0104188066
221.5577596898 95.0563614661 217.9036154901
226.6922931654 98.2291270967 216.4353933216
200.2884692647 139.0314096108 239.5191560608
226.4159398929 103.9822736959 214.8252045037
206.9675773194 52.9296478651 257.1970498713
224.5830195016 93.1943617957 219.3057391813
216.0258807757 113.7077185940 208.4029331039
222.2421464920 101.2112443857 208.7888710034
226.3405434825 72.5330708014 256.2121767457
196.5634568512 142.9750844594 237.0193397553
219.2983241886 89.4704223027 218.0023318049
220.0837599744 121.4899475800 194.6470394144
221.6185364675 73.6293640454 245.3653378000
197.3819229955 136.7474936915 240.1784429611
224.1798082606 109.4695934827 212.1791556792
214.5619786922 57.8164337849 256.6567892351
219.8338375297 121.8323555647 203.8936952446
201.2879153057 142.1901127697 241.2664281908
222.3925683498 112.8898163914 209.1094233356
217.0494313778 135.9616230648 215.0429538387
209.5023954077 141.0632652022 221.5547791359
217.1480830522 117.6745826863 205.3817977744
222.1005850662 119.6014823135 200.7480976959
208.5983831426 144.2881801154 246.2757704262
204.4623536864 128.8677917079 225.2898025572
220.3758150419 112.8891443114 203.9998894672
207.7539868656 130.7966650686 237.0271710440
209.0133601264 137.8345281667 250.4844276518
223.2092573863 79.0016357882 244.1686356461
224.7236465230 54.0806834185 251.5277421444
223.8227472583 96.4267440578 213.0197829573
207.8755307958 136.6316408545 220.3113783975
219.4396404218 93.3453574945 215.2334082473
223.5319625749 55.7057637262 250.4403813767
222.6453507121 90.8840642796 212.4914430308
224.0903439101 86.2401661777 248.1343231109
199.8442596992 140.0620365067 237.3285660870
225.8338539866 80.3760520065 246.0866070636
211.9121489459 139.0190851520 254.5650420125
206.1245186526 123.8651584577 206.4583888115
221.5748271153 60.4124335700 250.5899469119
228.5478083353 59.9612302481 253.9015809042
216.9053197051 86.5834834055 240.6335806550
225.9108673070 109.3511925976 209.5993412215
214.3384501835 57.7825429897 254.6217621060
209.5031640929 145.6389813477 247.8737346360
229.3207399269 69.0498706265 252.7504462436
221.9500002442 85.6597725006 227.7475600450
222.7484121925 104.0547850640 220.3107696067
217.0398230006 99.2811460675 228.2359661488
227.1644428421 68.9849419202 256.3876808289
210.2316085723 131.9644379616 233.5558746484
222.1005850662 119.6014823135 200.7480976959
208.3859737843 134.2992039798 213.7355772712
209.4447783601 54.5234579784 256.2650820048
218.8064516606 119.6458757054 196.0691220400
191.5322943221 141.4206498475 234.0939001381
226.4347744238 77.0029866851 249.2711681345
220.8201285023 126.8713169062 195.1858900502
205.7708039533 138.5809242511 239.4620822885
215.0260215013 55.5118844420 256.2935334265
210.8694212903 140.6167538633 248.8002970573
219.9647439233 119.2806933420 206.8517520468
225.9386196244 53.0897621319 257.3456776142
198.9784675857 139.9000118256 235.6335253418
220.7512591031 84.1547584124 236.8892160159
219.6919280461 62.0422186254 252.7441054717
204.7046337925 138.2518441593 239.8082221790
210.7110959986 131.0636696119 203.6695949813
210.5781749811 133.1895402731 234.3379606101
208.5883297586 144.2045574066 250.9537743859
219.3297327420 122.1841342272 192.6013947098
223.0194185297 92.2971493972 232.9524189879
209.6324952460 129.8541169153 216.9679657978
218.5396806659 98.8792778066 225.6466353349
224.0834518418 89.5769154152 233.9329865299
225.2643086186 102.2109018258 221.3406364890
224.9680749433 95.8325347896 214.1160133417
209.9505801972 121.6255258035 205.7454960559
200.7284643051 137.0913993213 240.5162204593
198.4634070961 146.2364759238 251.1308680378
224.8215442478 101.1649324323 206.4439807592
222.2146426412 96.3801192685 227.6899874852
212.1061865782 54.1648729547 251.4913919667
223.4937692887 80.6163961631 234.5871018945
219.6072162648 104.3735044679 207.3486314695
197.7334419648 135.7389136969 235.7466422996
197.0479477237 131.5679325348 239.2909593981
210.2313173183 134.2755430622 239.7544489472
226.7123172681 72.8174229207 249.3999407547
228.6356942327 78.1722130713 250.9851091252
220.9767337992 101.9707702215 218.9718366018
206.0182628645 148.8230705702 249.3678445174
211.9502889334 134.3285764504 225.6826392356
220.4251851508 81.2288370008 249.8134801120
211.4769378615 135.1901599117 205.9686552516
195.5361678721 137.9155790761 232.5252896366
223.3842242447 54.9612156665 255.5978652916
225.1622659065 84.9722131883 227.0892078343
217.6697935982 58.2825127530 249.3709013093
226.3944110478 71.9977048490 248.3741661363
220.0837599744 121.4899475800 194.6470394144
212.6724038417 127.3218363348 206.5362242867
213.3192731928 120.1371868544 203.2283111536
226.9374624221 84.6205477497 240.8981777002
220.7045933806 125.2862788460 191.6930237490
208.8707424182 130.2865447642 212.3723592890
225.8592798141 81.2459755966 253.2652261174
204.1768563671 144.1659942066 250.5514439565
221.1345435747 86.4150333953 233.1367612031
225.7062044787 104.2854762221 217.8320609764
217.3041578480 119.0742385985 205.1035699742
209.4841685203 143.4073116952 250.9451214811
211.3366306605 128.2417358467 199.9452865577
223.3024518315 61.1835993479 255.7768730779
194.3509304318 141.3850801403 237.7956640411
226.5889270637 91.3703295887 210.3303975555
208.0168297920 140.8541800307 251.9146384035
212.3835889012 123.6325117222 198.9770338554
204.8324420059 133.6666139286 229.8484022554
225.2078659755 111.5604234688 207.4972781456
191.9077478950 142.1255733724 236.6704495388
223.4713811223 90.7874618427 210.4383324294
219.8338375297 121.8323555647 203.8936952446
220.3663986068 80.1217409920 233.1493701135
224.9867010023 69.1067954619 250.2486182037
223.3383169973 90.9351038797 219.3386379907
202.9749189651 59.3949822998 260.9291349471
213.0820778389 140.9880398102 248.6203110613
211.2418648423 52.3856634189 255.3065190651
225.5906122435 91.8426806060 218.3251744985
215.9943326872 54.2978170220 258.4835890417
209.2926768179 136.5960410190 216.5330789065
208.3865850532 57.5769239479 257.9446429777
222.9747926551 94.7011731583 225.9644249030
205.7402877138 127.1258840647 206.0573892830
222.3530083880 77.3514347646 252.0509697526
216.2827639452 83.6435042650 243.5226356470
224.2668707760 70.4939010452 248.3098019438
226.8579729516 92.8106990894 211.7528817547
219.3680735057 92.0254496582 216.9688851805
224.9195943566 85.8872530546 254.1742106607
214.1779105177 52.8342695899 253.6006657322
206.7814804252 136.6280449915 236.4534876142
222.1014377185 98.2468892041 211.7741754865
221.8476989966 101.4768982499 208.7183353779
196.8369062114 136.4431939130 235.7847720959
217.1156850072 109.0596326579 201.6260183997
220.4045412262 79.7684811764 246.8486575691
220.7530879894 77.1256683007 245.6920893581
222.7904230293 56.9560662353 250.6763607629
207.9759505190 131.6284716670 209.2630302921
209.8499627154 135.0085059319 236.5640703633
216.6529813171 122.9719821083 195.6459675335
209.5023954077 141.0632652022 221.5547791359
226.2504414832 100.1433144287 213.0429182016
220.5587237686 125.9224015586 196.2320857460
228.5530799932 70.2440934272 248.6734532581
202.8903440461 144.3245436136 249.7709615671
221.2014730245 95.0286942919 224.2094280700
205.0294304757 60.9533959951 257.1192594028
220.4070798062 57.7208070698 253.6749475628
222.8962539813 99.8081877930 214.2605866868
211.7566712217 138.3696592023 206.1447678514
221.4844609763 71.6716685313 250.9159801722
217.2824412834 96.0159442491 227.1021917499
211.4464542160 134.0705434470 222.4737261175
210.4014692412 126.6022038565 200.8481214567
220.1974824635 86.9332759416 233.0569052884
220.5590774822 88.8775325986 242.6107204704
202.9132907941 57.6453227291 260.3859682652
196.6754294030 142.3256983706 238.5031311557
195.7256434058 144.3693262048 251.0359447621
205.3047723029 128.0922083825 227.5752962238
224.8472571789 95.3698230646 213.1855822347
220.4373648757 91.9326184423 217.6090848768
216.6141220316 54.9356140385 252.3820153248
224.5240152864 99.4589285926 206.0434759912
216.9988271875 91.6344251463 216.1571419683
223.8691097416 104.6182564137 209.0887503317
217.1136257997 52.7291701964 253.9060566854
212.9459426413 129.7783711265 207.7798268959
220.3758150419 112.8891443114 203.9998894672
207.3040115775 135.3358103482 228.1659776635
213.4908955440 125.4499485343 198.1022750451
224.3953778575 71.2925356344 246.1227592546
223.9343113529 86.3279088341 233.8504981535
226.8346342185 76.3791580517 253.3068091310
201.2245464791 131.5168874415 239.7846233626
218.4316375472 51.4055513554 249.3823071962
215.3812769125 111.9525300423 208.6283115273
226.4546578522 54.9609876405 258.0992722909
216.5598991903 88.0339517428 217.1474126892
220.9781823166 112.2017527206 207.1572647637
226.0532876598 84.0532684071 241.0939899594
199.7418016159 132.5403735848 235.1892479347
221.7580456288 88.5519422841 221.1949698193
213.8596181776 139.1881723949 219.0374713579
226.6231044507 102.8018684507 207.5589137390
215.6804767681 121.4966866506 200.4018760028
192.0920740701 141.3766149060 238.1682434674
211.3366306605 128.2417358467 199.9452865577
198.0034970660 136.8088389493 239.9979580516
217.9485816390 91.7647948168 224.3213008662
224.1552026434 94.9391272624 212.0513842678
212.5597253010 111.5601681411 201.3673101532
207.9759505190 131.6284716670 209.2630302921
219.0463748445 59.4173933948 249.4524796710
227.6650792105 83.8751379765 247.9739408349
223.8981258442 76.3681523704 253.7911565999
224.5649272924 59.9290856705 254.7500475596
208.5532519963 131.6332431193 218.2932899105
215.1277418854 57.6609023182 249.8472329122
206.6784990020 133.5621972322 223.2311315443
207.9759505190 131.6284716670 209.2630302921
216.3823860949 59.1372900220 254.4040852287
220.2159895992 126.2827715209 198.0663674227
226.1394721411 104.6402265909 220.8212975548
223.8735903731 98.7142520601 210.5668365763
215.5243477655 134.8613990441 217.4786276049
211.0396750042 137.7325514887 251.6010657073
217.3865762707 119.8131842885 205.1024013239
210.1546794496 138.3492817551 211.5472918744
214.3464819417 114.2750829527 203.8282448330
201.9869964293 142.9282284039 241.4501286246
219.7046269850 58.6417512097 254.7538962025
214.9385224258 110.9115043217 206.0555410538
225.9670503200 53.9070118682 251.9268703342
218.5008306252 93.6230441368 225.0396805509
219.8119254485 107.9970297042 204.7683564541
221.6762985043 120.3033304913 198.4159448437
224.3932034159 67.0078716606 258.2370300979
212.2901029413 129.1833424640 199.8698732036
232.3738167257 63.5598426705 248.7595737535
219.4094381488 61.5804617158 251.4421209658
212.0980907661 125.6791837249 205.4401805524
221.3614769055 99.9352709402 211.6394571934
195.9528815231 137.2570753800 233.3864189249
215.5254422852 85.5746494125 240.9684369409
197.2218685179 147.0590535776 242.4492353160
224.9506828943 83.5236251358 254.6768936248
227.0872328131 99.5841254720 218.1916685182
213.3192731928 120.1371868544 203.2283111536
224.5816917259 60.8069769264 250.5820325984
227.6056130344 92.3212557829 216.1940844331
227.0491092828 61.2107981773 249.5632841642
217.6677265388 117.8060021181 199.3506513630
203.4809716589 128.9669557542 226.0111212017
213.2351837701 143.0080368289 256.9991882528
195.2365020182 140.2110103332 241.9687810678
228.5024730114 72.6766411809 249.6970772130
217.5017132694 92.7186452307 220.9427360622
205.0335296920 129.8551432356 224.3918110050
209.8664675146 130.6662753466 224.0852291460
227.1039713111 65.9452549620 257.2172282831
209.2774316300 135.1682048004 210.2661695292
223.9652399713 123.6686681095 196.0792476547
216.5201015954 122.4783346677 196.7104236218
209.0812605246 139.1691090506 222.4735076426
225.3687437290 104.1646683306 212.0190713628
213.1699892130 113.5428945133 201.9001030816
213.0925536416 133.4637063658 204.7704997223
203.6056931420 56.4224913518 260.3449011504
205.7996598209 134.9860213935 225.3056880789
202.7606643950 144.5334807024 243.6309365014
212.8608870291 141.0306658382 218.5072396797
209.0767007237 140.6223892993 257.6242187827
213.7569300127 57.2647179528 258.7253303522
227.3027612291 100.4125456860 215.1505607255
234.2307414459 62.5657145929 251.4773402735
205.7996598209 134.9860213935 225.3056880789
233.8256196608 61.0720153692 250.4346796200
220.2294786199 110.4179432691 204.5986617403
225.3610383603 108.9772186017 207.4862751663
196.2335610037 141.5181634441 243.5983269694
209.6489477660 136.2199534111 223.8370796913
213.1584396029 137.4902255221 214.6069013887
202.7479424611 132.5119855334 240.1277796709
207.6939729106 148.3740784747 246.4749366943
210.2551419515 127.1162012614 202.1329244106
232.1137170935 61.9232704700 247.0728258167
222.5928804751 122.9841917424 198.7361593892
216.3096490711 130.8629596970 203.0605359462
206.6499160336 139.1628681796 219.3457678593
220.5639834445 91.8397956283 231.5565634495
200.7959132732 141.4255076712 243.0103520820
220.1061516928 82.6042603427 241.0763025302
233.7510636640 63.2866876948 249.4374924374
208.9421142973 121.9773350680 205.2335394159
219.6386137814 96.6822321116 214.7725401933
215.5424062656 117.5743512279 204.5561479289
220.4929053587 54.0712086840 249.8579426859
211.0537761836 133.3378578481 227.2332530933
221.8652011696 73.1007344225 254.9488166633
222.4684932161 76.6575069715 251.3587526763
210.9893289878 53.4117260577 253.2545276891
221.4016400429 106.7337956434 211.8172533149
199.3296360575 140.0767075334 249.7338940064
223.5907582610 70.2698245082 254.2234907022
219.0030213416 90.2007853380 230.3219209610
222.9427129558 122.5179875015 195.8033018227
215.9325806425 87.0254588145 244.0760279360
199.6904920317 130.7036093463 236.1448896356
217.8188525195 117.6142018178 200.6211938479
225.0773622600 109.3785690057 207.0092057584
198.7088674067 140.0622278446 242.5402254938
223.0194185297 92.2971493972 232.9524189879
222.6869025331 105.1549364486 208.9320186266
226.9382103301 58.3856392162 257.8427381299
205.8775748709 143.2431460453 244.6184953012
215.0260215013 55.5118844420 256.2935334265
224.4424845217 67.1185993384 257.1981013323
221.1216876290 99.7999574007 216.3245663041
205.3607049531 59.1563566503 255.5762528239
202.8903440461 144.3245436136 249.7709615671
210.1084632356 128.7055175523 199.2229789414
199.6614071416 134.2563078506 235.3346804183
211.4779215643 137.5054030672 230.2870972541
211.3617064985 55.1759912560 258.2374158980
227.8668824521 77.1779908594 249.4154632039
211.1502033129 118.8940926645 199.8925201763
206.7062736331 139.7711146148 246.6597008916
224.6144425699 81.8919773541 253.0245783368
223.4937692887 80.6163961631 234.5871018945
204.1768563671 144.1659942066 250.5514439565
223.4429209835 80.0142177086 232.6233872491
211.8673201762 130.0071509638 232.1441963762
225.6482696496 77.1903651495 248.7609517758
224.4777157250 103.8654930661 216.5100963738
222.8197200119 72.8528600252 251.3641412136
222.6966942227 92.9074147898 222.6111941289
221.9581248550 101.6926894588 215.2347572465
209.2926768179 136.5960410190 216.5330789065
227.8664332943 83.2017263820 248.0952881461
218.4342667253 133.6246375057 216.6886468796
221.3701867773 90.7127125453 216.9949261713
216.4929354374 96.6596868773 230.0526001086
219.7401285127 126.9281194570 193.0846034864
203.4595849666 145.2291259839 248.5143464210
215.9283103727 135.2638939925 213.2055439339
219.4021081475 119.4389979863 207.0522479645
228.7823631074 79.0290029898 250.7851126348
222.5669356096 83.1198697916 250.0610566432
224.4703093619 56.7735901442 257.2868336017
220.2844404864 73.0633095361 247.4197094209
225.1568190354 91.1953254144 210.1861024861
203.2027360631 134.2131484503 234.5956183324
