202.9938049316 171.0872039795 160.2211914062
169.9952850342 137.4669342041 229.2539978027
221.4149932861 173.6869201660 166.9453887939
181.6564636230 160.0312347412 190.5000000000
164.0040740967 142.0428466797 236.7399902344
185.4157562256 153.0859069824 173.8730010986
202.7467041016 174.8697357178 156.1799926758
169.7539520264 169.2599945068 194.9638061523
182.3246612549 123.1623535156 226.8399963379
186.5655822754 117.5559158325 224.1889953613
183.5113983154 159.5299987793 181.9087982178
178.7799987793 104.9808425903 219.0100097656
194.7497558594 163.7599945068 157.7600097656
159.6639556885 142.1399993896 232.3937988281
180.2797851562 156.5257110596 196.5418090820
183.4907226562 118.8499984741 221.8126068115
151.6988220215 160.7040252686 231.6999969482
186.5740661621 121.6828384399 232.9899902344
182.7531890869 112.0045776367 214.0079956055
196.5147857666 162.1253204346 155.6809997559
179.3127746582 133.9389953613 221.3961944580
175.7959594727 108.6588058472 210.7968139648
151.0655822754 159.2059020996 230.0489959717
183.7617645264 166.9868011475 180.8510131836
181.8227844238 173.2389984131 198.4761962891
188.3546600342 150.2123565674 168.8899993896
194.8789520264 157.1081848145 182.0670013428
159.0693969727 158.4225311279 234.3339996338
164.3139953613 159.6722106934 226.5899963379
206.0508728027 176.5029754639 159.1100006104
222.1127319336 166.8500976562 165.3089904785
158.9082794189 154.3133850098 233.7460021973
185.9308624268 120.2429733276 231.1399993896
169.5932769775 165.2680969238 220.1239929199
159.2133941650 142.6098632812 235.4626007080
176.1846618652 108.6723480225 211.6399993896
189.4440765381 160.6628417969 182.7699890137
209.5527801514 171.6589965820 167.1761932373
178.2138061523 167.3871917725 198.7411956787
185.2640686035 162.4228515625 188.6100006104
164.9067077637 143.5397338867 234.5699920654
165.8067169189 148.4597320557 233.3499908447
204.7072296143 172.3553466797 157.4499969482
182.5897827148 121.7957153320 222.3018035889
187.9537963867 122.2572021484 232.0411987305
175.8136291504 170.7169799805 194.5596008301
168.7547760010 171.3953247070 195.1909942627
160.1659698486 163.0187988281 213.3568115234
181.7049865723 117.3669204712 224.7053985596
172.8164672852 128.6112365723 224.0000000000
181.2837982178 164.2272033691 195.1712036133
164.1493988037 143.0325317383 226.1540069580
158.0292663574 155.0091857910 230.5142059326
187.9421386719 125.1269302368 221.9231872559
214.3939971924 169.0722045898 162.1100006104
163.4452819824 160.7369232178 212.2340087891
178.3657684326 157.6159057617 197.0530090332
181.7447814941 155.8953247070 195.3910064697
195.3782806396 157.9833831787 163.5260009766
180.9140777588 158.8228454590 199.0800018311
182.2636260986 115.5669784546 219.8195953369
159.9938049316 156.6472015381 236.9212036133
171.8149871826 170.4169158936 203.1753997803
179.3127746582 133.9389953613 221.3961944580
188.7174224854 152.0198669434 168.3300018311
160.3982543945 163.4073028564 214.7010040283
175.7740020752 130.0722045898 216.7299957275
180.1516876221 124.7673721313 219.3999938965
207.5339965820 167.0622100830 160.3099975586
203.2152862549 168.9069213867 155.5639953613
168.0940704346 170.8828430176 207.5999908447
177.4157562256 105.3159027100 211.9430084229
167.0794067383 173.0125427246 206.7640075684
182.2289428711 167.4158325195 187.7420043945
172.0039978027 127.3122100830 219.2900085449
185.6772308350 115.6153564453 220.7400054932
176.4700012207 130.1608581543 223.5899963379
187.8297576904 159.5700073242 177.6900024414
195.2797546387 157.8399963379 163.7799987793
190.7967071533 160.7097320557 175.8699951172
187.0589447021 110.6758346558 225.2720031738
195.1797485352 159.6499938965 162.3800048828
214.9049835205 175.0469207764 160.4153900146
171.8026428223 129.0568084717 225.1430053711
171.7014007568 129.0299987793 218.7187957764
175.7738037109 129.7272033691 223.5912017822
167.9508666992 167.2429656982 201.3199920654
186.5538024902 161.9171905518 186.7611999512
178.2938079834 133.6071929932 221.6911926270
198.6832733154 169.6081085205 153.9839935303
165.5288238525 159.4940338135 218.5999908447
170.1116943359 132.9073638916 228.4700012207
160.2921905518 156.6698760986 221.7899932861
191.9746551514 160.9723510742 166.9499969482
205.6321411133 170.8369293213 153.6731872559
163.3114013672 152.9400024414 228.7187957764
179.5772247314 109.4253540039 208.1999969482
160.3013916016 145.2100067139 230.6287994385
184.5888214111 110.9340286255 229.4599914551
176.2240753174 170.6028442383 200.5000000000
161.4202880859 155.2998352051 233.7749938965
165.8846588135 153.7523498535 228.5000000000
202.6991271973 170.2758636475 160.6840057373
181.7051391602 113.3099975586 228.2929992676
223.0921325684 165.6569366455 164.5131988525
198.1227874756 161.2189941406 169.8061981201
176.2334747314 107.3930435181 219.4860076904
202.6002807617 167.8698272705 155.1150054932
191.9674224854 159.9698638916 167.1600036621
172.0697784424 165.9257049561 197.3818054199
172.1964721680 164.8812408447 202.7100067139
174.2182617188 135.2572937012 226.0310058594
182.4359588623 159.8287963867 184.2568054199
220.2608642578 164.5929718018 166.2399902344
174.8694000244 136.8025360107 225.1840057373
169.0372314453 164.2553558350 211.3300018311
172.0343017578 174.1640777588 195.9824066162
179.4020538330 160.4580383301 189.7720031738
159.5139923096 143.1322021484 232.6800079346
180.5172271729 129.1753540039 215.8200073242
186.7263031006 164.6486968994 180.5249938965
192.2267150879 161.2997283936 174.5399932861
161.2313995361 151.9700012207 229.0487976074
160.2399902344 154.6608581543 233.7700042725
159.6479187012 155.5476226807 237.3970031738
173.3614044189 130.5200042725 218.6887969971
164.4074249268 138.8098602295 225.9799957275
158.4446563721 143.5923461914 233.5200042725
164.0814056396 161.6499938965 215.7687988281
182.8897552490 123.9100036621 225.4400024414
162.1286010742 164.1056213379 219.8376007080
193.3440704346 159.1428527832 168.8399963379
187.6138000488 164.6972045898 184.7312011719
167.0743103027 170.6440734863 203.9223937988
162.5788269043 158.4640197754 222.1600036621
182.8320617676 157.6780395508 185.2520141602
183.0646667480 154.7623443604 177.0299987793
209.9643096924 173.7840728760 155.9423980713
184.3282775879 157.5733795166 182.8159942627
173.9733123779 168.2226867676 202.7879943848
189.2536315918 160.2269744873 174.1895904541
169.2786102295 135.1356201172 224.3475952148
208.5982818604 170.7333831787 156.3959960938
165.0997619629 155.4799957275 227.5900115967
164.3352813721 143.0469207764 232.5839996338
166.7536315918 138.6269836426 225.1095886230
180.2892150879 126.7075958252 215.3981933594
173.4508666992 136.5929718018 220.6599884033
173.0336303711 132.2369842529 220.0495910645
180.2389373779 109.1158370972 220.4720001221
168.9016876221 170.4073638916 206.1999969482
161.7500000000 163.0652313232 217.9073944092
198.9047851562 161.6953277588 156.5509948730
161.1720581055 160.2280426025 218.1820068359
166.1067657471 146.4620056152 226.7746124268
171.4089355469 174.6158294678 200.6119995117
183.3347778320 116.2953186035 222.0310058594
187.6336212158 158.6269836426 174.3995971680
187.7863006592 162.2787017822 182.2649993896
169.0539550781 141.8699951172 225.4038085938
219.6533966064 172.3898620605 167.7126007080
183.0639953613 123.5222091675 219.5800018311
191.6957550049 168.7859039307 155.8829956055
169.0488281250 162.0040283203 222.2200012207
162.4940643311 154.9428558350 232.8699951172
199.7016906738 167.6273651123 155.5399932861
173.7952880859 166.7869262695 201.0540008545
218.5092163086 168.8375854492 166.1481933594
168.2067108154 167.6297302246 211.0200042725
168.7547760010 171.3953247070 195.1909942627
176.8846588135 126.8723526001 221.3699951172
174.9097595215 135.0299987793 218.2100067139
213.6267089844 173.4597320557 165.2599945068
192.7362976074 155.7087097168 181.2550048828
165.3286132812 165.7456207275 213.7776031494
171.3736267090 130.7469787598 220.0795898438
181.4833068848 165.3026885986 195.4880065918
181.4088287354 124.9740295410 218.5399932861
163.1482543945 162.3273010254 228.3710021973
170.1008605957 174.5329742432 200.3699951172
189.9289550781 163.6781768799 183.0769958496
170.2274169922 131.2398529053 221.0000000000
179.9467163086 124.2697296143 219.9799957275
165.4917602539 156.7368011475 228.3710021973
198.9286041260 170.4856109619 158.2976074219
177.2214050293 123.7200012207 214.3988037109
178.4067077637 128.9097290039 221.6499938965
179.4874267578 109.1298675537 206.2599945068
159.3059692383 141.8988037109 234.0968017578
206.8008728027 171.8229675293 164.4299926758
157.4033050537 162.0726928711 230.2380065918
178.1047821045 121.0953216553 214.7310028076
182.2399902344 116.5252380371 222.7873992920
165.5947875977 162.8353271484 202.7409973145
181.7051391602 113.3099975586 228.2929992676
174.3421936035 126.4598693848 218.5399932861
167.5149841309 146.1869201660 230.4153900146
186.2072296143 113.5953521729 228.1100006104
220.4797515869 168.6199951172 159.7400054932
189.1216888428 166.2473754883 181.9100036621
215.6967163086 172.9397277832 163.9199981689
187.1338043213 165.6871948242 183.8511962891
165.7851409912 155.1999969482 227.1529998779
179.9467163086 113.7197265625 210.2700042725
163.1986083984 167.5956115723 206.8975982666
188.8959655762 150.9087982178 169.8368072510
166.9872283936 146.9153594971 229.9300079346
177.2967681885 128.4920196533 215.0146026611
176.3851470947 110.5400009155 216.1930084229
194.3040771484 157.6928558350 182.9899902344
169.7459564209 169.2788085938 199.5368041992
184.4452819824 113.1369171143 227.5440063477
165.9016876221 150.9473724365 229.4600067139
171.9536437988 131.7078247070 219.7939910889
187.1546630859 155.8623504639 171.4499969482
173.4117584229 134.4367980957 218.5709991455
210.9739990234 169.4421997070 160.9600067139
193.3692169189 159.2175903320 178.3181915283
184.4127349854 126.0301055908 229.3789978027
177.6967620850 167.2020111084 183.8646087646
182.2379150391 108.2376251221 211.2669982910
186.4184722900 160.6562805176 178.7397918701
184.0720672607 159.5380401611 181.6720123291
199.0972290039 163.4953613281 159.8800048828
184.5034790039 110.8630447388 224.7960052490
205.5992126465 166.9675903320 159.5182037354
164.0649871826 172.0669250488 205.9053955078
178.0197601318 111.2699966431 214.3600006104
178.3972320557 136.1153564453 219.7100067139
158.4446563721 143.5923461914 233.5200042725
197.2086029053 168.8956146240 160.7776031494
172.8857574463 131.8159027100 219.3829956055
188.1159667969 152.0588073730 169.5968017578
214.9799957275 167.4908599854 160.8200073242
161.7420501709 159.4403991699 218.3569946289
194.7986145020 162.1356201172 169.5975952148
220.4427337646 167.7801055908 166.2889862061
172.2116546631 172.5793609619 199.9904022217
221.3384704590 173.9762878418 164.1297912598
212.6751403809 171.3500061035 158.9329986572
179.2133941650 114.7898712158 218.8426055908
192.2421417236 152.8769378662 169.1431884766
153.4116668701 164.7893524170 231.0104064941
178.0513916016 109.3199996948 208.0487976074
193.0325927734 162.0099945068 165.1479949951
204.7974243164 174.8098602295 161.4300079346
182.6627807617 157.8690032959 198.0762023926
197.4263000488 156.5287017822 161.0050048828
181.3513946533 115.5899963379 227.5388031006
186.4088287354 115.0040283203 225.2899932861
213.3167572021 174.7320098877 159.2646026611
172.2166748047 130.3300018311 218.7019958496
170.4138031006 138.2971954346 229.5511932373
171.2321319580 165.3769378662 204.9331970215
180.6740722656 108.2628402710 219.6699981689
203.4382781982 168.7033843994 157.1360015869
197.8116912842 160.1773681641 164.9300079346
171.5889739990 163.9992675781 199.1389923096
179.3867645264 115.7720184326 216.9246063232
175.5908660889 166.8229675293 198.2500000000
184.4166870117 124.5800018311 218.4219970703
167.0240783691 139.3028564453 230.8099975586
217.6551361084 167.3600006104 162.6529998779
179.1036224365 172.5569763184 197.1095886230
168.6320495605 162.2103881836 208.4270019531
188.8732757568 164.1880950928 182.4140014648
196.5147857666 162.1253204346 155.6809997559
166.8616943359 148.0673675537 231.4700012207
187.0589447021 110.6758346558 225.2720031738
156.5797882080 155.9257049561 227.6717987061
169.2786102295 135.1356201172 224.3475952148
180.3679199219 110.3076248169 219.6869964600
160.8414001465 161.9799957275 210.2088012695
216.5765838623 172.3416900635 166.4157867432
162.5049896240 159.6169281006 234.8353881836
182.2721405029 126.3469314575 217.8931884766
188.7189636230 111.7992630005 219.9689941406
197.2651367188 160.0399932861 158.6730041504
179.6734771729 167.6030578613 187.2660064697
160.2917633057 163.3168029785 224.6210021973
187.1846618652 156.2323455811 178.1100006104
186.9239501953 124.5500030518 216.7638092041
182.5739898682 109.6322021484 214.5100097656
162.5055847168 138.1759033203 229.7389984131
161.6097564697 145.8099975586 228.6699981689
188.9197540283 150.9600067139 167.4900054932
192.8467712402 162.2720184326 161.7646026611
199.5249938965 165.1169281006 158.0853881836
222.0532836914 169.2781066895 160.2440032959
160.6359558105 161.2687988281 211.3268127441
168.9765930176 143.4216918945 227.7757873535
182.2631835938 112.6045761108 211.8779907227
166.8021392822 151.0769348145 230.4231872559
154.8808746338 163.0929718018 227.5399932861
186.9152832031 157.7969207764 184.8939971924
178.8049926758 136.9969177246 223.5553894043
159.7539520264 145.9900054932 230.3338012695
165.9286041260 165.3656158447 222.3576049805
182.6792144775 163.5775909424 189.6781921387
185.9364776611 123.1812362671 220.9700012207
182.1459655762 125.2488021851 219.5568084717
197.2616882324 157.5973663330 164.8999938965
166.1489562988 159.0881805420 224.6170043945
188.9017639160 129.3968048096 218.4810028076
166.9165802002 146.6316986084 229.1657867432
165.4216918945 140.9273681641 224.3999938965
170.1286010742 171.0456237793 200.8975982666
161.8008728027 164.0729675293 219.8199920654
183.1967620850 124.5420150757 231.2046051025
193.1062927246 168.2586975098 156.9049987793
165.3474273682 167.0698547363 209.9000091553
193.3186035156 160.1756134033 169.0876007080
166.5221405029 152.5469360352 230.5331878662
184.5149841309 131.1369171143 220.4353942871
199.6497802734 155.7357025146 161.4318084717
180.9006958008 115.1910247803 225.1502075195
193.2647857666 154.4453277588 183.0310058594
180.6967163086 159.8797302246 198.2400054932
178.5914001465 110.7799987793 213.3587951660
180.0239562988 161.8000030518 182.3137969971
181.1267700195 159.9920043945 185.7846069336
186.0188293457 119.7340240479 228.7200012207
182.5772247314 162.9253540039 192.2700042725
169.4018707275 163.6875305176 219.4419860840
164.9067077637 143.5397338867 234.5699920654
179.5108642578 167.6429748535 187.2399902344
179.8199920654 166.6752319336 183.0973968506
180.7646636963 159.3223571777 188.6100006104
181.7182769775 108.9233703613 214.8359985352
175.9797515869 111.2799987793 216.7700042725
182.4362945557 111.5587005615 229.1049957275
184.7988281250 154.4340209961 177.5899963379
180.5337982178 128.4971923828 221.9611968994
171.1172332764 162.5553588867 197.8600006104
162.8027801514 158.1690063477 235.9861907959
158.9020538330 157.2680511475 222.8820037842
192.2217559814 171.4067993164 155.0709991455
204.8436279297 172.9469757080 160.0395965576
187.0288238525 117.0740280151 226.1199951172
194.0431823730 158.1745910645 170.9679870605
202.0936279297 172.9469757080 153.2195892334
198.5152893066 165.5969238281 160.5140075684
185.5867156982 158.6597290039 178.4400024414
173.0247802734 165.4353179932 202.4709930420
172.0039978027 127.3122100830 219.2900085449
215.1316680908 172.9993591309 164.3704071045
163.7867126465 143.0997314453 235.8999938965
178.5272216797 163.7953491211 190.1800079346
175.9643096924 171.0640716553 197.1723937988
203.8332824707 173.8381042480 153.5139923096
200.2267150879 173.1897277832 156.5299987793
222.4202880859 163.4198303223 165.7149963379
180.7440032959 124.8422088623 217.1399993896
176.7113952637 109.8700027466 208.5288085938
199.2113952637 157.3699951172 159.3388061523
169.6886138916 133.8356170654 225.1175994873
180.8762969971 106.4087066650 206.3650054932
188.2959594727 154.9687957764 175.7968139648
165.5336303711 166.9069824219 211.5095977783
167.6516571045 167.6693572998 211.3904113770
187.7216949463 123.2273712158 225.1499938965
156.6340026855 158.1322021484 225.8300018311
195.9379119873 170.8776092529 158.9769897461
190.3540039062 125.9122085571 217.8099975586
185.9364776611 123.1812362671 220.9700012207
180.2902832031 167.7598419189 197.2949981689
154.0327301025 164.4001007080 232.0389862061
178.0852813721 133.7269287109 223.7940063477
173.2972259521 173.3953552246 197.7500000000
168.7167663574 131.1720123291 223.5346069336
173.2146606445 135.5023498535 219.8199920654
221.0940704346 170.8228454590 165.4700012207
189.2536315918 160.2269744873 174.1895904541
179.3488159180 105.2640228271 218.3499908447
184.2221984863 157.0798645020 184.1600036621
156.6174163818 163.8998565674 225.5400085449
163.0716857910 157.8273773193 220.5299987793
184.6338043213 115.9772033691 231.6212005615
184.2846679688 120.0623474121 228.1600036621
162.3351440430 161.8399963379 208.2129974365
194.0779113770 170.3476104736 159.7469940186
185.2146606445 157.7823486328 184.0399932861
198.6752929688 160.5869293213 162.7740020752
184.9282531738 163.1873016357 185.4810028076
179.9367675781 174.3720092773 196.1746063232
202.3682708740 166.7933807373 152.1259918213
166.9446563721 159.1223449707 200.7299957275
183.4082641602 156.2472991943 177.4910125732
165.6343078613 147.3540649414 228.1723937988
213.6267089844 173.4597320557 165.2599945068
179.9367675781 174.3720092773 196.1746063232
166.1064758301 160.7612457275 219.9900054932
170.1116943359 132.9073638916 228.4700012207
179.4020538330 160.4580383301 189.7720031738
158.1513977051 160.2200012207 219.9687957764
174.1720581055 166.3903961182 195.6970062256
180.9716949463 112.1873703003 209.7100067139
181.3739929199 110.1922073364 210.4700012207
210.0989532471 171.7181854248 158.2669982910
215.9597625732 170.0599975586 161.0500030518
204.2208709717 171.5729675293 161.2599945068
158.4964752197 158.8012390137 223.5299987793
169.6886138916 133.8356170654 225.1175994873
164.5482788086 165.0833740234 204.1759948730
170.7897491455 165.1999969482 198.8500061035
185.8855743408 156.7559051514 181.5290069580
176.7500000000 128.3452301025 216.0673980713
178.0289764404 136.7892608643 219.9089965820
174.1720581055 166.3903961182 195.6970062256
217.3955841064 167.6959075928 167.2989959717
219.6533966064 172.3898620605 167.7126007080
210.4721374512 174.3469390869 158.0631866455
212.2736511230 174.0478210449 162.2639923096
209.7721405029 172.4969329834 159.1931915283
186.8979187012 122.4076232910 232.7669982910
172.0543060303 164.0840759277 200.3623962402
216.8946685791 165.7923431396 166.4299926758
186.0525817871 127.3799972534 218.3780059814
209.8289489746 175.4681854248 157.4969940186
193.6116943359 156.3073730469 170.2799987793
211.6897583008 173.0099945068 159.8300018311
164.4700012207 140.2208557129 235.6100006104
222.8072357178 165.4953613281 162.8300018311
215.1316680908 172.9993591309 164.3704071045
188.5321350098 124.6269302368 220.6131896973
167.0743103027 170.6440734863 203.9223937988
163.8388214111 142.6440277100 232.0699920654
221.9016876221 170.3473663330 164.0700073242
206.4782562256 176.3173065186 159.1210021973
172.7008666992 134.4929656982 226.1799926758
198.5238037109 167.7171936035 161.4212036133
176.7113952637 109.8700027466 208.5288085938
158.6808624268 144.6829681396 234.3600006104
168.6443023682 165.9040679932 219.1824035645
219.4062957764 166.5687103271 161.4550018311
163.6455841064 160.0059051514 221.4389953613
163.1739959717 142.5122070312 230.6699981689
187.6274261475 160.6298675537 178.5299987793
164.8132781982 141.9880981445 223.7740020752
186.0359649658 156.4588012695 180.1768035889
185.7157592773 119.5759048462 229.9830017090
169.4725799561 161.8300018311 197.7680053711
185.4157562256 153.0859069824 173.8730010986
181.8267059326 112.6897277832 211.5899963379
164.0914001465 135.0899963379 226.0388031006
187.2397613525 155.3800048828 167.2100067139
206.2121429443 170.0369262695 152.6731872559
215.7574310303 171.1198577881 161.8899993896
173.7952880859 166.7869262695 201.0540008545
169.2316894531 166.0973663330 210.4600067139
161.5252838135 157.4669342041 224.8639984131
194.7994079590 165.5025329590 168.3440093994
185.9421386719 115.2069320679 229.3531951904
162.8408660889 142.7929687500 229.8899993896
221.1752929688 169.6069335938 164.6139984131
196.1716613770 171.4393615723 155.7404022217
167.7579193115 135.6176147461 231.4869995117
179.4322052002 160.5298767090 190.2299957275
177.1608734131 161.4029693604 197.7200012207
198.1482849121 155.6933746338 161.7559967041
187.1338043213 155.3672027588 176.4011993408
182.0552825928 105.5369186401 209.4540100098
218.8406982422 173.4810333252 167.0502014160
176.8008728027 111.9629745483 212.7599945068
166.4888153076 170.0040283203 207.6499938965
186.9440765381 127.9928436279 222.5000000000
164.1616821289 155.3273773193 230.1900024414
160.9907226562 161.2400054932 217.5225982666
185.0499877930 130.2952270508 218.5173950195
196.8538055420 170.2371978760 158.3412017822
184.8127746582 129.6889953613 221.5861968994
178.2986145020 165.6456146240 186.2476043701
186.9140777588 123.7028427124 226.5499877930
209.6752929688 170.9469299316 158.6640014648
160.8549957275 159.9069213867 227.2153930664
204.4002838135 167.6498413086 153.6150054932
168.2797546387 166.8999938965 199.0800018311
213.6891326904 170.4658660889 166.0140075684
175.3546600342 165.7323455811 197.4100036621
183.9182739258 162.6733856201 180.9160003662
160.4662933350 142.4887084961 232.3549957275
192.5936279297 159.8069763184 165.1895904541
198.4704742432 164.0169372559 159.6373901367
155.5646667480 158.5923461914 226.6699981689
174.9959564209 108.0188064575 218.1368103027
166.8616943359 148.0673675537 231.4700012207
214.9049835205 175.0469207764 160.4153900146
177.6267700195 113.5420150757 217.9146118164
166.9346618652 162.2723541260 201.7100067139
180.2606964111 114.1610260010 219.5602111816
184.9572296143 126.6553573608 217.3800048828
148.6897888184 159.6557006836 229.2817993164
163.1482543945 162.3273010254 228.3710021973
176.9922027588 125.9198684692 218.5500030518
199.6197509766 169.2599945068 154.6100006104
171.0567169189 163.1897277832 204.0599975586
207.2927246094 176.6600952148 161.0389862061
179.8517608643 109.6968078613 206.7710113525
165.0674285889 168.6498565674 219.5200042725
188.0399932861 125.5508422852 221.7100067139
203.4382781982 168.7033843994 157.1360015869
184.1472320557 115.4353561401 218.9400024414
183.0639953613 123.5222091675 219.5800018311
186.0527343750 159.5200958252 177.7089996338
180.0039978027 106.8222045898 217.7100067139
189.2997589111 154.1900024414 181.8700103760
168.9192047119 144.0875854492 229.6481933594
191.2446594238 168.9323425293 155.6999969482
181.5643005371 164.9440765381 191.5424041748
169.7567138672 175.3497314453 199.1799926758
181.6921386719 111.1269302368 210.2131958008
186.5937957764 163.9772033691 185.2711944580
166.9165802002 146.6316986084 229.1657867432
204.3391265869 168.8458557129 162.1139984131
190.0337982178 159.9571990967 182.9011993408
162.7988281250 151.9240264893 233.6499938965
200.3932800293 161.3780975342 157.8939971924
163.1336212158 171.1469726562 204.5495910645
177.1782531738 160.1172943115 196.7610015869
155.4766845703 161.3899993896 223.3419952393
165.7907104492 147.6266479492 229.2160034180
172.2072296143 137.3153533936 221.7700042725
162.3336181641 163.9069824219 216.8695983887
157.4682617188 155.7073059082 236.9910125732
179.0155792236 121.2759170532 216.6490020752
163.0320587158 139.6680450439 230.2420043945
184.8437957764 113.8372039795 232.1611938477
201.4627838135 166.7290039062 161.4962005615
164.0374298096 154.4798583984 229.5299987793
173.7388153076 131.3740234375 224.1399993896
185.8382720947 157.5833740234 182.6259918213
198.4089508057 162.5081787109 168.2369995117
161.5651397705 164.7599945068 210.1630096436
180.0567169189 173.5697326660 199.5800018311
165.8521423340 160.3269348145 224.8531951904
199.7697906494 165.4757080078 157.4217987061
202.3817596436 174.1068115234 153.7110137939
190.7098083496 152.4267425537 182.3000030518
167.6133880615 173.5198669434 197.4925994873
175.4146575928 110.5323486328 218.1699981689
202.0255737305 155.2859039307 162.1990051270
179.6839599609 114.0699996948 228.4138031006
176.8352813721 133.6169281006 224.5240020752
160.5266876221 159.7400054932 217.9120025635
192.1264648438 156.1612396240 177.9800109863
168.7547760010 171.3953247070 195.1909942627
168.2843017578 166.6740722656 209.1224060059
191.9052886963 155.2669219971 169.1940002441
180.8516540527 131.0893554688 219.5304107666
167.7916870117 171.3973693848 205.1900024414
165.6197509766 161.2599945068 214.7500000000
167.8767089844 171.9397277832 206.7599945068
200.7616577148 159.4593505859 162.0604095459
199.8640747070 168.7228546143 161.3699951172
184.3282775879 157.5733795166 182.8159942627
177.9240722656 109.6528396606 212.7599945068
165.8846588135 153.7523498535 228.5000000000
222.5716857910 164.0073699951 165.1199951172
194.0547790527 153.2053222656 167.0410003662
191.8332824707 157.3581085205 180.1340026855
178.2374267578 164.4398651123 183.3800048828
209.7721405029 172.4969329834 159.1931915283
165.6197509766 161.2599945068 214.7500000000
161.0933074951 153.6226959229 233.9580078125
168.3888244629 163.0840301514 223.4499969482
184.4163055420 110.8187026978 228.3950042725
167.1802825928 151.2298278809 234.4850006104
185.1679229736 164.1176147461 184.8369903564
168.3232879639 165.2481079102 218.0139923096
213.4136199951 171.8269805908 158.0195922852
196.1389770508 162.0792694092 166.1490020752
192.1488189697 152.5640258789 184.1299896240
178.4636230469 107.2769775391 208.6595916748
156.3346557617 155.0523529053 233.5500030518
164.9067077637 143.5397338867 234.5699920654
163.0662994385 160.0886993408 209.0249938965
184.0399932861 114.9852371216 216.3973999023
163.2582702637 142.8333740234 230.3159942627
166.3967590332 143.3020172119 225.4846038818
182.7997589111 161.3800048828 183.2500000000
166.4497528076 154.5000000000 227.1000061035
181.8789367676 160.2858276367 194.9819946289
158.7927856445 162.7290039062 225.4962005615
163.1797790527 165.3657073975 218.4217987061
180.4367065430 129.6697387695 221.2899932861
178.0267028809 171.4197387695 197.3399963379
187.0288238525 117.0740280151 226.1199951172
161.6436462402 162.5778198242 217.4539947510
215.0197906494 168.1457061768 166.5317993164
203.1372222900 174.2553558350 154.7799987793
217.8433074951 171.3926849365 166.3880004883
159.1632995605 159.7926940918 229.3379974365
185.7336425781 161.3278198242 179.1039886475
166.9237976074 139.9971923828 230.7611999512
156.1322021484 159.8198699951 224.0699920654
188.4889678955 121.6392669678 228.3589935303
181.2042999268 171.0940704346 193.5823974609
186.2997589111 108.4499969482 220.7400054932
183.6097564697 161.4100036621 181.7500000000
192.3497924805 159.7957153320 162.5317993164
185.9638061523 123.3772048950 232.8511962891
181.2208709717 111.3029708862 220.9899902344
184.1139984131 124.7722091675 217.6600036621
183.6239929199 112.6522064209 225.3800048828
185.2136230469 161.7869873047 181.7695922852
172.1443023682 137.0540771484 221.8224029541
178.3947753906 131.9653167725 218.7109985352
199.0797882080 165.3857116699 159.9618072510
195.0443115234 171.5040740967 155.2523956299
173.3508605957 131.9929656982 218.5399932861
191.5282592773 157.9573059082 183.6910095215
160.7739562988 149.2100067139 230.8538055420
179.2949981689 164.4169158936 189.4153900146
221.4367065430 169.9097290039 161.4199981689
186.9472351074 159.0853576660 176.0299987793
157.9086151123 158.2917785645 231.8659973145
168.2422027588 162.0098724365 207.0699920654
189.8557586670 150.8459014893 170.8829956055
179.0213928223 170.0000000000 193.1287994385
150.1547851562 159.0253143311 228.1309967041
180.7521362305 123.3769302368 217.6431884766
183.8782806396 124.5033721924 218.1959991455
161.9234771729 142.6330566406 236.0859985352
215.0197906494 168.1457061768 166.5317993164
176.2059631348 126.9387969971 220.5068054199
182.5636444092 121.5578231812 223.5839996338
160.7536315918 164.6169738770 224.8195953369
170.3034667969 172.9130554199 199.6360015869
159.8097839355 159.8257141113 212.6918029785
192.1333007812 157.8626861572 178.7080078125
172.1127777100 168.9689941406 204.3262023926
168.0800018311 167.7852325439 220.6373901367
180.8857574463 112.2258987427 230.3229980469
187.2616882324 124.4773712158 222.7299957275
191.8972320557 158.4253540039 166.2900085449
169.9740753174 174.2928466797 200.0199890137
192.2837982178 159.4971923828 175.8112030029
172.5889587402 161.4881744385 202.4369964600
207.7852935791 168.1269226074 163.4940032959
216.6636199951 172.0569763184 163.2595977783
158.0374298096 157.3498535156 231.1999969482
168.0736236572 167.6569824219 199.8295898438
217.8636474609 171.8278198242 161.1640014648
167.3540039062 161.9022064209 218.8000030518
180.9152832031 168.2569274902 196.3040008545
162.3713989258 150.9799957275 229.3587951660
219.6355743408 171.9159088135 166.8789978027
175.2027282715 138.2901000977 222.1589965820
158.0447845459 155.2953186035 226.5209960938
168.4240722656 166.5728454590 211.8600006104
161.2727813721 142.4589996338 235.8461914062
162.7988281250 151.9240264893 233.6499938965
157.9086151123 158.2917785645 231.8659973145
152.5413970947 162.0000000000 226.2987976074
177.5897521973 164.2599945068 191.8300018311
200.5440673828 156.7628479004 164.5000000000
187.4121398926 121.0069351196 226.9131927490
202.1733093262 172.1226959229 159.1679992676
156.4819183350 154.9589843750 233.8580017090
180.2606964111 114.1610260010 219.5602111816
188.5366821289 157.5399932861 168.0919952393
182.5334777832 124.3130493164 229.2160034180
205.8451385498 172.5500030518 158.6430053711
174.4533996582 109.4198684692 219.0026092529
220.7947845459 170.2653198242 165.4109954834
160.3547821045 140.4853210449 233.1609954834
173.0739898682 166.6322021484 198.4300079346
184.9036254883 156.7069854736 173.6795959473
165.0674285889 168.6498565674 219.5200042725
162.2214050293 145.3600006104 227.9987945557
194.7916564941 171.5393524170 155.3404083252
184.3047790527 152.0153198242 174.3910064697
164.0814056396 161.6499938965 215.7687988281
164.5366821289 143.5800018311 226.5720062256
216.2455749512 169.9659118652 167.6389923096
162.7333984375 166.5198669434 206.7826080322
185.8365936279 161.5716857910 180.8257904053
167.7837982178 153.9871978760 234.5012054443
183.1882629395 115.1073074341 231.4609985352
167.8892059326 164.9975891113 215.1582031250
182.5546569824 113.1123504639 226.2200012207
182.8516845703 111.1573715210 211.0299987793
206.7238159180 167.9984741211 159.2313995361
168.5416870117 161.2673645020 217.3200073242
166.4640045166 131.0522003174 227.8399963379
170.1116943359 132.9073638916 228.4700012207
183.4233093262 163.4526824951 189.3480072021
181.5727844238 164.2290039062 191.5961914062
178.1767120361 130.4697265625 220.8899993896
155.8640747070 161.1728515625 231.1399993896
198.9679107666 160.3776092529 162.3269958496
201.4718627930 159.8175201416 159.3219909668
163.7140045166 166.8522033691 203.1399993896
183.5134735107 111.5030441284 224.1260070801
159.3059692383 141.8988037109 234.0968017578
164.7592163086 161.1475830078 220.2881927490
198.9047851562 161.6953277588 156.5509948730
189.4597625732 156.5200042725 166.5200042725
183.2591247559 124.1858596802 225.7140045166
169.2291259766 132.5158691406 224.6940002441
151.7040710449 162.0128479004 232.2599945068
190.0113983154 157.0099945068 166.0187988281
159.5959625244 151.2288055420 232.6068115234
191.9746551514 160.9723510742 166.9499969482
171.2974243164 129.5798645020 219.5700073242
215.8018646240 169.5675201416 160.4419860840
163.9092102051 157.5175933838 234.0681915283
167.6516571045 167.6693572998 211.3904113770
156.8834686279 156.8130493164 235.2859954834
165.3279113770 162.1676177979 228.7769927979
188.2959594727 154.9687957764 175.7968139648
161.9052886963 155.4569244385 235.1840057373
198.4704742432 164.0169372559 159.6373901367
201.1138000488 157.7471923828 163.4212036133
170.0607299805 130.6600036621 222.2226104736
186.4088287354 115.0040283203 225.2899932861
174.1297912598 126.3957138062 217.6018066406
180.7967071533 168.5897369385 186.6799926758
184.5888214111 110.9340286255 229.4599914551
178.3862915039 157.8686981201 194.3249969482
160.3013916016 145.2100067139 230.6287994385
161.0439910889 155.9721984863 228.0100097656
184.0833129883 125.4026947021 224.3580017090
188.1940002441 107.9722061157 220.6399993896
188.9221343994 163.9269409180 182.4631958008
186.0234680176 163.6230468750 185.7460021973
180.7967071533 168.5897369385 186.6799926758
185.4052886963 157.7869262695 185.0839996338
205.4282531738 175.2872924805 161.8509979248
177.5117645264 161.9667968750 196.6510009766
181.3262939453 157.1087036133 192.4149932861
198.9598083496 158.1767425537 158.3699951172
156.2016601562 162.9493560791 229.5304107666
163.2159576416 132.4488067627 228.4067993164
167.0902862549 131.6398315430 229.8049926758
181.6255798340 160.3259124756 184.9989929199
188.3140716553 166.7228546143 183.3099975586
183.3432769775 165.8480987549 183.8339996338
181.2927856445 114.3889923096 231.8661956787
190.0536193848 160.8369750977 173.0895996094
184.4927368164 118.0901031494 228.9889984131
166.5339965820 161.2922058105 210.3600006104
157.0746612549 153.8423461914 235.1600036621
169.1289672852 155.4092559814 229.1790008545
186.9239501953 124.5500030518 216.7638092041
183.9182739258 162.6733856201 180.9160003662
151.7040710449 162.0128479004 232.2599945068
164.3632812500 159.9380950928 222.7039947510
189.8874206543 160.4498596191 172.5400085449
161.8516540527 147.2993621826 233.3504028320
179.5686035156 166.1256256104 186.7976074219
167.9836273193 139.5069732666 225.3295898438
169.9874267578 172.0598602295 199.3399963379
185.0708618164 121.7929687500 232.7099914551
162.5008697510 142.1529693604 236.4599914551
162.5788269043 158.4640197754 222.1600036621
171.3867034912 175.4797363281 199.8099975586
166.2382812500 163.0733795166 206.0059967041
173.6308746338 129.7629699707 223.5699920654
180.3836212158 116.0869827271 229.3295898438
189.4239959717 149.7522125244 168.0500030518
178.1172332764 134.0153503418 216.6300048828
208.6579132080 176.1576232910 159.5269927979
206.8659667969 171.4788055420 157.7568054199
221.0939941406 163.0422058105 164.5599975586
168.1843109131 156.2740631104 228.6524047852
177.7507171631 113.9866409302 210.4660034180
172.4167633057 170.7720184326 195.6546020508
184.8527374268 165.6501007080 183.6189880371
186.8347778320 110.1153182983 218.6009979248
151.1036224365 162.9669799805 227.3795928955
183.3639526367 122.8199996948 220.3838043213
191.3926391602 156.9768066406 178.9530029297
174.3308715820 131.9529724121 224.3600006104
161.4202880859 155.2998352051 233.7749938965
165.2543029785 163.0040740967 224.1524047852
189.0889587402 122.1781845093 228.6669921875
181.5116577148 160.2993621826 196.5904083252
202.4214019775 171.2299957275 151.8587951660
169.0916900635 168.2773742676 205.5299987793
167.0420532227 162.8203887939 202.5870056152
178.7321319580 132.3969268799 220.4731903076
170.0533905029 169.1198577881 203.9426116943
204.6386108398 171.7856140137 162.3076019287
165.9016876221 150.9473724365 229.4600067139
160.7433929443 158.3198699951 235.6026000977
184.3547821045 156.7553253174 186.5809936523
168.1297607422 133.1499938965 227.3500061035
169.8988189697 157.9340209961 200.3099975586
222.3879241943 167.6376190186 164.3869934082
199.4033966064 166.8798675537 161.1126098633
206.1688232422 172.6740264893 162.5500030518
181.2386016846 112.1456069946 222.2476043701
182.5952911377 159.3869323730 189.5740051270
181.0967102051 164.8997344971 187.7400054932
164.8914031982 169.5500030518 203.4687957764
178.2852935791 131.4869232178 220.7839965820
178.3947753906 110.9653244019 212.6309967041
161.8516540527 147.2993621826 233.3504028320
161.2236175537 164.1969757080 210.4196014404
217.6559600830 166.3488006592 163.8468017578
169.2988281250 132.0740203857 229.3099975586
188.6240692139 129.4728546143 221.6399993896
167.7638092041 165.5671997070 214.2312011719
175.6508636475 111.6229705811 219.0099945068
171.4982757568 127.4533767700 220.7359924316
209.2821350098 169.7469329834 159.9031982422
162.8057556152 160.7459106445 227.1529998779
188.2093963623 165.2325286865 184.7940063477
182.8208618164 120.1429748535 227.8999938965
163.0867156982 165.0197296143 219.2599945068
183.8467102051 125.1997299194 227.1199951172
191.7508697510 169.5229644775 158.8499908447
178.8314056396 165.0899963379 182.6188049316
162.4474182129 166.6298675537 213.4199981689
170.0607299805 130.6600036621 222.2226104736
207.6667633057 172.7920074463 164.8746032715
195.7839965820 156.6322021484 164.3399963379
164.1297912598 163.4657135010 203.8917999268
187.5857543945 154.1159057617 170.2630004883
180.1588287354 121.9040298462 220.2599945068
211.6813964844 172.1600036621 159.6287994385
178.9097900391 113.0457153320 230.3318023682
207.1074218750 176.7298583984 156.2900085449
202.9938049316 171.0872039795 160.2211914062
160.2921905518 156.6698760986 221.7899932861
168.1297607422 133.1499938965 227.3500061035
174.4455718994 165.4759063721 198.1490020752
165.1655731201 131.3359069824 228.6289978027
190.3540039062 125.9122085571 217.8099975586
185.8667602539 113.2220153809 218.9846038818
198.1025848389 160.2299957275 157.4179992676
195.4288177490 158.1440277100 169.2099914551
163.9286193848 138.7017669678 226.3560028076
168.0039978027 161.8122100830 200.8700103760
169.0721435547 164.7969360352 211.9631958008
216.2527770996 171.7590026855 168.4061889648
164.3352813721 143.0469207764 232.5839996338
185.3592071533 117.6175918579 222.7982025146
186.5282745361 162.3633880615 181.5559997559
204.9236450195 172.2978210449 161.5439910889
192.4537963867 153.2671966553 173.6212005615
189.0889587402 122.1781845093 228.6669921875
179.4638061523 166.4772033691 198.7312011719
188.5321350098 124.6269302368 220.6131896973
190.8764648438 156.0312347412 179.8200073242
168.9192047119 144.0875854492 229.6481933594
199.8155822754 161.8759155273 158.4689941406
200.3379211426 157.4476165771 164.3869934082
185.2640686035 162.4228515625 188.6100006104
166.9036254883 165.6469726562 200.2995910645
155.0488281250 161.7140197754 231.9499969482
159.6886138916 143.6656188965 235.4575958252
164.5059661865 163.8188018799 207.3668060303
166.5967102051 147.5297393799 231.3300018311
166.3916625977 156.4693603516 232.6404113770
174.1720581055 166.3903961182 195.6970062256
168.9497528076 166.6900024414 203.7100067139
180.8208618164 113.5529708862 222.5399932861
157.6322021484 158.6298675537 221.7099914551
185.6116638184 125.0893554688 231.4904022217
175.9674224854 126.0798645020 215.5000000000
218.1266784668 170.4499969482 160.0720062256
190.5497589111 157.7500000000 166.0100097656
182.0599975586 173.8452301025 195.4073944092
207.1340789795 169.5028533936 164.4799957275
186.1439514160 111.7699966431 217.8338012695
172.4167633057 170.7720184326 195.6546020508
207.1697845459 170.3157043457 165.6417999268
200.5388183594 155.4540252686 163.9400024414
181.8697814941 116.9257125854 223.1818084717
168.1972351074 163.7853546143 218.5200042725
161.9274291992 164.7898559570 218.4199981689
192.7007293701 156.2100067139 166.0126037598
171.4813995361 132.9499969482 220.7388000488
180.6597595215 160.3399963379 190.6600036621
158.8621368408 161.7269287109 225.9731903076
193.3408660889 164.2329711914 170.7500000000
182.0639953613 111.1822052002 229.4000091553
165.2649841309 168.1569213867 218.8053894043
167.6446685791 162.3723449707 199.3800048828
160.5417633057 141.4568023682 223.9110107422
164.7872314453 141.8453521729 223.5599975586
204.4520568848 169.9480438232 162.2720031738
202.5692138672 166.0775909424 159.5782012939
187.5762939453 107.2787017822 221.1450042725
162.3336181641 163.9069824219 216.8695983887
169.6721343994 164.4169311523 220.5431976318
162.1238098145 143.4871978760 235.9111938477
167.7638092041 165.5671997070 214.2312011719
178.4085998535 162.3656158447 195.8576049805
180.5436553955 130.8778228760 218.6739959717
160.5486145020 163.4556121826 227.0876007080
179.3388214111 123.9340286255 220.2399902344
187.4352874756 158.3269348145 183.5839996338
215.8018646240 169.5675201416 160.4419860840
208.2597808838 168.0057067871 165.6918029785
205.4216918945 170.0273742676 157.2100067139
212.6486206055 171.1217803955 158.9160003662
182.5846557617 119.0523529053 227.0599975586
204.0320587158 167.4280395508 161.0220031738
204.2208709717 171.5729675293 161.2599945068
219.4016571045 168.7193603516 166.2203979492
214.2037963867 172.0771942139 165.8912048340
164.4074249268 138.8098602295 225.9799957275
162.6446685791 167.3123474121 203.9799957275
188.3546600342 150.2123565674 168.8899993896
178.0267028809 171.4197387695 197.3399963379
183.0233917236 123.5598678589 233.1226043701
156.0282745361 157.5133819580 227.4960021973
164.0689392090 159.1858215332 226.5119934082
175.1121368408 168.1369323730 199.6931915283
182.5139923096 110.0022048950 220.9700012207
198.1638031006 161.3372039795 163.2611999512
217.2374267578 169.7598571777 160.5899963379
156.6539916992 157.9322052002 228.8000030518
176.6459655762 164.8888092041 196.9168090820
166.7667083740 172.9297332764 205.7500000000
158.0159606934 157.7187957764 221.7667999268
164.8116912842 141.5673675537 235.3399963379
180.5897827148 112.1857147217 224.1118011475
183.3367614746 155.1220092773 174.7746124268
178.2287445068 161.5859985352 189.9586029053
162.3827819824 149.5290069580 234.3061981201
201.4608612061 173.9229736328 156.7399902344
192.0852813721 155.5869293213 176.8440093994
181.7049865723 117.3669204712 224.7053985596
164.8797607422 148.3099975586 230.3500061035
184.7446594238 109.1223526001 224.2500000000
175.1121368408 168.1369323730 199.6931915283
206.4307098389 172.5966491699 162.6360015869
159.8793945312 158.6825408936 233.2940063477
189.8886108398 156.2356109619 184.3076019287
204.7767028809 173.2397308350 152.2299957275
165.2289733887 160.4192657471 223.3990020752
163.4834747314 153.4130554199 234.8959960938
195.1100006104 157.9952392578 170.9673919678
196.7257537842 157.4159088135 164.0729980469
182.6487426758 117.7359924316 223.8986053467
204.1716613770 172.7493591309 158.9504089355
185.3108673096 167.4929656982 182.2899932861
193.1640014648 156.8822021484 164.2900085449
187.6846618652 155.1223449707 179.3699951172
174.4851379395 136.0000000000 217.8630065918
196.5388183594 162.7640228271 170.7099914551
166.2472229004 151.8153533936 230.1300048828
149.8486022949 161.8256225586 230.6275939941
204.3152923584 169.4869232178 155.0339965820
182.2399902344 116.5252380371 222.7873992920
180.7864685059 125.4412307739 220.4499969482
182.0474243164 118.8598709106 226.9900054932
162.6874237061 163.4098663330 216.0599975586
166.1072235107 141.4053497314 225.4100036621
186.1716918945 160.4973754883 188.2200012207
213.0997619629 169.3699951172 156.0100097656
186.8140716553 167.3828430176 182.5699920654
177.6159667969 158.2187957764 194.6468048096
152.5413970947 162.0000000000 226.2987976074
165.2589721680 164.6692657471 209.3389892578
202.0936279297 172.9469757080 153.2195892334
164.6588287354 137.7140197754 229.9899902344
216.5359649658 167.9288024902 162.1567993164
186.3792114258 158.0775909424 187.3481903076
183.1759643555 153.4988098145 175.4268035889
193.5047760010 167.4353179932 152.6710052490
186.4842987061 117.4340744019 223.9024047852
173.7440643311 132.6828460693 224.6999969482
221.4597625732 164.8200073242 162.5500030518
168.7033081055 167.0726928711 208.7879943848
164.7647857666 161.4453277588 213.8410034180
186.4864654541 114.3012313843 227.5599975586
175.6414031982 167.5800018311 193.3887939453
209.2916870117 175.4273681641 156.5700073242
209.8289489746 175.4681854248 157.4969940186
169.4186096191 170.9756164551 198.4476013184
206.1774291992 177.2198638916 157.7100067139
163.4782714844 160.2333831787 216.4160003662
162.4516906738 160.7473754883 222.3699951172
192.5000000000 160.4752349854 177.1673889160
183.3682708740 112.9233703613 225.2760009766
186.0288238525 111.8440246582 229.7899932861
161.5513916016 162.4799957275 209.0588073730
163.0289764404 160.5092620850 222.8889923096
189.8114013672 152.1199951172 167.5688018799
180.2888183594 167.8340301514 199.0299987793
181.7988281250 170.4340209961 200.3499908447
163.3531951904 157.3345794678 230.4579925537
149.4639587402 160.6799926758 227.3638000488
185.2727813721 158.7290039062 189.2661895752
191.2740783691 150.5128479004 171.1599884033
163.4834747314 153.4130554199 234.8959960938
174.3421936035 126.4598693848 218.5399932861
178.9440765381 122.0928421021 220.1499938965
174.1436309814 134.7069854736 217.5195922852
195.1100006104 157.9952392578 170.9673919678
173.4207305908 168.1900024414 194.8626098633
178.2740020752 120.6522064209 218.1900024414
176.9759674072 162.1887969971 193.2667999268
169.9613952637 135.9600067139 221.3688049316
177.6908721924 111.6129684448 216.5999908447
176.4239959717 165.2722015381 196.5700073242
206.7339935303 168.7322082520 158.3800048828
165.0634765625 169.0330505371 207.1860046387
178.1047821045 121.0953216553 214.7310028076
191.2688293457 149.2040252686 170.5999908447
188.6767120361 157.8997344971 171.7299957275
158.4574279785 159.3598632812 220.5200042725
199.0674285889 172.9598541260 155.6900024414
182.5916900635 108.8373718262 207.6000061035
189.9774169922 155.8498535156 184.1100006104
165.1397552490 164.6199951172 205.1100006104
172.9327850342 136.4089965820 228.7861938477
167.7867584229 174.5020141602 195.5746002197
201.5513916016 168.7500000000 151.2187957764
193.1239624023 160.8200073242 160.6138000488
189.8508605957 155.1329650879 185.5099945068
202.3817596436 174.1068115234 153.7110137939
180.3967132568 162.9297332764 195.7599945068
158.0138092041 160.1772003174 229.4911956787
165.6736297607 156.8969726562 229.5596008301
179.9433898926 116.0698699951 225.4726104736
167.1802825928 151.2298278809 234.4850006104
199.2916564941 170.4293518066 159.8704071045
176.5055847168 125.9459152222 218.3690032959
173.6449890137 168.8569183350 204.0053863525
218.4887542725 171.8560028076 165.7985992432
152.2046661377 160.9223480225 232.0800018311
180.8183898926 111.2779617310 208.4160003662
203.1392059326 156.4275817871 161.0482025146
167.7674255371 161.5998535156 198.6199951172
168.9016876221 170.4073638916 206.1999969482
167.1802825928 151.2298278809 234.4850006104
199.0797882080 165.3857116699 159.9618072510
204.4520568848 169.9480438232 162.2720031738
165.0288238525 162.4940338135 220.9199981689
186.0525817871 127.3799972534 218.3780059814
167.9697570801 160.5399932861 197.7799987793
165.0674285889 168.6498565674 219.5200042725
186.9872283936 167.8253479004 180.3300018311
186.0527343750 159.5200958252 177.7089996338
200.0599975586 164.2752380371 156.1673889160
167.7916870117 171.3973693848 205.1900024414
162.6316680908 164.9893493652 226.1804046631
152.2046661377 160.9223480225 232.0800018311
191.9649963379 161.3169250488 179.0853881836
185.2708740234 158.7529754639 177.9899902344
184.8527374268 165.6501007080 183.6189880371
180.8752899170 108.0169219971 217.5639953613
209.6679229736 174.3276214600 159.1969909668
167.1879119873 153.1276092529 235.2969970703
194.4772338867 158.1353607178 180.7500000000
178.6634674072 171.9230499268 200.8659973145
156.6539916992 157.9322052002 228.8000030518
185.1538085938 126.1472015381 223.8912048340
186.9239501953 124.5500030518 216.7638092041
168.6916656494 155.7893524170 232.4504089355
199.2697601318 171.8999938965 154.8500061035
193.2413940430 169.4499969482 152.6188049316
165.5116577148 149.5393524170 232.6903991699
173.1421356201 165.6969299316 200.2831878662
197.4889678955 163.8392639160 167.0189971924
192.8467712402 162.2720184326 161.7646026611
180.7721405029 165.7069396973 196.4631958008
162.7382659912 168.6573028564 206.2310028076
213.8040008545 167.0422058105 158.8300018311
162.4767608643 171.7520141602 204.7546081543
