171.3327789307 196.9589996338 53.6861991882
172.3059692383 151.7788085938 29.5068016052
173.5716857910 163.3273773193 29.3100013733
201.7686004639 155.7456207275 30.3276004791
203.9825897217 166.5299987793 30.7580013275
154.9552917480 182.7369232178 72.7239990234
167.5488281250 188.3940277100 63.5499992371
128.8488159180 171.0540313721 82.5099945068
166.1746673584 160.2923431396 31.7600002289
166.1288299561 188.2840270996 64.6500015259
190.6536254883 166.6569824219 39.0495986938
128.8213958740 185.1799926758 83.6088027954
187.2416534424 164.6893615723 42.3903999329
197.9340667725 159.7428436279 39.6899986267
171.6727752686 154.1589965820 39.0461997986
172.7340698242 154.4228515625 25.6200008392
205.3283843994 162.5879669189 29.8260002136
165.7397613525 189.6000061035 59.2300033569
170.2033081055 191.1726837158 64.8180007935
167.4282531738 167.8572998047 48.1610031128
173.8316955566 192.3073730469 51.4599990845
169.2289581299 188.1481781006 70.9469985962
172.7686157227 155.3117675781 27.1459999084
129.1114044189 176.9199981689 79.1888046265
140.0167083740 184.7897338867 77.6899948120
171.9436187744 158.8969726562 36.7495994568
114.1063079834 178.8686981201 86.6650009155
162.9298095703 161.6767425537 25.8199996948
173.9427795410 186.6690063477 47.8961982727
181.1992187500 154.0675811768 40.3482017517
213.1216888428 153.6273651123 30.2600002289
148.3836517334 185.7378234863 68.6340026855
178.1492156982 156.4375915527 35.2582015991
167.5874176025 181.0098571777 48.0300025940
194.5716857910 161.9173736572 40.7000007629
166.1507263184 156.8999938965 26.2525997162
174.5918579102 188.0775299072 40.5520019531
154.8992614746 188.5191955566 69.4242019653
186.6936187744 162.7769775391 47.6695976257
150.0500030518 182.8008575439 77.2200012207
167.8946685791 153.4223480225 32.5900001526
174.8667602539 171.6820068359 36.6945991516
174.2657623291 162.1159057617 40.0830001831
148.4782714844 178.4833831787 70.0260009766
166.4486083984 194.5456237793 45.5275993347
141.8247833252 177.9453277588 76.1610031128
165.0034790039 189.6830596924 71.8460006714
132.5540008545 177.7422027588 76.2100067139
203.6216583252 168.4593505859 35.6804008484
198.8316955566 163.5573730469 37.4599990845
171.0531921387 152.0445861816 29.0380001068
179.3989410400 164.5158233643 44.4119987488
127.0819320679 181.7989959717 86.7679977417
131.4542999268 183.4440765381 71.5223999023
114.7136459351 186.1178283691 87.9340057373
168.9199981689 158.1152343750 27.9474010468
165.4627380371 167.0601043701 34.8590011597
128.4597625732 176.8000030518 80.2900009155
169.9367065430 193.9797363281 64.5899963379
138.4946594238 182.7523498535 77.4099960327
200.0182647705 157.5572967529 38.2709999084
165.7097930908 191.6257019043 56.2318000793
171.1972351074 185.8053588867 40.0000000000
201.7686004639 155.7456207275 30.3276004791
163.2852935791 189.9969329834 62.1839981079
173.3388214111 192.0140228271 62.7200012207
169.4297485352 161.3200073242 34.0600013733
167.0897827148 150.8057098389 22.8417987823
167.9299926758 168.7352294922 37.2873992920
165.5974273682 196.0898590088 42.8600006104
157.6739959717 190.4322052002 76.8100051880
186.7336273193 163.3869781494 46.3996009827
167.1149902344 191.2269287109 49.6054000854
127.3540039062 172.5122070312 81.0200042725
129.3586120605 177.6256256104 84.0876007080
197.3862915039 157.6687011719 36.4249992371
205.3140716553 158.5628509521 31.2700004578
112.7708663940 185.4729766846 96.2000045776
209.3316955566 168.2273712158 36.7900009155
181.7740020752 160.1921997070 39.3800010681
201.7482757568 157.4733734131 31.2260017395
167.5997619629 193.6100006104 57.5900001526
165.8191223145 155.7658691406 29.0440006256
142.7355804443 178.1259155273 78.0790023804
109.8959579468 181.8488006592 96.1767959595
127.2446594238 172.5523529053 83.2799987793
145.4943084717 182.1840667725 70.9023971558
176.4051361084 153.8000030518 39.4329986572
145.4988250732 179.4040222168 73.8199996948
167.7146606445 195.2123565674 58.3800010681
134.2888183594 177.2140197754 73.8600006104
168.2808685303 151.9929656982 34.5499992371
133.0867614746 183.3620147705 78.4845962524
169.5116882324 189.6173706055 64.6399993896
203.9738006592 166.7471923828 37.0411987305
150.3986053467 178.1756134033 73.6775970459
174.2472229004 155.0553588867 26.8100013733
174.9352874756 150.1269226074 32.9739990234
201.3846588135 162.4623565674 35.1399993896
130.4927368164 185.3701019287 98.7089996338
134.3455810547 177.2059020996 86.5889968872
124.7840805054 185.9728546143 92.4599990845
137.8225860596 186.6799926758 71.9280014038
184.5936431885 163.9378204346 40.1839981079
169.3025817871 176.4600067139 42.1880035400
171.4620513916 151.2704010010 35.2470016479
165.3867034912 177.7597351074 43.0599975586
165.0567626953 193.7720184326 66.9645996094
173.5416870117 153.9473724365 24.2200012207
128.1857604980 182.2559051514 74.0630035400
172.0425872803 190.8200073242 38.8280029297
201.6886138916 164.5556182861 36.2075996399
168.7467041016 181.2397308350 48.8699989319
170.8882751465 149.5333862305 31.3260002136
173.5088195801 194.4640197754 53.8699989319
164.5708618164 167.2629699707 34.2799987793
174.7946624756 162.5323486328 39.0099983215
155.4674224854 193.5298614502 76.6399993896
132.6602935791 177.1298370361 73.2649993896
152.6388244629 176.2540283203 74.7500000000
204.8742980957 159.4840698242 28.2223987579
112.7967681885 184.1520080566 86.4046020508
133.2526397705 176.7468109131 85.8330001831
137.7074279785 190.6198577881 72.4199981689
191.4167175293 166.7997283936 40.3799972534
174.5974273682 158.3398590088 39.2300033569
117.5116577148 187.5293579102 89.5003967285
139.1239929199 177.3922119141 68.8500061035
166.1288299561 188.2840270996 64.6500015259
119.3421401978 183.0569305420 89.7132034302
168.8498077393 188.7567443848 43.7800025940
172.0702819824 174.7098388672 46.2550010681
197.6040039062 163.4721984863 33.3299980164
169.0252838135 189.2469329834 54.7039985657
126.3391265869 182.1458587646 93.4739990234
116.0438003540 180.1371917725 90.1912002563
162.1374206543 194.9798583984 63.5900039673
209.6643066406 154.8940734863 28.8624000549
144.7492065430 181.5475921631 77.6681976318
170.4382629395 162.6072998047 36.0810012817
174.2567138672 188.1497344971 41.6599998474
168.8667144775 165.9297332764 32.7099990845
138.3174285889 177.6498565674 70.3199996948
201.5386047363 166.9256134033 36.5876007080
167.9925842285 190.8099975586 42.8280029297
203.4040679932 161.3728485107 34.3999977112
152.3139953613 181.8522033691 73.1800003052
169.4784698486 168.7962799072 37.3897972107
171.6446685791 194.6523437500 62.9899978638
177.3816680908 160.7693481445 39.4204025269
129.1627349854 187.6300964355 86.6689987183
137.9440002441 187.2022094727 70.8600006104
171.7546539307 183.5823516846 44.3800010681
124.5667114258 187.0297393799 91.6199951172
146.6997528076 182.9700012207 68.5699996948
202.9367065430 167.8697357178 36.3799972534
117.8240814209 179.5128479004 89.7900009155
108.7159576416 183.7388000488 97.1767959595
169.9874267578 166.2398529053 30.1800003052
172.4021301270 153.5769348145 34.0331993103
169.7349853516 166.5569152832 34.9854011536
173.5952911377 164.9669342041 39.3540000916
143.3116607666 182.6393585205 75.1703948975
172.6538085938 169.6571960449 49.0611991882
190.1889495850 161.3681793213 49.2670021057
174.5497589111 153.7599945068 26.2500000000
142.8304748535 181.4269409180 78.8574066162
110.5208663940 181.4529724121 96.3000030518
173.1288299561 187.4440307617 47.4500007629
167.8127746582 187.3090057373 51.2862014771
133.4133911133 180.2498626709 81.7126007080
167.5749969482 179.2169189453 39.3954010010
166.9866790771 157.5599975586 25.2019996643
115.8646621704 182.0023498535 90.9099960327
185.7559661865 160.2088012695 41.9567985535
185.4359588623 157.8988037109 47.6567993164
175.7188262939 164.8140258789 38.9200019836
170.6640014648 190.5122070312 55.9899978638
133.0583953857 183.3779602051 84.2859954834
111.6113967896 182.1699981689 91.7788009644
204.3140716553 157.0528564453 36.7299995422
129.9033966064 173.0998687744 84.1725997925
132.4767150879 185.7197265625 86.5499954224
170.6527252197 198.8701019287 60.1890029907
132.9092559814 182.0191955566 78.5541992188
163.0782775879 186.6033782959 66.5960006714
182.6443023682 165.4140777588 41.3023986816
170.0743103027 193.1940765381 62.0023994446
120.4320602417 185.8080444336 90.6520004272
208.5188293457 167.3940277100 37.6300010681
165.8134002686 186.2498626709 74.2325973511
138.8574218750 184.5598602295 76.8499984741
170.8836212158 170.6369781494 45.0195999146
140.2497558594 178.8999938965 71.1299972534
169.4467620850 198.0920104980 51.3845977783
153.8121948242 182.1998748779 71.9199981689
126.2846603394 172.9723510742 81.8600006104
174.3437957764 186.5271911621 45.2211990356
161.1317596436 194.3868103027 61.2709999084
119.4059524536 188.4988098145 90.0067977905
161.2797851562 161.8557128906 30.0717983246
117.7732696533 181.1781005859 86.6240005493
174.6292114258 161.0775909424 27.8982009888
128.8213958740 185.1799926758 83.6088027954
205.3152923584 164.0769348145 36.4539985657
131.9555816650 171.1559143066 83.7890014648
205.1918640137 156.7475280762 34.7220001221
157.0614013672 191.7100067139 70.7287979126
123.5406951904 183.7410278320 92.9501953125
194.9336242676 167.6569824219 36.1996002197
174.3197784424 150.3057098389 29.1217994690
172.9327850342 152.0590057373 38.3661994934
180.6572265625 159.6653594971 39.4099998474
180.4531860352 157.0845794678 39.0580024719
186.3451385498 159.5500030518 44.3629989624
126.1157608032 180.2059020996 95.7330017090
169.1286010742 184.9256134033 43.3276023865
201.2936248779 155.5569763184 28.3795986176
177.5840759277 157.6228485107 43.8299980164
163.9940032959 182.7722015381 69.2700042725
181.1992187500 154.0675811768 40.3482017517
169.1408691406 154.4729766846 22.6099987030
171.3525848389 169.2400054932 41.5080032349
165.7533874512 187.4598693848 50.9026031494
163.4682617188 184.7373046875 70.7409973145
203.3689575195 156.7081756592 36.6469993591
123.3422088623 182.2498779297 90.6799926758
168.5797576904 159.6799926758 24.4599990845
169.1322021484 150.7898712158 28.3099994659
138.7107086182 185.4766540527 75.8359985352
172.0297546387 169.6499938965 41.4200019836
126.8497543335 173.7200012207 80.4599990845
176.6040039062 161.7122039795 41.7199974060
175.2272338867 156.7553558350 33.0900001526
175.7774200439 169.7298583984 39.1900024414
171.3574218750 155.2498626709 23.9400005341
117.6040802002 182.9828491211 92.0299987793
160.5566864014 189.7299957275 67.2119979858
170.7131805420 190.4945831299 56.5279998779
133.4339904785 177.0821990967 74.8100051880
205.4872283936 159.0053558350 29.0300006866
131.7852935791 175.3269348145 83.6340026855
186.8346557617 160.4823455811 50.4700012207
186.9839935303 156.8622131348 46.8699989319
167.3974304199 194.6698608398 58.4300003052
139.2572326660 190.2353515625 71.8599929810
155.0467071533 187.7297363281 72.6999969482
139.0282745361 181.2433776855 72.0260009766
140.5086059570 176.8856201172 73.7076034546
160.2067718506 192.6320037842 60.2445983887
151.4839935303 182.6022033691 75.0800018311
200.8036499023 160.6978302002 30.4040012360
170.8716888428 169.9773712158 40.8400001526
166.4133911133 154.0798645020 32.0926017761
163.9472351074 175.1253509521 36.9300003052
171.7947845459 179.6453247070 41.0509986877
159.4207305908 188.5000000000 67.0925979614
138.7872314453 189.0853576660 70.5799942017
199.2236175537 159.6169738770 32.9995994568
170.2033081055 191.1726837158 64.8180007935
168.5836181641 155.2669830322 32.1296005249
163.4897613525 183.9799957275 68.7099990845
156.8288269043 187.0140228271 73.5399932861
125.5172195435 191.6353607178 89.8899993896
122.0392150879 182.9075927734 87.6181945801
139.9862976074 174.8386993408 69.7249984741
207.3518676758 166.1175231934 32.6620025635
149.9774169922 188.6198577881 72.4900054932
162.9298095703 161.6767425537 25.8199996948
205.5697479248 155.1600036621 25.8500003815
110.2846603394 180.3623504639 95.4599990845
137.2036437988 185.1778259277 74.7440032959
188.5167694092 166.5420074463 42.9445991516
177.2718658447 166.3875274658 37.4420013428
138.1340026855 180.6422119141 75.3199996948
165.7779235840 165.5276184082 36.0769996643
127.9186096191 183.2556152344 98.8076019287
174.8143005371 161.7140655518 32.7723999023
168.5136260986 193.4969787598 56.5495986938
204.0967102051 158.1097412109 35.8899993896
128.6052856445 179.5669250488 97.9739990234
193.0446624756 164.5923461914 36.8800010681
169.9138031006 191.1671905518 50.0111999512
131.8525848389 178.9499969482 70.8580017090
160.9972229004 190.4053497314 70.4899978638
170.7131805420 190.4945831299 56.5279998779
117.8240814209 179.5128479004 89.7900009155
128.6282653809 183.9972991943 99.5209960938
188.6793975830 165.0625305176 46.0639991760
155.1233978271 194.6598663330 76.0125961304
142.3682708740 175.4133758545 70.2360000610
167.3759613037 175.6488037109 46.3467979431
131.2088165283 183.1040191650 98.4499969482
123.4040756226 185.8428497314 93.5699996948
125.3388214111 189.8840332031 91.5699996948
171.4002838135 167.0498352051 48.4150009155
187.4074249268 164.7498626709 44.2500000000
173.5367126465 168.2497406006 39.5799980164
162.1720581055 186.5480499268 68.7519989014
205.0383911133 157.4679565430 25.4459991455
148.7416534424 184.6093597412 70.9804000854
175.5227355957 153.3701019287 31.5789985657
171.0152893066 189.7769317627 59.8339996338
166.0906982422 188.9110260010 51.0702018738
173.3531951904 165.1045837402 34.9680023193
135.3067169189 184.3197326660 75.2399978638
166.1507263184 156.8999938965 26.2525997162
201.6999969482 153.0352325439 25.4474010468
159.5632781982 192.3081054688 73.4140014648
190.3482666016 161.3672943115 38.0410003662
170.8116607666 194.0393524170 53.6003990173
167.5759582520 150.9788055420 23.7568016052
132.0916595459 185.6193542480 86.9804000854
115.1136474609 186.7078247070 90.7239990234
156.8614044189 188.4799957275 69.3988037109
157.9267578125 190.6320037842 68.3045959473
158.5159606934 173.8888092041 41.2267990112
137.0646667480 181.1023559570 76.1599960327
166.7108612061 192.8729705811 66.2700042725
120.3213958740 189.7100067139 87.7388000488
166.5997619629 162.8200073242 25.6800003052
131.5982818604 173.2433776855 79.3559951782
162.2716674805 176.6393585205 39.7103996277
212.8289489746 153.0681762695 30.1769981384
171.6840667725 167.7828521729 40.5399971008
124.7599945068 188.7508544922 91.7400054932
158.1538238525 186.5784759521 69.8414001465
171.5008697510 192.0229644775 42.1699981689
129.3416900635 183.7573699951 89.7700042725
201.4627838135 168.0890045166 36.1062011719
106.7774200439 188.3398590088 94.7900009155
139.4683837891 181.8579559326 72.1159973145
129.2598114014 172.7467498779 79.3600006104
196.7992095947 167.9375915527 39.4482002258
171.3021392822 189.5869293213 52.6931991577
210.0838012695 156.6972045898 33.1412010193
137.8225860596 186.6799926758 71.9280014038
178.2397613525 159.2400054932 37.0000000000
163.6567077637 165.9697265625 27.9300003052
165.8067626953 169.2620086670 38.0545997620
120.8866806030 185.2599945068 86.1220016479
173.5838165283 160.4684753418 28.5113983154
128.8117675781 185.0368041992 97.4909973145
166.7391357422 179.7058563232 45.6439971924
168.5967712402 188.6820068359 41.7245979309
108.3272171021 187.9553527832 94.2299957275
194.5821380615 163.7369384766 40.7732009888
203.5788269043 152.3740234375 30.6900005341
165.4167175293 163.5897369385 26.3899993896
126.3391265869 182.1458587646 93.4739990234
144.7972259521 178.3253479004 73.1399993896
175.5036315918 160.3969726562 38.0596008301
140.5582733154 173.8733825684 70.6059951782
209.2751464844 155.4400024414 29.1329994202
172.3052825928 162.8269348145 37.4039993286
138.8182525635 178.8672943115 70.7009963989
190.0874176025 160.5498657227 34.9300003052
167.0243072510 192.3840637207 61.4323997498
174.1346588135 154.9523468018 43.3600006104
140.0167083740 184.7897338867 77.6899948120
155.6757659912 191.7559051514 73.3530044556
168.6585998535 154.5256195068 35.8475990295
172.0413970947 186.4499969482 39.6888008118
178.6031951904 157.8245849609 37.2379989624
171.9951477051 194.6799926758 57.8629989624
163.5682830811 189.4033813477 59.6060028076
170.0743103027 193.1940765381 62.0023994446
132.3855743408 175.6759033203 86.0889968872
192.8946685791 156.2923431396 36.8099975586
193.8536224365 166.5669860840 36.2495994568
163.3546600342 183.8823547363 68.5800018311
149.3988189697 184.1640319824 77.5899963379
164.1239624023 177.7100067139 38.4938011169
139.9214019775 185.4600067139 71.7687988281
140.8055725098 173.4659118652 73.1890029907
128.8500061035 181.7908477783 88.0600051880
157.9946594238 186.2523498535 72.3600006104
163.5140686035 194.1528472900 65.2700042725
169.8687438965 151.9560089111 36.4986000061
172.6674194336 196.8698577881 51.0800018311
167.0616912842 172.4573669434 38.9599990845
193.8067626953 169.7220153809 39.0645980835
204.2843017578 160.7940673828 28.7523994446
174.3740692139 194.4828491211 53.5699996948
178.3340759277 168.2228546143 39.7199974060
166.8733978271 193.5098571777 52.2326011658
163.4682617188 184.7373046875 70.7409973145
115.8608703613 186.8629760742 89.8400039673
145.5040740967 180.7128448486 74.3800048828
173.5292053223 197.1375885010 62.1982002258
149.3988189697 184.1640319824 77.5899963379
145.9436492920 184.8878173828 71.7140045166
195.2002868652 156.3198394775 38.1549987793
170.3767089844 197.3897399902 45.6699981689
167.8055725098 185.5159149170 50.5190010071
154.2639617920 187.9299926758 68.7738037109
121.7051391602 192.6100006104 89.1229934692
166.0652923584 173.6769256592 43.4739990234
188.5039520264 164.5700073242 39.3237991333
185.9146575928 157.3223571777 47.7099990845
171.4667053223 168.8397369385 39.6999969482
128.3167114258 185.2897338867 90.3300018311
167.7238006592 186.3471984863 73.7511978149
167.5749969482 179.2169189453 39.3954010010
189.5621337891 158.7169342041 47.2032012939
124.9232711792 190.4681091309 88.4140014648
173.9418640137 192.7975311279 51.2820014954
185.5257568359 158.4659118652 46.3929977417
169.2897796631 152.8157043457 37.5117988586
164.1239624023 177.7100067139 38.4938011169
145.9436492920 184.8878173828 71.7140045166
195.1313934326 161.6399993896 33.3087997437
130.4633941650 181.0598602295 92.6825942993
149.4040679932 185.4728546143 78.1500015259
137.7074279785 190.6198577881 72.4199981689
172.9372253418 164.2453613281 28.4700012207
159.5099945068 192.5952301025 70.2974014282
175.1816864014 194.0073699951 52.1700019836
171.7107086182 192.4166564941 48.0760002136
170.6040649414 169.2828521729 49.3799972534
208.6379241943 152.9476165771 31.9470005035
193.1838073730 163.0471954346 42.6212005615
171.9583892822 193.4279632568 57.7560005188
132.7886047363 181.9756164551 77.6175994873
166.9749908447 192.2269287109 57.6454010010
152.7042999268 180.0540771484 70.5823974609
171.2239990234 151.6921997070 20.6399993896
168.0036468506 168.0578155518 37.3639984131
166.9355773926 190.8459167480 68.4990005493
184.6220550537 159.4703979492 39.3069992065
141.8238067627 185.8372039795 75.8511962891
170.1443023682 171.1240692139 40.3124008179
204.4113922119 154.7599945068 25.7187995911
165.4188232422 162.8840332031 36.8300018311
166.8816833496 166.6773681641 33.1599998474
140.6016540527 184.9193572998 77.1703948975
175.8639984131 162.0722045898 38.1699981689
132.5155792236 179.1159057617 92.2989959717
165.2133941650 190.9298706055 58.4126014709
171.1304626465 191.1869354248 63.7074012756
173.2967071533 196.8297271729 53.5899963379
172.5339965820 168.4421997070 41.9799995422
165.0797576904 172.6999969482 37.8400001526
170.7416534424 156.0593566895 34.9403991699
152.9840698242 183.2928466797 75.1399993896
128.8488159180 171.0540313721 82.5099945068
185.9146575928 157.3223571777 47.7099990845
138.4740753174 186.9828491211 75.8300018311
170.7667083740 155.2297363281 30.3400001526
129.7599945068 180.4352264404 70.4273986816
136.7986145020 190.3417663574 71.9260025024
114.9582824707 177.8033752441 87.0159988403
115.0197906494 182.4557037354 93.1518020630
207.1972351074 172.0053558350 33.1399993896
162.0482635498 194.8372955322 64.6409988403
202.9108734131 160.1029663086 34.4399986267
210.1872253418 157.9953613281 30.3999996185
167.9697570801 195.3699951172 50.0100021362
111.1816635132 187.0393524170 97.6303939819
170.9440002441 149.3522033691 31.1899986267
165.8039550781 189.4600067139 47.3037986755
109.9727249146 187.5401000977 97.5390014648
156.3074188232 194.5298614502 71.9900054932
156.1739959717 191.2622070312 76.3600006104
126.1786041260 181.8656158447 98.4275970459
178.4839630127 154.3999938965 38.8138008118
208.3921356201 167.7169342041 33.4132003784
113.6932983398 181.1226959229 95.1279983521
152.7488250732 174.8040313721 73.6899948120
136.0546569824 187.6023559570 73.2699966431
168.6585998535 154.5256195068 35.8475990295
143.8533935547 184.8598632812 75.0425949097
206.3998107910 150.9567413330 28.7600002289
126.3836212158 183.0269775391 96.1595993042
170.3833923340 160.0798645020 30.8726005554
106.7774200439 188.3398590088 94.7900009155
175.1572265625 186.3853607178 42.2200012207
173.6116638184 163.9893493652 34.9804000854
179.5043029785 159.8540649414 37.4924011230
172.5167083740 155.4797363281 24.7800006866
189.1072235107 163.3953552246 48.4000015259
168.9199981689 158.1152343750 27.9474010468
169.3764648438 165.6112365723 41.1500015259
174.1717681885 154.7967987061 41.4109992981
171.3820495605 159.0303955078 27.6770000458
158.9749908447 193.4369201660 72.2154006958
165.1951446533 185.9400024414 67.1129989624
164.9208679199 179.6529693604 43.5299987793
135.1240692139 182.3428497314 78.0999984741
171.0238037109 191.8771972656 49.2611999512
208.3452911377 166.6169281006 37.1240005493
126.1418685913 190.1675262451 90.3120040894
168.6755828857 155.7159118652 30.2490005493
172.2479095459 160.1776123047 36.9570007324
206.0231933594 163.4745788574 32.1280021667
158.9749908447 193.4369201660 72.2154006958
176.3143005371 152.9940643311 28.0623989105
124.6447830200 181.5853271484 89.0609970093
138.7782592773 177.0872955322 72.1609954834
163.1267089844 177.2997283936 38.6999969482
172.6452941895 167.5369262695 48.1539993286
177.8408660889 164.1529693604 44.2299995422
184.1607208252 163.6666564941 39.9360008240
170.3540039062 175.0222015381 42.5799980164
171.1889648438 179.1392669678 46.8089981079
167.7286071777 194.0156250000 52.8176002502
142.0243072510 178.5640716553 68.3824005127
201.7221984863 157.7498779297 30.0400009155
200.5447845459 150.4553222656 25.8310012817
186.6416625977 164.7193603516 43.7904014587
162.2317657471 195.8768005371 62.6110000610
157.9946594238 186.2523498535 72.3600006104
137.9998016357 186.4867401123 71.4499969482
148.2191314697 184.8058624268 70.4540023804
165.6340026855 183.0222015381 70.9800033569
170.1963043213 190.9187011719 50.6049995422
165.4797821045 150.3157043457 29.9818000793
139.4494018555 188.8725280762 74.7839965820
157.5246582031 189.7123565674 75.9499969482
142.6152954102 177.7169342041 75.3740005493
169.8867034912 180.4597320557 46.0099983215
164.8097839355 159.1457061768 29.7817993164
163.5619201660 189.0489959717 60.9079971313
137.7940673828 188.5828552246 74.3899993896
170.0397796631 196.4457092285 62.5817985535
152.4482727051 183.0133819580 70.0559997559
171.8316955566 175.9873657227 43.1399993896
127.0659561157 180.2687988281 90.5767974854
204.3140716553 157.0528564453 36.7299995422
184.1607208252 163.6666564941 39.9360008240
170.2939605713 185.0000000000 45.1437988281
168.8279113770 179.3776092529 50.0670013428
190.1520538330 163.0480499268 38.8719978333
188.5688171387 160.1540222168 51.0300025940
166.4738006592 163.5372009277 35.1711997986
109.9033889771 185.2698669434 99.3625946045
172.3059692383 151.7788085938 29.5068016052
185.3636169434 164.3169860840 41.0295982361
128.9759674072 175.8588104248 82.7267990112
167.3908691406 193.8729705811 61.6199989319
202.6798095703 155.1067504883 33.7700004578
126.3034744263 184.2030487061 88.5360031128
169.4546661377 163.0723571777 36.2299995422
148.7588195801 179.8740234375 73.9399948120
167.7108612061 151.3029785156 25.9599990845
168.7533874512 182.7498626709 44.7625999451
159.2921447754 192.7869262695 74.2231979370
177.5191345215 161.0158691406 41.9739990234
169.8433990479 185.4698638916 48.2126007080
131.6888275146 175.0440216064 83.6800003052
163.0782775879 186.6033782959 66.5960006714
166.0334014893 193.1198577881 57.3826026917
170.5988159180 167.9740295410 48.8199996948
129.0846557617 176.9223480225 83.3099975586
148.8688201904 178.3240203857 71.8099975586
172.4237976074 189.0271911621 48.5811996460
192.1386108398 159.5056152344 38.5176010132
167.4574279785 156.6298675537 25.2199993134
201.2263031006 155.3087005615 35.8349990845
129.4846649170 179.0123443604 86.7600021362
163.5982666016 165.6873016357 35.6710014343
209.3316955566 168.2273712158 36.7900009155
173.3321380615 177.0469360352 47.3532028198
127.4682846069 180.1033782959 89.7059936523
148.4714050293 183.0200042725 67.5688018799
188.5974273682 163.1698608398 40.3300018311
201.6508636475 166.9229736328 36.9399986267
203.5788269043 152.3740234375 30.6900005341
146.1346588135 182.2223510742 69.9700012207
169.1643066406 195.0840759277 42.3523979187
186.7086181641 164.6717681885 44.6359977722
123.7197952271 183.1157073975 92.7918014526
167.7913970947 193.2200012207 57.6487998962
175.2986145020 159.2356109619 40.3276023865
204.9182586670 170.9873046875 34.9910011292
172.7867126465 192.9697265625 41.6099967957
167.9088287354 159.9640197754 32.3199996948
166.4055786133 155.8659057617 29.0690002441
162.0855865479 189.7059020996 61.7789993286
172.5637969971 152.9971923828 33.6811981201
151.5272216797 188.2353515625 71.9300003052
193.2738037109 164.5072021484 43.0411987305
160.9816589355 177.1893615723 41.6804008484
165.1227264404 163.3301086426 30.2689990997
173.4451446533 169.0700073242 34.4729995728
174.0382843018 151.0333862305 28.1459999084
207.0240783691 171.5628509521 35.3799972534
173.4940643311 184.5628509521 45.5000000000
160.6057586670 191.7659149170 62.0830001831
166.0659637451 192.7788085938 44.1667976379
171.2239990234 151.6921997070 20.6399993896
164.6846618652 178.5623474121 42.6899986267
159.2640686035 190.6928558350 77.0699996948
171.0762939453 166.7987060547 42.8950004578
188.7027282715 163.5901031494 50.0790023804
167.0708618164 191.3329772949 48.5200004578
204.1152954102 162.2569274902 35.7539978027
166.3986053467 180.2956237793 44.6276016235
174.4598083496 156.7567443848 32.9099998474
164.9640045166 161.0922088623 25.2699985504
173.2997589111 186.8600006104 39.9800033569
133.3988189697 176.1340332031 82.2999954224
192.9467163086 168.2597351074 39.7699966431
151.7879180908 187.2676086426 75.4970016479
168.5037994385 192.2971954346 66.4211959839
172.0413970947 186.4499969482 39.6888008118
132.0216827393 183.9373626709 97.6100006104
169.7138061523 178.4371948242 49.9811973572
160.0716857910 190.2173767090 75.6699981689
170.8874206543 156.8798675537 36.6800003052
201.1649932861 169.5369262695 34.9554023743
142.6152954102 177.7169342041 75.3740005493
171.6643066406 165.2440643311 29.0123996735
161.6574249268 189.2798614502 66.6300048828
205.2016906738 157.3073730469 32.9599990845
116.5516891479 177.7973632812 88.9700012207
146.1499938965 185.3152313232 72.3573989868
173.3321380615 177.0469360352 47.3532028198
139.9974212646 180.1698608398 68.5999984741
174.4046630859 161.6523437500 40.4899978638
149.2882843018 181.0633850098 68.4759979248
170.5149841309 184.0469207764 43.9953994751
167.7074279785 165.6998596191 31.8700008392
137.4397583008 188.4100036621 70.2999954224
128.3167114258 185.2897338867 90.3300018311
168.9717559814 198.5368041992 58.9710006714
188.7167053223 164.0097351074 49.7999992371
184.5586090088 163.1856231689 44.6976013184
147.2608642578 181.2929687500 74.2200012207
140.7247772217 186.3953247070 70.4609985352
174.9789581299 169.2381744385 44.5569992065
173.6432800293 170.3881072998 41.9840011597
136.7959594727 183.1088104248 74.2867965698
152.9788208008 181.9840240479 74.5799942017
168.6908721924 169.7529754639 45.9099998474
128.7117614746 184.8768005371 73.2509994507
201.7697601318 165.3999938965 31.8999996185
175.1816864014 194.0073699951 52.1700019836
171.1088256836 189.4540252686 59.5300025940
120.2717590332 192.5167999268 89.6210021973
138.7693939209 190.7325286865 73.3539962769
126.8625869751 183.6199951172 84.7280044556
187.4882812500 159.4633789062 40.5960006714
144.5992584229 184.7191925049 72.6742019653
208.5138092041 155.2171936035 32.6012001038
176.9899902344 171.1552276611 35.9273986816
175.2986145020 159.2356109619 40.3276023865
165.6497497559 193.2500000000 42.0000000000
200.5447845459 150.4553222656 25.8310012817
169.1643066406 195.0840759277 42.3523979187
170.6527252197 198.8701019287 60.1890029907
176.9416656494 159.8293609619 40.5204010010
175.8688201904 154.6240234375 43.9200019836
147.2608642578 181.2929687500 74.2200012207
172.8697509766 195.8099975586 50.2400016785
180.2216949463 158.9973754883 38.1199989319
209.6382751465 152.2433776855 29.4959983826
126.4286041260 183.3856201172 94.5576019287
151.9033966064 187.6898651123 75.1325988770
141.6297607422 186.2599945068 71.2599945068
136.0792083740 181.5775909424 78.8681945801
148.6116638184 184.7293548584 72.5203933716
171.2531890869 190.5545806885 62.9980010986
168.7040710449 190.0928497314 66.0400009155
169.6272277832 196.6353607178 57.2600021362
184.0097808838 159.3357086182 39.7318000793
165.2292633057 179.1691894531 39.5041999817
170.4316558838 171.2293548584 44.5804023743
169.2897796631 152.8157043457 37.5117988586
167.8727874756 186.0989990234 74.6161956787
164.3186035156 185.4956207275 71.3376007080
167.5513916016 192.7599945068 42.3087997437
194.0839538574 168.2700042725 37.9137992859
130.3859558105 180.4288024902 88.1368026733
120.5855865479 183.7159118652 90.3590011597
170.2552947998 187.5569305420 48.9839973450
163.8740692139 164.9128417969 28.7700004578
175.7916870117 185.4673767090 43.0600013733
163.8436279297 177.1369781494 41.6595993042
175.5036315918 160.3969726562 38.0596008301
136.7320556641 182.8280487061 75.4720001221
127.2367095947 187.9597320557 87.6100006104
200.7474212646 155.1198577881 28.8400001526
110.2879180908 186.0076141357 98.7570037842
165.7387542725 187.2859954834 49.8185997009
193.3372344971 167.6453552246 38.3699989319
168.2726440430 189.5767974854 57.2430000305
173.6694030762 193.0125427246 41.6840019226
172.2432861328 154.8280944824 20.3640003204
161.3914031982 191.7400054932 59.0088005066
132.7243041992 184.6240692139 84.7124023438
168.2086029053 170.9856109619 44.7376022339
180.1174163818 167.1698608398 41.3500022888
164.7516937256 173.0173645020 43.6700019836
152.7488250732 174.8040313721 73.6899948120
166.2639617920 177.4499969482 37.0937995911
130.2946624756 179.3523559570 75.5500030518
198.7537994385 165.7471923828 36.9111976624
201.9497528076 163.2100067139 33.7400016785
175.5989532471 162.5781707764 33.4970016479
171.1336212158 191.3069763184 40.8895988464
139.0282745361 181.2433776855 72.0260009766
204.1249847412 165.5969238281 30.5053997040
169.0908660889 196.4429779053 46.2299995422
171.6816558838 165.4593505859 30.1304016113
194.1967620850 163.0020141602 33.8545989990
197.7200012207 167.3652343750 38.4073982239
171.5407104492 155.5166473389 32.6360015869
200.7455749512 165.0959167480 37.4790000916
167.0616912842 172.4573669434 38.9599990845
172.8239898682 183.1222076416 43.5400009155
172.9049835205 192.1569213867 44.4054031372
153.6649932861 188.9869232178 74.3654022217
169.7867126465 193.5497283936 55.1999969482
131.6047821045 178.9353179932 90.3809967041
168.3849945068 158.9569244385 29.8654003143
164.5762939453 161.5587005615 34.3549995422
174.5916595459 153.9593505859 32.5204010010
172.7588195801 162.4940338135 30.1500015259
168.0582580566 195.3173065186 52.7510032654
166.7589721680 192.3592681885 60.1189994812
175.3597564697 163.2799987793 37.6100006104
164.6846618652 178.5623474121 42.6899986267
174.7767028809 164.0197296143 33.5699996948
176.6955718994 149.8559112549 29.8889999390
163.6736297607 165.5769805908 33.5195999146
171.6986236572 192.6217803955 40.2560005188
168.4816589355 181.8293609619 43.7204017639
120.0347824097 187.7153167725 88.4710006714
132.0916595459 185.6193542480 86.9804000854
194.8266754150 164.9400024414 33.1419982910
131.9789581299 183.1481781006 97.8969955444
166.4272308350 173.3753509521 38.1199989319
123.3942947388 188.5640716553 87.6823959351
133.6292114258 180.2575836182 91.1481933594
126.4286041260 183.3856201172 94.5576019287
167.3833007812 190.6626892090 67.6480026245
131.5879211426 183.6576232910 96.8970031738
175.6872253418 153.7153472900 40.1399993896
175.7774200439 169.7298583984 39.1900024414
140.7247772217 186.3953247070 70.4609985352
174.5974273682 158.3398590088 39.2300033569
171.7947845459 179.6453247070 41.0509986877
167.6597595215 155.5700073242 24.3799991608
145.9659576416 179.9488067627 72.4568023682
172.5649871826 171.9469146729 48.3454017639
157.7852935791 187.1869201660 73.6440048218
167.9808654785 159.8729705811 29.5200004578
196.1916961670 162.3773651123 39.2099990845
165.7216644287 177.5093536377 43.0204010010
125.0272216797 187.4253540039 88.1099929810
161.3338012695 175.4772033691 43.0411987305
157.8531951904 185.3245849609 70.7980041504
129.2151489258 183.8500061035 84.1829986572
167.4707336426 167.7899932861 36.9725990295
170.9274291992 155.5198669434 21.7199993134
148.7047882080 185.4653167725 73.4209976196
141.8174285889 183.3298645020 72.7500000000
118.1332702637 182.4781036377 86.5039978027
203.7239990234 156.3422088623 32.3999977112
125.6546630859 180.8423461914 90.4199981689
203.5047760010 162.1753234863 28.9710006714
151.2508697510 176.2229766846 73.9700012207
134.9116821289 178.0473632812 75.3700027466
163.5682830811 189.4033813477 59.6060028076
188.9782714844 159.8233795166 40.6259994507
126.1786041260 181.8656158447 98.4275970459
165.9867706299 178.9020080566 38.2445983887
169.2846679688 184.3823547363 41.1199989319
147.5034790039 185.2130584717 77.6959991455
110.3898010254 182.7067413330 93.3699951172
203.6572265625 161.0653533936 28.5400009155
207.1916656494 171.4393615723 34.8003997803
158.8993988037 193.3525390625 75.7939987183
170.9751434326 187.3500061035 39.6030006409
123.3440017700 183.3122100830 87.8899993896
192.7939910889 164.6322021484 37.3800010681
166.5921325684 188.6469268799 66.6032028198
153.4443054199 187.5340728760 72.2424011230
190.2721405029 161.2769317627 46.8532028198
166.2347869873 170.8353271484 41.9309997559
132.7886047363 181.9756164551 77.6175994873
169.4697570801 154.1300048828 20.3699989319
173.0982818604 153.2533874512 34.5460014343
168.9239959717 188.5322113037 44.3999977112
166.5174255371 192.3098602295 52.4400024414
167.5749969482 179.2169189453 39.3954010010
144.0267639160 185.8420104980 73.1245956421
203.6216583252 168.4593505859 35.6804008484
118.4840774536 181.8528442383 89.5400009155
166.4338073730 166.2171936035 35.2812004089
169.6343078613 162.7240753174 26.5223999023
173.3531951904 165.1045837402 34.9680023193
168.3226470947 186.7967987061 50.6529998779
169.8572235107 163.1153564453 26.8400001526
205.8631896973 156.2745819092 26.5380001068
165.0857543945 193.0159149170 43.5529975891
163.1040039062 173.2422027588 37.2099990845
128.6047821045 177.8553161621 70.8109970093
192.9467163086 168.2597351074 39.7699966431
172.3847808838 166.4853210449 34.5209999084
171.1338043213 179.6772003174 45.6912002563
201.9066772461 152.8099975586 26.4419994354
204.2617645264 169.2568054199 31.9209995270
196.5583953857 167.8879547119 36.2960014343
155.2967681885 195.6420135498 74.0945968628
137.0391235352 184.2458648682 76.5640029907
164.6538085938 162.7572021484 31.1912002563
119.3421401978 183.0569305420 89.7132034302
159.0639953613 185.7922058105 71.5200042725
141.2033081055 181.9126892090 78.7279968262
159.5632781982 192.3081054688 73.4140014648
174.3437957764 186.5271911621 45.2211990356
173.3063049316 191.7387084961 60.3650016785
175.8932800293 159.9580993652 32.4339981079
193.5216674805 168.0493621826 39.8404006958
164.2036285400 167.5569763184 32.5596008301
175.7916870117 185.4673767090 43.0600013733
121.5451431274 188.8800048828 87.8429946899
190.5436553955 165.7278289795 41.6439971924
190.6399993896 166.0152282715 42.1773986816
206.6416931152 163.3973693848 33.8600006104
167.9982757568 152.5333862305 26.3759994507
179.8027343750 166.6800994873 42.0289993286
130.7797546387 178.4499969482 77.5899963379
172.6416625977 191.6493530273 43.6704025269
108.7159576416 183.7388000488 97.1767959595
135.2099914551 182.8352355957 77.7173995972
165.3533935547 189.9298706055 50.3726005554
203.4839630127 159.0099945068 24.5037994385
173.8197479248 162.7299957275 31.8900012970
114.2740783691 185.3628540039 96.4800033569
196.0507202148 168.6866455078 38.1160011292
169.3836517334 184.4678192139 40.6040000916
133.7683868408 179.3179626465 81.9359970093
163.3467102051 191.9297332764 68.7099990845
193.0446624756 164.5923461914 36.8800010681
132.6916656494 180.8593597412 80.2603988647
164.5646667480 183.4823455811 71.8199996948
171.1755828857 149.7659149170 27.6590003967
172.3221435547 154.1869354248 25.8631992340
161.3672332764 176.9453582764 38.3500022888
158.9182739258 186.1333770752 71.1159973145
174.1886138916 168.4556121826 39.4276008606
172.6622009277 183.5998687744 40.3100013733
133.7683868408 179.3179626465 81.9359970093
163.2557678223 164.1059112549 34.4529991150
123.7197952271 183.1157073975 92.7918014526
168.8940734863 193.7628479004 61.8999977112
177.0898132324 161.5567474365 40.6200027466
165.4167175293 163.5897369385 26.3899993896
129.2598114014 172.7467498779 79.3600006104
144.7297821045 181.1657104492 74.5018005371
188.4616851807 157.8273773193 47.4300003052
195.3949890137 170.0369262695 40.2154006958
144.8589477539 175.7981719971 73.0270004272
140.0339508057 188.0500030518 69.6938018799
127.5374298096 182.6898651123 72.3600006104
199.0432739258 162.8881072998 35.8740005493
163.6627807617 163.1990051270 31.6061992645
202.5621948242 151.2398681641 27.1700000763
166.4791259766 171.1158599854 43.2239990234
138.4757537842 177.2859039307 69.4830017090
168.0997924805 186.2057037354 42.4917984009
168.1636199951 153.9069824219 22.8495998383
205.4540710449 160.0428466797 32.7399978638
188.7167053223 164.0097351074 49.7999992371
169.6133880615 154.3098602295 38.6626014709
171.8297576904 191.6799926758 39.9300003052
169.4622039795 179.1098632812 40.7000007629
149.8908691406 184.6829681396 73.3000030518
210.6862945557 151.6687011719 29.3649997711
169.0839996338 158.4721984863 25.0199985504
168.1086120605 152.5856170654 34.2176017761
128.6838073730 185.3972015381 88.7111968994
146.6504669189 183.4869384766 75.1774063110
173.9427795410 186.6690063477 47.8961982727
160.0334014893 191.6498565674 62.1626014709
173.4397583008 169.8899993896 34.5300025940
205.3088226318 157.2540283203 30.7100009918
129.0051422119 183.3399963379 72.0329971313
170.9486083984 156.8256225586 38.0576019287
158.2433929443 176.2898712158 42.7726020813
114.3516616821 186.6693572998 94.9603958130
137.2634735107 187.2630462646 75.7360000610
199.5774230957 157.9598541260 36.5200004578
171.2233123779 155.3826904297 28.9780006409
190.3482666016 161.3672943115 38.0410003662
140.6016540527 184.9193572998 77.1703948975
165.4897918701 176.4257049561 39.0117988586
169.6374206543 179.9598541260 48.4200019836
138.2082672119 186.0173034668 75.6409988403
171.9555816650 190.5459136963 62.8789978027
133.7074279785 182.7098541260 73.4300003052
164.4438018799 189.8071899414 72.0111999512
175.2939910889 156.8722076416 33.1800003052
210.6627349854 157.3101043701 31.5689983368
190.3482666016 161.3672943115 38.0410003662
206.7827301025 172.3601074219 34.1790008545
161.2274169922 164.5698547363 26.6599998474
173.6221313477 164.1769409180 36.0432014465
132.8672332764 185.1053466797 85.1499938965
110.0594024658 187.7525329590 95.2339935303
106.4146575928 186.5323486328 95.3499984741
145.4988250732 179.4040222168 73.8199996948
206.7372283936 156.9053497314 28.2200012207
168.0997924805 186.2057037354 42.4917984009
166.4338073730 166.2171936035 35.2812004089
161.8007202148 191.4066467285 69.3959960938
168.9267120361 196.6597290039 51.6899986267
167.2927246094 195.9701080322 43.9589996338
169.5197906494 183.9757080078 47.0617980957
169.4959564209 163.3588104248 36.4967994690
197.1849975586 168.2069244385 40.3254013062
149.6894073486 186.8225402832 76.7439956665
189.0179138184 162.0576171875 51.2970008850
166.3986053467 180.2956237793 44.6276016235
165.9297485352 174.8600006104 38.1100006104
163.3440704346 176.2428436279 39.5399971008
140.1886138916 180.0156250000 75.8275985718
175.8899993896 164.9708557129 38.8699989319
161.2186126709 190.2156219482 70.2575988770
203.8108673096 166.6429748535 37.2099990845
191.6608734131 167.3129730225 40.3299980164
174.3532867432 196.2181091309 50.5340003967
124.7599945068 188.7508544922 91.7400054932
125.7959518433 180.0988006592 97.0667953491
133.7099914551 176.4852294922 78.4474029541
126.6686096191 184.6056213379 93.6475982666
171.4940032959 161.5722045898 31.1299991608
170.6959686279 155.9687957764 34.5767974854
171.4599914551 167.6752319336 31.9573993683
169.4582824707 150.0733795166 31.4960021973
138.8259582520 174.6188049316 71.9667968750
169.2846679688 175.4823455811 43.4199981689
115.6932983398 185.3726959229 95.2679977417
164.0702819824 172.2398376465 42.7449989319
125.4382629395 186.1672973633 88.6609954834
169.8433990479 185.4698638916 48.2126007080
200.1218566895 161.3275299072 37.3020019531
169.9739990234 152.9222106934 20.9299983978
151.8421936035 183.1898651123 69.0099945068
127.6797485352 172.1300048828 80.5499954224
173.8567047119 155.6697387695 28.2100009918
175.8639984131 162.0722045898 38.1699981689
168.5267028809 169.3397369385 47.5699996948
209.3752899170 152.0569305420 31.5840015411
177.2740783691 163.1528472900 43.6799964905
171.3742980957 155.0640716553 32.6723976135
196.6667175293 168.1897277832 35.3299980164
171.7386016846 157.7356109619 39.0176010132
205.6414031982 169.3500061035 32.0788002014
193.0939941406 160.9522094727 40.1399993896
149.3267059326 184.3197326660 72.6599960327
205.3140716553 166.5328521729 37.4899978638
124.9572219849 186.4153594971 90.2199935913
131.5802917480 181.7598419189 96.0849990845
171.1062927246 174.5187072754 44.2250022888
165.4302825928 159.8998413086 30.6749992371
124.9572219849 186.4153594971 90.2199935913
170.4452819824 161.0369262695 33.4239997864
156.2017669678 194.3768005371 72.5410003662
132.5227813721 180.9089965820 93.0661926270
167.0616912842 172.4573669434 38.9599990845
159.8621368408 191.8869323730 75.2332000732
202.8891296387 164.9058685303 36.8939971924
168.7216949463 160.7973632812 31.4800014496
126.3391265869 182.1458587646 93.4739990234
172.2231903076 182.7745819092 40.9680023193
176.2088165283 149.7140197754 32.0000000000
166.9547882080 175.7953186035 37.8610000610
152.6402893066 175.3498382568 71.9749984741
136.7346649170 186.0023498535 74.7099990845
137.3008728027 182.1929779053 77.0000000000
167.5867614746 153.2820129395 22.0746002197
133.7789764404 181.0792694092 72.3090057373
201.1649932861 169.5369262695 34.9554023743
152.2779235840 180.2676086426 75.0170059204
161.5167083740 189.7997283936 72.8099975586
199.7587432861 150.5960083008 28.1585998535
195.2079162598 158.2176208496 38.9669990540
173.1108703613 170.2329711914 36.7700004578
156.3074188232 194.5298614502 71.9900054932
173.6918640137 153.0775299072 24.2119998932
169.6374206543 179.9598541260 48.4200019836
174.4221343994 168.5269317627 45.4732017517
125.5555877686 181.7659149170 90.9789962769
170.4443054199 194.5540771484 49.6423988342
180.4421386719 154.3569335938 40.7232017517
184.0508728027 162.9129791260 44.0499992371
128.1698150635 171.1367492676 80.8699951172
128.5786132812 177.4756164551 82.8176040649
179.7638092041 159.6071929932 42.4511985779
167.8338012695 187.5372009277 72.9311981201
163.1202850342 191.2898406982 62.8950004578
132.5155792236 179.1159057617 92.2989959717
139.5113983154 187.3899993896 70.3387985229
129.6588287354 179.4340209961 91.5199966431
171.3288269043 190.6440277100 57.3899993896
107.8446578979 185.0623474121 93.7099990845
204.0782623291 168.2173004150 33.9510002136
173.9846649170 165.1423492432 38.3600006104
184.8566741943 162.5599975586 39.0919990540
169.7167053223 156.7897338867 29.4600009918
167.8055725098 185.5159149170 50.5190010071
133.8399963379 177.1208496094 74.1900024414
165.7540740967 175.0128479004 44.4799995422
162.0108642578 194.2629699707 64.9900054932
161.9208679199 189.6429748535 71.8000030518
192.7789764404 161.8492584229 35.1989974976
200.4697875977 161.7257080078 31.8417987823
135.7892608643 182.0691986084 73.0841979980
117.5988235474 181.6740264893 91.4699935913
195.1667175293 163.9097290039 39.7699966431
125.0446624756 184.4223480225 88.0400009155
159.3359680176 172.9087982178 41.9067993164
169.8640747070 154.6628417969 35.9699974060
175.5227355957 153.3701019287 31.5789985657
210.9779205322 155.7776184082 32.7869987488
133.8872222900 181.5453491211 85.1299972534
201.0666809082 159.3200073242 29.3120002747
190.2897491455 159.4900054932 34.0900001526
164.7682647705 185.4373016357 72.5009994507
193.7797546387 163.4799957275 34.2600021362
177.8938293457 156.6484680176 36.6314010620
188.2472229004 161.5053558350 39.8500022888
165.0827331543 195.3500976562 62.2690010071
122.5042953491 190.8040771484 88.1923980713
175.7774200439 169.7298583984 39.1900024414
192.0507202148 166.0266571045 42.7360000610
142.3682708740 175.4133758545 70.2360000610
115.8436279297 186.6369781494 89.6196060181
149.3733978271 186.8598632812 69.8125991821
169.2297821045 188.4657135010 61.8117980957
160.0499877930 190.1052246094 67.5373992920
133.7074279785 182.7098541260 73.4300003052
133.6472320557 174.6653594971 80.6999969482
165.4349975586 179.4769287109 40.7954025269
161.1634674072 174.0930480957 44.6360015869
142.4540710449 178.7928466797 76.0900039673
172.3289642334 177.2492675781 43.8190002441
168.4546661377 165.9423522949 42.1199989319
168.2736206055 196.8569793701 44.3495979309
191.3939971924 160.9222106934 40.4199981689
167.3038024902 175.6271972656 43.5111999512
169.7167053223 156.7897338867 29.4600009918
171.2240753174 171.1828460693 44.1699981689
165.3986053467 187.7156219482 72.4776000977
201.3846588135 162.4623565674 35.1399993896
168.6874237061 171.2798614502 40.5600013733
155.0088195801 182.7640228271 71.5000000000
131.1049957275 187.6369171143 85.6154022217
191.2582550049 159.2073059082 37.5710029602
139.0017547607 179.9067993164 68.6709976196
185.1186065674 161.9256134033 45.3875999451
145.9659576416 179.9488067627 72.4568023682
199.9749908447 159.8769226074 33.6554031372
170.7940673828 192.7428436279 48.8899993896
172.3974304199 191.7698669434 39.4800033569
164.4239959717 183.4222106934 67.7400054932
148.7416534424 184.6093597412 70.9804000854
114.5340042114 181.3622131348 93.8100051880
167.1455841064 171.0159149170 43.8489990234
111.4774246216 183.7498626709 92.5000000000
134.6622009277 178.1598663330 76.9699935913
171.0057678223 194.5059051514 62.0629997253
178.3340759277 168.2228546143 39.7199974060
184.0097808838 159.3357086182 39.7318000793
148.1139984131 183.3321990967 74.6900024414
170.0743103027 193.1940765381 62.0023994446
172.6313934326 160.6199951172 32.3188018799
167.6836242676 192.5069732666 47.2896003723
167.4286041260 170.5856170654 43.4876022339
171.6274261475 192.7398529053 40.7700004578
176.4049835205 153.0969238281 29.5053997040
152.8989715576 177.8892669678 69.5390014648
168.3239593506 169.0399932861 37.1338005066
169.4297485352 161.3200073242 34.0600013733
138.2113952637 183.1999969482 71.1188049316
169.6086273193 155.4817657471 21.3159999847
165.4240722656 164.1928558350 37.3899993896
180.4421386719 154.3569335938 40.7232017517
140.6833953857 180.0698699951 78.4626007080
123.4040756226 185.8428497314 93.5699996948
168.7997894287 150.2157135010 26.8917999268
168.3314056396 179.5500030518 40.3888015747
143.7342987061 178.4640655518 69.7824020386
209.3838043213 154.1772003174 32.4911994934
169.6074218750 168.0998535156 35.9800033569
163.1074218750 190.4298553467 65.4700012207
