210.9706962520 119.9753087813 225.1513677313
223.4946534282 81.5968015157 241.8611549185
218.2672700832 73.3138739436 243.3828678614
223.4795815343 82.6459407945 237.6607555500
226.2936764083 84.4678176789 223.7717406233
213.6671662532 152.8163955610 216.4697696665
213.3093164523 141.4727765907 219.6678865387
214.4686194507 146.9726501081 212.2349798908
211.9433917333 155.5115006210 211.4487893876
194.8175815604 127.7725059452 233.1891832487
196.2142289531 138.0744725577 241.3977432171
224.8246436828 85.0849034172 222.8990795972
206.6470875855 120.1333476776 232.7961770076
221.9317460028 58.6807957651 260.8873126850
224.9739199905 59.3599295585 263.3209036223
204.9490092553 122.7846682685 225.2537973190
223.4795815343 82.6459407945 237.6607555500
226.0490105312 71.6947625959 257.7945381937
221.3562717290 148.6040795156 214.0907628738
203.0018268188 115.3524347997 230.1448396340
196.8575190581 129.7479915186 237.4981963610
225.1304195400 88.9273720007 236.5912846274
222.9033774374 56.2923998970 253.1312847286
218.6212892610 79.3012108388 242.7942312423
221.1420243225 88.8205299542 217.4698914397
228.9985406913 66.5998925710 253.1875010030
214.2010345332 148.4443601390 216.0211359745
194.9801609685 139.5921129738 234.7481810569
225.4203839808 85.2294001340 222.9206306077
226.6974020524 78.2979925635 223.4664594971
216.2928231593 154.1041027823 211.3651976351
221.9845888455 69.8180830499 254.5200800712
222.3689613705 76.2820157002 245.7105991629
203.6446675720 125.8341695759 228.1913686919
195.9809840024 127.9144239652 232.3355197464
200.4770580714 113.9084651362 224.7198177567
206.5708701086 113.9682338203 230.7830025562
194.5037982739 123.5360951065 236.4516028073
202.1100975978 107.5277720902 216.2823528364
209.0494481933 119.0696066879 226.4367980010
214.9905803588 125.9204673707 227.3333361984
206.6307262805 112.3628305098 215.9224122012
201.6069113411 137.9150768435 237.8953115533
203.2320302130 111.9745519995 220.9979274285
213.6159353311 115.9530454957 230.9098568443
211.8927447946 130.7968422324 234.6413448841
203.8743674228 124.5175317023 223.6399230751
233.2124445550 61.7137178460 249.9108099884
228.3797385314 78.6615901229 225.0056319830
217.4131694434 143.3449034274 200.9894870452
205.0548175821 108.6996600326 232.0426807210
225.0170374418 53.3509963821 263.7984975644
207.0783630693 136.1888275600 236.3491260265
225.2978103257 51.1701303521 251.5066539949
226.7721675526 72.8845387372 255.9732841518
223.5410677563 60.5835604504 251.0489981823
208.9037238884 131.1879896637 231.2209514432
203.8809037795 127.6565348591 228.6160079925
231.2935238883 59.3938909013 255.3583799891
200.1969844127 136.8214596365 235.8721720726
222.3025130262 56.6045006788 267.1193349657
213.6174758589 125.6520244140 229.2848462588
237.5174166432 60.6981177288 253.9077063474
225.3172211766 69.2387112972 253.4111924773
213.9937188497 120.0584222073 231.0136925689
221.4959565377 75.3626130378 250.4435275492
222.7916393910 132.8224006413 227.1102353150
204.7608896353 99.0318227396 210.1414378322
212.6660570926 141.2343012758 221.0388472027
213.1479107782 132.8002397407 228.0924321168
207.6110774390 134.5942367771 231.1794501562
212.1528300486 94.3632122300 214.8995135917
194.7096645375 138.1492189924 235.5897436797
221.4852609557 79.5869068441 246.5850972181
225.7451404582 47.7932842587 262.4578606696
212.2339062727 116.8213277447 233.4280949231
222.5060053710 69.2843658275 251.7656327821
220.8950246049 57.9143329149 265.4927989123
225.5381032763 65.5559818674 247.5070031338
216.2612901746 136.8494744688 210.9480963862
212.6365133874 132.1591011076 234.5543686461
203.7115979395 109.8720052021 228.8603366520
214.9362586421 134.8619850494 226.0917163028
217.5309495616 143.1264321696 210.0682600781
219.6152602717 54.5407261112 257.9216629054
227.4169340661 60.4273103641 252.0438511946
203.5298604616 110.3038935923 227.2343613007
212.2609893017 130.6340278074 225.6265563961
223.5410677563 60.5835604504 251.0489981823
194.7659767379 127.3064038045 237.8618895644
205.3821976803 125.4314879943 222.7426597343
219.9027944274 77.5327613725 239.3819615852
215.2958736215 72.4574758623 241.1268712286
204.5595700635 99.4124340728 208.7893077329
224.9986695450 67.2289410487 250.4123519721
202.4025643955 125.9439598070 234.3195509768
226.6212262756 55.6035373196 248.7797038831
211.4829786220 130.1284765244 229.5199700960
223.7397777130 132.4907213914 226.3590403301
223.2860179159 133.9370628284 221.2827755419
213.9791988385 157.1919192333 217.8460149459
227.5647425691 64.2001618674 253.7765142513
221.5429847946 88.2100962161 226.1175419838
223.3477115378 82.8778000322 228.1744203749
229.2578772498 61.5168819643 256.2466633084
222.7617503304 73.7875399253 244.1726408851
221.0665776646 87.9723064318 224.6358990208
206.1860113790 126.4564204354 224.7232495928
221.6938461105 92.2815454494 213.5445583111
216.2700563997 137.9931953198 210.8405149629
209.8377541775 125.9419652440 227.2897579786
218.2288864072 85.7836554489 236.4869457721
217.2556157208 87.4566544544 218.0000747980
218.7751858813 147.4429972034 203.4321469207
213.2775760953 140.6831523928 215.7994445169
225.1694064939 91.5384680293 218.1306033330
208.7143883217 98.5102929405 210.0972811679
226.7608727750 80.1271317162 226.2695587397
222.5060053710 69.2843658275 251.7656327821
213.0671570793 138.7350665401 211.4099591117
209.6132837242 99.7348799175 218.2110628185
209.7806226440 96.6966449421 214.4889444880
227.6714477117 53.6667060568 249.7666063850
207.4606905288 111.5383697614 217.0644559344
193.9678407831 127.2721228009 234.1057152856
216.7282910873 91.5513453937 212.3469750477
225.9722411415 53.4698347345 258.3845264305
226.3870029946 87.4267435566 240.2176339646
215.8290230271 143.7845051282 200.3774899388
220.2043192623 144.0718303540 206.1386803292
229.6513765625 57.4681319583 255.1694298993
216.3258645776 137.7838720642 211.0932291630
211.8699866195 120.5811163674 231.5643774588
213.3379585163 135.5915925526 224.5949384494
200.4584149866 99.1462856784 212.6718259977
219.4541627656 87.2399204774 229.2125576817
213.5487467282 98.1801690638 217.5503244664
214.6457521889 156.0514343771 211.4238140381
222.8885713862 83.9612547293 240.1385606144
200.5771179928 111.3553072052 227.1521372996
221.1252664860 97.0012251217 212.7335374838
202.6025936254 131.7768726772 238.8461275141
214.2010345332 148.4443601390 216.0211359745
220.3897610278 77.6323902710 239.2836717654
225.7968111068 72.1381040913 249.1017207126
211.7497365997 97.1540541215 211.1849638907
203.0483428409 115.0072801729 223.2990439080
218.3049952867 135.9052733187 224.3743860367
216.7697663976 133.0739337500 232.8409030423
224.2937576058 130.7321179403 224.6496762309
217.3359180883 140.1991200197 208.0868840289
216.0309141785 147.1993478582 211.9885747052
203.6596501128 113.7384983781 231.2082790505
219.4727466184 137.5942874022 215.4949515195
198.6517658868 125.0944895196 232.0283485899
227.5908868582 94.8312503094 222.2366333251
206.4513282442 134.9570146999 234.9803743506
212.1995836947 128.8720715927 229.2916251641
223.3859894564 55.7474772173 265.8450281744
223.8359354213 82.4744503553 238.2146838179
223.5898483669 62.2244796109 249.2657174360
206.6452158919 100.9580734347 216.3365633504
202.3024433707 121.8859620499 236.6809777439
203.8743674228 124.5175317023 223.6399230751
194.4395107859 138.2850159536 238.5174761203
214.8463130875 156.2116813401 211.3847897635
217.9111309980 71.9338395991 238.6745589966
224.4840216592 88.9627369511 225.2817431071
193.6589299668 139.0644919548 240.2472279342
210.4572272927 108.6302335156 225.3079912473
213.8326931464 140.7017327529 222.1313839946
218.9658128292 137.8430390914 214.9924316512
210.0364685501 132.2360550821 229.5395622243
220.3855371200 133.3881899423 218.1784014660
212.7775444195 148.5994639303 209.5761534871
221.5874184506 133.1208287697 226.4876099591
212.9428882524 133.8254175175 229.0508533227
213.7870479495 134.3211757063 231.1044249005
212.2339062727 116.8213277447 233.4280949231
211.3125025229 134.5381099078 232.9311388444
223.5092841271 59.7204108830 263.7006895153
215.8514837216 136.5707630242 219.1281902016
215.4102569143 142.7752367961 206.4681215755
203.4157530283 99.3217912742 209.3691264392
215.1072404620 157.1865977760 215.7195176148
211.2876651078 154.3778073284 218.0791178102
218.1735097850 77.5405300597 240.7247223376
214.4341085392 136.2658009250 234.1297701518
226.2653598518 81.5910339896 227.0454211311
198.6890012286 134.8233960366 235.5418263853
203.9288813276 110.7344216112 212.3682336302
227.7618111131 78.3922117815 222.7551413117
225.8462858400 53.5411100830 262.6635939928
225.3756143252 82.9018015025 222.8574750475
220.5221373248 143.3976666588 215.9821684696
198.1197397548 132.6621168247 240.8623480553
209.2808345125 134.5298482191 234.6225696314
200.3242311697 131.7779264075 239.8809652970
224.4376578852 54.8732512414 255.3910604214
205.2790104960 103.5433476708 216.2568101686
219.0804954323 146.8810123088 206.6634256281
223.8695351189 86.7904949434 235.6922315142
203.5232616286 111.6170575333 219.6230749593
199.0396071110 133.8345785395 232.0306666190
222.5364529342 134.9910900554 226.3102309699
200.5364809265 125.3244041627 230.6454334335
223.1140582683 82.0574836847 234.9357076802
221.4588057793 88.7333929367 221.3816048438
210.7137929822 102.7439736443 216.3039861153
205.1145684046 132.3297033887 241.1229916750
203.4574924510 110.6389268014 215.4922701489
204.0604174966 125.4390738299 224.7632258932
194.1796138182 132.0703053524 236.6268637521
221.1358736597 57.1370710373 266.0267977179
214.6728355964 130.7835181121 236.9042480099
216.6094823537 83.7475918048 246.8742018704
199.3052135840 121.6875201663 234.6478751759
213.1897163958 133.2890879133 235.8639015071
227.5971914693 52.1837680218 264.7159641962
225.2394968903 64.8355496381 253.7351458696
216.7401610355 134.1973966401 215.7332067741
203.6506139286 98.6423130461 211.9632705403
201.1250949339 108.4568114991 211.0004704963
219.8957927952 133.8930523772 224.9034355748
224.1870988647 74.1336017214 260.5794938109
196.2704417943 136.7645602566 239.4322042616
221.5949028864 58.5469622224 258.2764594518
202.4718820466 125.1036642523 235.2436471551
195.9590391835 140.2431638074 240.5977384162
206.0931642333 117.6441575899 227.9543575968
216.9208746810 129.4367613283 224.1183139922
211.4531997160 155.1513259150 212.0961736825
212.6929614874 141.4394226829 220.5715181949
219.5958274352 84.7503284990 243.7041811844
195.7859110500 137.8204614124 235.0138645830
217.9650723364 146.3654747521 201.5499911398
223.3477115378 82.8778000322 228.1744203749
200.6829836627 136.0841557907 243.3695116774
221.3658076534 91.5554964703 209.0411407971
227.0249180046 48.3283770521 262.3214946724
212.6081180915 115.4181354333 230.3059936989
208.6496656709 110.6695893867 216.5575513781
231.0790366423 62.0933081216 250.7169743234
195.7974151887 127.5753905383 237.7924890998
230.2557722961 65.0277760244 248.5785764029
199.7934315510 110.4300539621 231.2862435270
223.2573900337 70.3938995021 257.1314889965
219.0927517520 144.2470395003 220.4833733109
226.1795076222 81.6223317414 227.0388616386
228.6818026249 83.1037451827 225.5512464295
209.9128277059 103.6898238582 217.7171955821
212.3737959810 102.0011388343 210.5394399689
224.2044325613 78.3520089816 234.5812675535
225.1014645588 87.4457624728 220.0214321957
204.9287829275 122.8720792603 226.5892355431
227.2963310496 66.4654690969 247.9466392136
215.9810232242 81.2934317282 244.3630364149
216.5199161286 134.8641134277 234.2731947603
224.3332935023 48.9328906994 265.7379069927
193.9678407831 127.2721228009 234.1057152856
221.5823405849 90.9369724786 239.9800328598
213.1095851619 157.1139359413 212.8068753538
209.6987872676 99.8471970008 209.5738652233
203.9193104198 132.0195913941 231.4532011591
225.4989619673 68.8068210713 255.0371682846
209.0175596570 110.9434715943 220.2244175972
220.9043222649 76.6424924611 246.0903902395
215.0755991092 149.8045890323 214.4670340238
217.8885997188 142.3272115525 206.6534347159
223.3294703137 51.6437681241 264.5348616013
224.3475015271 80.1912965953 222.3016298778
215.4225206088 92.5970084186 221.2747000105
209.0624643341 134.6769861738 237.4824499010
203.3867680735 105.2293953860 212.2761732073
223.2633427079 78.6381802550 237.8738410512
203.9365470286 131.0533436190 234.7752081431
201.0461651514 133.3407176961 231.5103678366
203.7671151577 111.5713479091 222.0997079780
210.2215318743 108.1480857925 225.6817506033
204.9490092553 122.7846682685 225.2537973190
219.7751620027 94.8888411612 220.1274771783
221.2273803845 56.0064664816 265.7715836338
227.2767081309 55.2010200025 253.9254424858
214.4266844493 144.4691111814 205.3407340086
217.7966026494 150.6002383538 210.1741556210
215.9081999370 126.5870122624 225.4213005242
208.3645774826 131.5935145034 231.4831893814
209.9141461330 119.7082323248 230.9576162753
224.9194843633 82.6581105456 228.5869907184
225.7400018586 63.7788377877 254.1272593737
223.8663147561 43.2947052202 264.9219524825
208.3461990533 118.3844035819 226.0268744368
220.3897610278 77.6323902710 239.2836717654
212.9800716568 133.6322964616 226.4371019472
207.5636667398 138.5871273467 238.1160353699
215.0102994062 130.0182589926 236.4081387284
200.9177990769 113.2198551213 227.4981359080
209.9128277059 103.6898238582 217.7171955821
223.8086584850 69.4320780706 256.2818662404
224.2159602532 87.2146765544 232.6324594261
211.5060675982 102.0052277219 212.1752109766
207.6200800364 106.3035837833 212.8699617598
215.7631563001 77.2958661012 247.4534515341
227.3679208875 62.3796360285 254.4767568942
203.0439067987 135.2239987360 235.2109742343
223.8861315597 46.3090554176 266.0788373642
225.1967053199 44.6150519315 262.7500309982
222.2025082440 82.2088583732 223.4662237952
209.6574156442 123.2476239554 224.8678596955
219.3636985861 79.8452553472 240.8086525727
193.9161340918 139.0560597915 236.0539786643
224.6902773195 79.8813232895 226.2417218290
222.3169062303 78.7381489793 239.5807045169
224.8275816544 83.8099533794 235.5648781691
219.1681816431 147.1605479167 207.4444998177
214.2482406020 137.7917162500 213.7522828577
231.9457840783 65.7998812300 249.0360159575
227.1916504594 45.6857121001 262.4382629015
215.0889829120 93.2845742622 214.0339063701
209.9892406082 105.5218228427 213.1742955448
228.0425419723 78.0080221932 224.2387713461
215.5758531103 116.9657851331 227.4503349231
215.6161039988 117.8559431326 227.9622186221
213.5555734518 133.8567496734 237.8335700157
216.6242900746 130.3810914726 227.3138809439
219.4986251249 96.9431356083 209.5164945904
204.2200227128 112.9345175097 222.6036583472
200.8897642020 129.4874322780 234.0422853162
219.2163277292 81.1693329820 241.2731200913
207.9887141660 102.6032305463 211.6090062978
200.6990741568 139.4601642029 235.2505952819
215.9001398633 80.4201306417 245.8690942062
202.6748550238 99.1825194297 210.1722228893
223.9650998811 50.2421052007 264.8990684472
207.0266255850 127.1431872190 230.7172011584
238.2120902123 58.9447896589 253.1466419338
215.9229124638 131.5408732808 226.1189909221
216.4493993988 96.5183138412 217.0008355343
227.5783337455 89.5013374831 239.7047937880
224.9217002195 89.7222833529 224.4383914247
224.6620649259 78.3813102396 235.4101683325
221.9726635895 73.8978724932 253.4318489669
225.3868455445 94.5523026307 223.7560877167
218.1668558092 86.9889498250 218.2894832708
222.9668251324 64.4571631595 248.9277778945
209.6274154602 107.1563836189 222.5507093920
216.7692593262 148.1098720819 217.3741842168
221.0417552344 87.4323927853 223.4191078605
215.4003506073 137.0229077779 213.3534758011
203.5232616286 111.6170575333 219.6230749593
225.6787715143 79.7046996118 233.1101057269
224.3258530910 50.5395351902 261.2165705704
225.4613371337 82.0280346242 237.2563995710
220.5558940873 89.6223585843 225.3611786011
220.3411952957 86.2545035028 229.0811932459
225.7210606013 60.0320660879 254.0729826635
205.1984157975 107.8316861614 218.1067371276
201.2757639258 139.5023696792 233.5731733449
224.1566752514 93.5422715252 225.0133691165
216.7148945611 92.5462778437 214.2242537010
216.1527632977 138.7261747677 220.0780387126
231.8447923396 58.4320694697 254.5087572330
224.6545762863 91.7987665311 219.5306466699
205.1628385171 126.4043396013 232.5078079947
229.2271616536 63.8265225375 249.7317271574
211.5917489569 153.6357385200 212.5428134960
217.7594549321 92.3203998005 216.0747026923
221.3910020453 88.2288463982 219.6974672436
222.6124051064 58.4788684532 253.9746780495
226.5578480227 81.7613980317 227.3798936800
205.0673933685 105.6085972706 215.7143900236
226.2487062732 57.1010272561 250.0855683408
223.0285282976 130.2168294215 223.3563305542
199.6842136384 112.6562822488 227.1642384071
225.5083567034 73.6967500419 252.1496021838
235.5785589207 57.5880678057 256.0896405541
217.7713590935 88.5063072853 219.3988479238
203.8661153464 114.5190193901 225.0197392382
224.1145406293 43.1681431458 264.8678220851
203.9325491541 114.0176186045 223.7099305816
192.7826908777 128.2117705939 236.0045699335
216.3174254991 130.9964841586 235.5345196165
194.3435449895 124.1154023774 233.7069223225
216.0070801012 134.2036143357 236.1432815916
224.9696518877 50.9434500867 266.8660079230
217.2078817025 156.1350179830 209.5347490066
225.5774706051 90.0698334836 237.2732387904
200.0831097619 124.0803321769 237.2669951711
223.2435389339 46.3131363431 263.1925515872
217.7952406932 92.0130305040 220.6594455137
218.5036697024 84.6009727226 233.5443540780
204.7672717774 123.2165566587 223.6278219677
221.5194391000 80.5128355286 236.1699436774
207.1329187862 139.7182713989 237.5251669078
217.0635735407 83.6395666857 244.1223911307
214.7776134041 142.6034748593 201.7642917220
209.4294853326 111.9659859411 225.8238823915
223.6409647407 92.1677009906 217.2715665667
208.1828098480 134.7865762568 237.7555597238
221.1523846205 92.0048882940 213.6909471153
237.4192820051 59.7925247580 251.7781107301
203.3190361564 122.4361750549 229.0839641446
209.6578880966 110.0248656056 226.5399363693
208.9255143062 108.8804772688 223.1294065738
212.6419852508 155.1457258543 209.8551795699
218.8757308054 72.2012806914 246.9654492192
213.2582550255 94.7805008059 217.1651832989
222.8243315309 83.6488457057 225.7109224629
194.4024455377 131.1493322128 236.0790429641
216.5814538420 155.7358058324 215.4989913543
193.1744268967 139.6267109961 237.3650547532
223.4795815343 82.6459407945 237.6607555500
215.9707455959 91.5032056397 215.5905553570
227.3881948109 68.8029841871 249.4945581952
218.1983813829 81.7476267920 249.1563291886
212.8882377260 118.4565861845 232.3876993065
218.9977480378 76.8743591212 251.4220493954
215.1010002063 143.6857430456 203.9306515194
223.2633427079 78.6381802550 237.8738410512
223.7086936190 131.2342701310 220.7487256860
224.9007758181 75.4216126540 258.3709221259
226.7591629990 51.0432970849 249.7488935633
211.4611285396 96.8629437664 216.3966288477
216.0136020113 130.5625536331 223.1948865253
221.6443471874 86.0125899636 234.8479516255
227.3330122881 83.1268306264 235.1926084733
218.4170442695 148.6220006223 207.0726555666
211.3759670245 110.3107037705 221.1230661909
205.4465470754 111.4999637544 212.4351457150
213.2064723224 149.0004507470 211.3117793984
216.0892756801 148.0879434731 206.8794645613
223.8334336559 78.1171619134 240.7636207752
210.0437308592 100.8805038128 209.5208386268
203.8390094444 102.8624455961 210.4447947784
222.9335233484 47.9221804789 262.4185892745
221.0618385902 75.3037886987 246.5842187309
222.3854574661 87.0074952264 231.0425810821
216.7697663976 133.0739337500 232.8409030423
223.6190462176 87.5710662633 231.3764790390
219.7341437647 81.6825963272 238.4561944246
204.6774043446 123.4515623109 231.8360169446
205.3154378511 113.5197693105 223.1586077639
203.3352655201 130.8000455821 232.0067176936
220.2139618728 143.8167492121 201.8375344277
228.0466576136 68.5467659698 254.9114354784
215.9139297319 132.2289502144 221.3076770308
199.3455029560 109.2554815645 229.4038487422
229.6513765625 57.4681319583 255.1694298993
216.7351731120 153.1210008397 213.0081983269
222.7513211476 87.5751533153 233.0122505027
195.7859110500 137.8204614124 235.0138645830
204.3045165847 110.4153175459 211.7812724224
209.4928152264 127.2390214851 223.1409623891
228.4727638016 93.5060522469 220.0319675602
207.9257976909 134.6654193891 234.7228450370
221.2657626577 130.2039777566 222.2942045111
200.3182649851 126.7417821196 228.9014376398
205.7254098258 108.4919667170 222.5613913316
221.0665776646 87.9723064318 224.6358990208
219.4798497870 141.7319982529 213.2768816447
220.3855371200 133.3881899423 218.1784014660
231.3221203183 57.8543759978 253.7734587416
201.2757639258 139.5023696792 233.5731733449
221.6066103624 75.2648474941 239.8860649512
209.5591076350 95.7355198796 212.3746651348
198.4335499454 126.5118674765 230.2843527961
222.9668251324 64.4571631595 248.9277778945
219.9286417337 142.8643338380 204.0134339845
203.2595497936 128.6934165113 233.3223005901
216.5147764611 76.9785025821 244.0296671596
213.6139073975 70.3413736414 249.5098020236
203.9325491541 114.0176186045 223.7099305816
217.9692286980 72.6032546777 238.2735115038
217.9967614819 141.4339812348 220.5181670565
194.8899340830 140.9971514455 238.3828524603
211.5615808881 155.7466479042 214.3562188775
215.8828543806 93.9564253235 215.6558409752
206.9105608633 104.4791882004 216.7039052057
224.7677501595 74.1402963733 248.5923022836
225.2244050983 90.5688516482 218.1445080046
211.8962307113 100.8140094373 208.1424913812
207.0397017640 134.3758904886 231.3780030446
222.3506280244 47.6141086587 263.2046574223
224.8630135080 77.0219918010 245.1482313182
201.4118427490 132.6983738103 242.1030220468
231.5368521405 91.2726597284 221.8504500453
215.6686415194 71.2530544423 240.5974738712
224.8267150577 131.7019747148 221.0594344170
209.4226232997 121.5093224753 230.0333947297
210.2870802224 128.9833662780 227.8227012184
211.7497365997 97.1540541215 211.1849638907
223.5898483669 62.2244796109 249.2657174360
202.2013103636 134.0911059865 236.9393299401
220.2238839920 136.1328346965 215.8667957705
206.5910429435 99.3738805532 216.8329783883
221.5827013866 93.6249561013 220.2622605232
225.8793453486 131.9843435143 222.4962557664
220.0487632137 94.1834871388 208.5604105834
225.7235569651 80.6332642641 232.1958900638
215.7384191539 69.1323928886 249.1220929370
227.0972117393 88.7613602670 238.0880340096
216.8746586358 93.5706370295 216.3423075178
208.1849120898 99.5683196333 215.6634686844
205.9014444476 103.6730511253 216.1051973612
209.2553699776 133.0637499290 230.1269277908
213.9956802304 93.9659659183 215.9575801476
226.2653598518 81.5910339896 227.0454211311
197.6720500447 125.5583391343 234.9013663342
208.4956749160 129.5767603824 235.9481954673
219.3498284264 71.8695340762 247.3723884685
224.9356776792 61.7043615816 253.5170358566
224.1566752514 93.5422715252 225.0133691165
223.6190462176 87.5710662633 231.3764790390
217.0475923358 77.0347314868 249.4203330281
221.6434468092 78.0339810568 233.6441581618
193.8664183482 140.4930519580 237.4314394696
221.8064385754 78.9051042739 241.1990502422
221.1029392627 72.3026398525 257.5452095224
229.2937489484 58.4435319578 251.8392021731
207.3309437103 129.3607371445 234.2509891947
207.1206677138 129.4427649422 236.2294087821
207.1024084089 122.5454117175 224.0608335458
235.5310849786 61.3291306952 255.7450384656
202.4025643955 125.9439598070 234.3195509768
228.7313819357 63.6675915089 254.8690514991
206.7318133535 122.7958677029 231.8391887274
222.5730910283 84.1856240279 222.3132890603
205.7031620216 113.9057324262 219.8457312753
223.1779758235 73.3274683176 259.9807850545
213.6249291927 120.2757276189 227.4566899904
212.9222521165 155.5543542857 216.0045699030
221.7271711131 86.2405090037 232.0515501906
214.7674422250 131.6551333175 226.7416324639
196.2033883004 129.4257919562 238.2647436489
206.3587510513 107.4923027498 210.9087713823
222.6051699578 80.1180621949 231.0763558467
224.1448159281 76.6460294734 241.6846233808
211.8701063095 109.2105341245 221.2944075543
201.7475769021 107.0043198674 212.6442857943
218.0847360080 144.4989201225 210.6247119245
218.8540001224 78.9412864430 246.4812327124
205.9272942925 111.6474143781 212.9091455964
223.0777383773 73.3681911677 248.1348627290
227.1907236098 89.9100386792 240.1922823341
214.9483395579 94.8252503426 214.7224652981
207.2565633625 117.7860774455 227.1006936386
199.5110619921 122.7625310496 231.3677629176
208.0412905504 113.6715432175 224.9558944747
218.8345762418 148.4819299526 210.9310947170
218.5791596781 152.0963861660 212.3522416169
226.2530918091 92.3183181465 226.7490073716
206.6354908057 109.3269503177 221.6532588397
199.9441180056 114.0912281423 227.9571939032
215.1433769215 89.1657118034 220.0640668360
206.5257534275 134.3513557977 237.4661500180
203.5895309310 123.8790699541 228.2424012938
203.6349689437 106.1563303356 208.9706795562
216.4406665795 135.7719400817 233.6094713694
203.1558838024 123.8014920751 230.9150156441
224.1516023799 56.1429418629 249.5179495058
225.6830075921 88.0829094720 240.9715331115
225.8254640551 78.5232300953 234.5565043742
207.3450273774 103.9820611391 211.5126262703
214.0669577991 101.2687480954 214.9499851873
225.2394968903 64.8355496381 253.7351458696
209.6298370265 98.1607407889 214.9880582903
225.4989619673 68.8068210713 255.0371682846
209.8917438497 103.1663641599 213.1846104253
216.8468606791 134.9153292202 213.3338836727
215.1547016719 134.3922237841 219.2001614006
205.2019291485 113.1280308309 217.1472966961
226.6381337517 79.4545065348 222.6162694680
218.9695495237 91.8323750307 220.2919271273
193.4506389784 125.4163783388 233.7190232020
226.8641528220 61.3573854143 256.2150849521
222.5364132451 87.5051865093 226.5834347250
226.8431772139 48.7602672781 260.6955188651
203.8800320162 133.0807191875 241.7913187168
217.8137458395 142.8866252951 201.0832316908
215.1205613339 134.1142432697 231.6579790538
218.4381553219 77.8932381334 239.7617526618
221.4677970856 145.3695330203 203.3545668910
201.2277240632 110.1380660890 225.4276309532
199.4118179144 139.0908966230 236.6493745183
212.9428882524 133.8254175175 229.0508533227
213.1305119768 153.9805628523 219.1371839102
227.1336144764 79.2930936580 226.9636513408
228.7393676598 63.0337696482 251.1719411369
234.4539610933 57.7978089193 254.0061291978
217.3492668612 76.3330651730 240.9637142805
198.4166882730 132.6640978560 235.4668678774
213.2582550255 94.7805008059 217.1651832989
216.5388220006 150.9734857601 215.3351544302
217.5739503640 91.6545534343 209.4930369994
223.2038688916 54.7876804973 250.8974723993
206.3791931994 114.8531872224 225.9348052122
216.5388220006 150.9734857601 215.3351544302
220.8590069405 146.5277595271 205.0363163081
220.3126513087 79.1702042445 238.4299629190
213.6509928115 74.8981871682 254.0434116099
217.8179280334 154.3159922299 214.0266084271
214.6528097434 70.1262787762 252.2261525439
228.2550142774 54.8822051361 255.4229754351
206.9713175291 128.5994955779 230.3825261597
205.1984157975 107.8316861614 218.1067371276
195.4512745862 132.3284691059 232.8912707795
209.4193518396 128.9874551656 229.4584722261
219.2689323521 95.0629429064 219.5200614560
215.4201995243 99.0769532798 214.5327293547
222.0911156003 130.4424362161 222.7257754962
204.7512009114 109.0281785811 223.1808856725
236.5504142649 61.2754826635 251.8730209876
225.7400018586 63.7788377877 254.1272593737
222.4507652412 82.9194418819 240.5476026550
209.7533001844 101.4626892170 214.0449001951
218.1768283076 148.2224561085 212.0617602408
212.6279825290 154.4508586685 217.9183669431
222.4056197193 91.9408610659 223.7841906980
223.5789679375 74.1458945984 250.8332968522
221.5114033388 74.3744612265 251.7076331116
215.5522157917 92.8740894727 213.8648338448
202.2843888204 108.0295055797 215.3208775263
212.3102697645 98.0409483348 207.2226748251
197.6571078763 132.7301634422 231.2104463551
217.5848991239 139.6074346281 210.3144602887
210.6409283566 108.2176909925 217.7781169709
228.5057723338 63.1223374428 255.7354221524
218.8954667199 72.4129920670 239.1743578323
208.1123103121 135.3719383723 233.8778847354
223.7870720732 91.8088680796 219.0054654506
196.2033883004 129.4257919562 238.2647436489
219.5272835074 85.1771731413 231.5409440043
224.6207386551 65.4815840654 251.0932448628
221.0506834685 158.2173430419 210.7964660239
228.0707642567 77.6579949050 225.5192864938
232.8202244649 59.6215239798 251.1310642696
213.2909631291 101.7320530321 213.3172186577
226.3219423088 85.9683406159 223.2739686672
201.6644223171 108.3780701847 212.5376773137
208.4673831510 115.2667240772 222.7184884108
218.0939752043 77.8651630321 241.3126510278
217.7406473265 133.7538458595 217.2534671385
218.6007556407 87.1666840841 218.7723866471
218.8940565443 140.4883331328 215.5882426996
222.5364132451 87.5051865093 226.5834347250
196.0695767353 131.2075540163 238.3967654386
198.1931485012 124.9430825953 235.4970937126
212.6005786178 95.1844454468 215.8694510659
204.3872036907 100.9184919629 214.8546858321
217.1172144914 146.8879484203 211.7107035526
232.7635598967 65.3116186118 250.7567117437
198.5460028501 127.8507729954 230.0084249549
227.0506730850 73.5635632315 255.1072396947
200.7154570569 110.3341329931 232.1841687895
230.2152444640 64.9123968723 255.0395184391
220.0500992370 145.1768915151 207.0228169213
203.2604883946 138.6044889282 234.2789153248
205.4079796390 110.1137624837 228.7528497804
204.2392471462 102.1779923193 209.4380730320
228.0732734867 55.3140953619 253.7969996279
211.8701063095 109.2105341245 221.2944075543
215.0755991092 149.8045890323 214.4670340238
224.7331023231 78.7806596351 233.4580814105
226.5525063854 76.8870748370 241.7304787587
199.9441180056 114.0912281423 227.9571939032
212.2688713790 109.0097287269 221.1109650834
221.9182682406 96.8565380985 215.9671622378
213.1504240769 149.8813272837 209.5042751236
216.0892756801 148.0879434731 206.8794645613
228.1586325492 80.0010090903 226.3989008331
232.7955543726 60.0089761147 255.6961280568
218.2680561776 154.9928355224 215.0287980392
202.1822933602 123.3621990143 237.6405551492
219.9930460832 72.1847058961 246.3974869914
212.3988754224 156.3253981235 213.5410724470
204.9973467911 131.4305187692 239.8606790041
213.8983910370 120.4594324839 229.7985013712
223.4221248338 93.3373382192 217.3692341462
218.7382027279 139.0634178457 218.7981701275
212.1965198423 125.7940519247 226.2725774128
216.5478149831 96.3010627268 210.8349684616
197.6720500447 125.5583391343 234.9013663342
222.6051699578 80.1180621949 231.0763558467
224.4238740816 80.7572483892 230.3113626752
225.9722901866 88.2499696230 223.4811351582
214.4341085392 136.2658009250 234.1297701518
203.8023995749 114.6283787166 230.7568333060
211.0671275072 116.8887633927 227.5208901536
223.3150463049 44.2565266518 265.7715752388
219.2545234295 82.9899090716 238.8710905441
215.3798270667 129.4883277870 233.9325401649
199.7616622562 131.2745494517 229.3156572988
226.0065795714 82.7232194633 228.2295164361
220.7195460477 90.5428007489 215.9660260693
223.5410677563 60.5835604504 251.0489981823
202.2843888204 108.0295055797 215.3208775263
212.6192195953 97.3067332940 209.9868195512
211.6589857559 101.6446216968 217.0248752814
204.1708072874 109.0099589061 222.2176517965
208.8275564371 124.0730745908 229.0164015470
213.1281952452 120.5751975306 229.1925176452
224.8295792101 129.9637242006 221.0600692300
236.2494516645 60.0049723742 256.7822265412
227.1914328710 64.2278116711 247.9863688271
219.2545234295 82.9899090716 238.8710905441
203.7880863050 122.2754803123 235.2107335276
218.6361894868 90.1911112421 215.9660822886
224.6537112397 81.9861877370 239.9353796041
215.0417948732 93.1507386260 213.4196606009
223.3036186573 86.1898116941 223.6233759801
206.4936914633 112.1157328604 215.0297710305
226.6104538636 52.3479089925 259.2219121958
198.0526712746 137.6531121332 234.9047538214
219.2872743193 85.1978542292 233.3997311507
225.9722411415 53.4698347345 258.3845264305
222.7912894808 79.5358560690 224.1493593962
217.6775013223 77.4576060875 241.4630042893
215.8044007449 134.1926345191 220.3575441400
228.9604059998 46.3387388123 263.6011606378
222.6240014739 75.3572897450 248.3170306740
222.4391486918 82.4998358049 231.2777912738
226.0394877830 81.5964622307 230.3664349422
223.9916756558 64.9871624130 250.8872826777
213.2148579092 141.2217464336 212.1153002228
220.2001927071 76.4317833009 249.6886260547
221.8106291754 84.0408529110 230.5696097072
226.2272949145 85.0181933683 234.9445260158
196.7437643447 135.2254291251 236.2307655479
216.1160228733 145.1177243657 217.4217159108
216.6039974495 133.8472227911 237.3992624348
217.5334708695 145.4607397184 211.4743351367
225.1627191038 61.3371645332 248.4834941754
221.5766597082 71.0320171638 256.4007353056
223.9447105218 91.3911449654 219.3994316122
226.6760575425 60.1194617955 253.9450929201
214.9294474639 95.1338547967 212.1214984923
205.2063456006 110.3143352130 225.8047636553
223.7397777130 132.4907213914 226.3590403301
214.5002590704 91.3929649147 219.4587060505
225.0926039045 56.8628695785 260.0193345864
191.7260470354 126.5410948420 235.4665872332
204.9190348476 134.9531052630 241.8305242536
192.7826908777 128.2117705939 236.0045699335
216.7102835807 76.3716351674 239.8566014752
225.8290944112 56.5276966996 257.5859010060
202.7819748556 136.4668182693 240.5276746122
214.6457521889 156.0514343771 211.4238140381
216.1527632977 138.7261747677 220.0780387126
223.4775087097 62.8071110070 248.2024983141
216.7668195303 128.6108173510 228.3226265051
201.0461651514 133.3407176961 231.5103678366
202.6924957621 108.6636114266 216.5081762837
222.9559735977 49.4359672333 264.3003648744
207.8412064428 97.2299079985 212.1317515551
226.3629232617 60.5796819835 253.5166508288
206.5321320433 109.0848778872 217.9728102200
215.8670215234 134.3872860393 211.8365516038
223.7643651795 69.8086432922 250.8444210786
208.5731212918 129.4635467407 236.5829052276
198.0478879967 127.0456513072 232.8859798152
198.1982741262 122.2722584589 232.6656930899
202.6719710313 121.3560308442 234.2053791804
228.1311505542 66.0466306689 253.6647413148
202.2518842564 113.6748910867 226.4139590729
218.1668558092 86.9889498250 218.2894832708
216.8378884305 81.8064696336 247.5902563041
209.4379152937 131.7051565141 237.1688584247
215.7853232622 144.0653215954 220.8164811656
226.1690597960 59.9241568245 250.3837749985
218.5097729406 134.1649644146 225.0163723686
226.4579938497 91.1324226852 218.4784059616
208.9672859910 95.7075866763 209.3219637801
211.4821525424 130.8059808689 224.7205749767
219.0335282378 136.1805288841 213.0163887063
228.8688412938 81.3356258008 224.2693008780
225.2864626785 83.1804905498 228.4152503719
200.3508436897 123.7752977286 228.8047838097
215.8044007449 134.1926345191 220.3575441400
202.9586808514 122.5704633573 234.4278572998
227.7516207854 57.6330133877 257.4545106870
213.3662249680 148.0473046830 210.1808327131
215.5758531103 116.9657851331 227.4503349231
221.9383900093 90.7267755173 226.1813984091
201.3862722555 127.8872108495 228.7281568509
219.2163277292 81.1693329820 241.2731200913
227.1812435227 74.3021476423 254.8145268001
217.8179280334 154.3159922299 214.0266084271
216.8941205112 158.2388956048 216.0255997831
221.3692491445 147.1460385890 215.9908911592
215.8481364950 131.9071780293 237.4232583345
226.3027122107 83.8029899197 232.7840832116
214.1015412922 71.0881002078 253.0757753001
220.2028484590 138.7029374136 218.4183799629
199.3187051912 131.2323618146 239.1941223839
223.3150463049 44.2565266518 265.7715752388
203.0192874832 108.3014336006 216.8555931769
223.4628508715 76.1403962587 241.9165555101
195.4353634472 124.5184975879 234.4247651819
198.4904791766 125.6007219363 232.1660807993
193.4506389784 125.4163783388 233.7190232020
222.5216840131 95.5667007675 216.5721768535
223.1885125746 133.4525409874 227.2086635423
214.2482406020 137.7917162500 213.7522828577
225.5083567034 73.6967500419 252.1496021838
204.3260759367 125.1809670931 223.6061474636
222.1059037321 90.3298176955 216.1414180711
197.8511165714 126.5215955542 234.1652361309
217.0317420164 82.2801971506 248.0637919408
217.9270880374 135.2019103706 213.4979019572
221.2831303221 78.8352323594 246.2256670543
203.8743674228 124.5175317023 223.6399230751
208.4844658024 97.4683833134 210.7607908910
207.2972958141 111.6110693067 227.7134710762
209.6858000239 121.0801633473 227.5649036589
208.9667320516 99.5749624305 210.7914513934
217.1783711904 155.3794142879 216.7549721974
227.4860670468 44.9860481822 265.0723224645
213.2944016681 154.0208151453 216.9991674799
207.4129514363 109.8532476197 212.9365175056
216.7638795267 151.8314800969 209.5258841573
230.1372426335 64.6615061383 248.8235946655
210.2439526001 125.7775687794 223.5128066401
215.1698301814 144.6956705611 200.5440369849
211.7706965244 129.9567604879 229.3250892202
221.5650093089 78.3092695177 248.4102261026
219.2400331967 145.0814377725 217.7945801662
213.1576186473 138.6671058379 211.8980036267
223.9605256044 50.1373121194 266.2673043501
220.6357717248 89.5465355235 220.8614585773
237.4562358833 57.0047412258 253.1706387456
217.3825388900 127.9397028925 223.9501386977
224.8729299217 85.2071385937 238.6648396398
221.4959565377 75.3626130378 250.4435275492
218.8667717108 53.9038857404 262.0893490321
225.4559363946 79.0531613009 237.0321029377
210.1816584659 132.4994170750 238.0364997554
198.5933238491 136.0888182027 235.4381085442
208.2269561294 113.6246384262 220.2239967306
220.2139618728 143.8167492121 201.8375344277
226.6381337517 79.4545065348 222.6162694680
223.7643651795 69.8086432922 250.8444210786
194.4448169753 128.9769255295 233.7185810620
201.5085719021 121.2141109886 235.0590431386
216.1527632977 138.7261747677 220.0780387126
195.9910247493 133.6781195138 237.5621521785
203.4863672308 109.3354624879 218.1301108889
219.3946849598 131.5883017511 217.0271318287
216.3193621098 130.8033564877 222.2741445175
204.2129616367 110.9363908819 212.1012482141
229.1948798978 61.2326410873 250.5872993413
211.6582445794 156.3545748187 216.9261826194
222.0646859676 90.2528303786 216.7383379182
212.8882377260 118.4565861845 232.3876993065
206.4513282442 134.9570146999 234.9803743506
196.7569253128 137.1772272885 240.5624419391
224.4269360430 87.9077588851 240.7231825359
220.2028484590 138.7029374136 218.4183799629
219.7341437647 81.6825963272 238.4561944246
216.5765762325 74.5973112898 247.6213390263
215.9092432857 136.6904075894 223.1741646007
229.0583985424 51.1554855890 264.3667055334
210.0088132532 99.9612947615 208.5704969122
222.5658594958 82.7231637856 229.4056183733
194.5605310728 128.1917313012 237.2965664244
213.9937188497 120.0584222073 231.0136925689
214.6220240937 71.7464690431 253.5559835052
203.5472131182 116.7970681307 229.9568289610
207.5636667398 138.5871273467 238.1160353699
205.3782596588 110.6941990706 225.7537087464
220.8339197335 73.5290936108 246.5436896970
207.7816661407 98.1645092102 212.0851679106
226.0394877830 81.5964622307 230.3664349422
222.6172243123 135.0560302685 223.3996961676
216.4461482247 134.6506669715 235.5477730313
229.2217928923 57.4440702153 255.8695183648
213.1305119768 153.9805628523 219.1371839102
204.7912999904 109.3258983829 229.6850188422
220.7180333237 80.9717542473 248.2036319222
199.1444897324 138.0562073436 235.6225966808
227.4830542885 50.5891814168 260.2970993994
220.4199675209 91.3805599598 220.1849005319
223.3771989710 131.5308475852 225.3533081801
223.8359354213 82.4744503553 238.2146838179
212.9482129293 117.4537788176 226.0777437677
220.3354291273 87.5666339795 227.3343433665
210.9444752876 132.9124247506 228.5099413565
207.7128492174 114.1500224649 227.5750525552
223.1885125746 133.4525409874 227.2086635423
224.5437014153 81.0442227323 229.3830019896
217.9967614819 141.4339812348 220.5181670565
213.8450442234 142.4624057703 209.7420782509
211.9412974454 110.4372714049 220.8750796643
196.2443432382 124.2993975070 238.5561779499
199.8751340541 131.7838435149 235.3486904837
215.9092432857 136.6904075894 223.1741646007
197.1544271912 133.8200375338 236.7084886763
220.8590069405 146.5277595271 205.0363163081
222.0208025874 149.0931716115 216.2931213849
225.0930968018 129.3374858504 223.4177311089
225.3199809867 86.3496000768 239.3467938027
222.9905550104 52.3704636638 259.4450169952
229.1650984994 55.7171933003 254.5148377597
209.3378654625 97.6843541666 208.1690285893
224.9027823999 67.0508994913 252.6343493359
220.0105682967 94.9050394021 208.6706259377
223.4533631060 90.8076775783 237.5215365231
214.6048368521 94.7523883459 217.0201931197
213.1479107782 132.8002397407 228.0924321168
236.5504142649 61.2754826635 251.8730209876
201.5763062035 130.0815526602 231.9480563642
195.0387990246 133.1598879544 237.2071488498
213.7834523776 96.1855047501 218.2861321614
203.9998167083 138.6889938730 238.5072291008
222.6523236929 53.5322429830 251.1121537503
215.4636801585 129.2771503385 234.1129245613
226.9172858256 78.9263234701 235.2743476896
221.0665776646 87.9723064318 224.6358990208
224.1990989938 82.6027060088 235.9068277235
224.8164735649 87.1123285074 228.1085474238
216.5364950066 82.4306854654 246.9972003200
222.1654857504 94.6202792426 210.8323231871
222.8184799566 88.5004817907 219.4351832764
227.3723702042 54.1420873418 249.1515434065
228.0566687913 74.9507078994 258.1679944616
221.2541689002 86.7608464691 239.9922445851
219.5958274352 84.7503284990 243.7041811844
223.7086936190 131.2342701310 220.7487256860
200.4407488411 101.0551161080 214.2853433706
220.2043192623 144.0718303540 206.1386803292
219.2530715267 133.9383383262 216.1437156117
214.6528097434 70.1262787762 252.2261525439
213.1398434805 150.0886559466 213.2686238951
217.6623042699 146.5517132736 215.9977954836
214.1330277443 145.3676352156 208.6987392145
224.8267150577 131.7019747148 221.0594344170
208.8965232704 107.0138448498 212.9241613845
215.1011052072 94.3832544942 218.2232498548
225.5483459989 71.3737557510 256.3950759993
226.0935511966 54.8217178559 260.3419188562
210.2128473225 119.2115265435 225.5831340428
227.6164125543 53.1632699386 262.1780609585
226.7088222409 48.9423877305 266.8957009902
198.5460028501 127.8507729954 230.0084249549
200.6593695193 137.9833538857 234.2788591234
215.1729639749 70.2626687633 251.5310657081
205.4520355441 134.2197627462 234.5039273570
200.4060920792 113.8080309329 231.5423628292
227.2963310496 66.4654690969 247.9466392136
230.0753051891 56.7104438164 255.0176119601
224.7056194060 56.9582095785 264.5282335823
208.7116921105 127.1390719066 226.4058643102
224.4395503381 58.3754676764 261.1485865410
222.0208025874 149.0931716115 216.2931213849
222.5465299284 48.6681687126 264.5857727188
218.9326892622 150.1625008704 212.0377643410
191.7260470354 126.5410948420 235.4665872332
219.9007130029 82.3482541428 235.6423861176
201.3097669361 123.7853973689 231.1649104353
200.6325029098 139.2638952820 234.9441337810
199.6698525372 129.8020707234 233.6474416551
225.4947325987 133.1155590847 223.9380493382
202.1342113495 109.2629485742 211.5991783409
220.3031975091 57.6650512841 264.3199582968
213.6999365493 115.8212306437 231.0238365583
213.6920798385 138.5855227236 218.9924501053
219.1018464905 82.0467314249 243.2024884308
226.1279543970 85.0094257122 227.8004068053
221.2541689002 86.7608464691 239.9922445851
216.2418664521 69.9018467803 247.6417148408
208.4931705719 133.5779244073 231.3243737486
205.6278196242 132.6525800690 241.4747299888
223.0309929364 134.7912465854 226.7148345949
231.6798835696 64.5519201114 254.6597273625
202.2013103636 134.0911059865 236.9393299401
224.6620649259 78.3813102396 235.4101683325
215.7216596208 140.2928909964 208.7075415855
222.3689613705 76.2820157002 245.7105991629
226.6974020524 78.2979925635 223.4664594971
206.2673935254 140.2350476401 235.7039917560
226.0501107511 75.4445687428 258.6882932440
223.7022382115 50.4393467042 264.0054642440
226.1795076222 81.6223317414 227.0388616386
218.1520302388 82.7252087861 234.6383786423
227.2665039028 92.4965442954 218.6982325353
204.0270756220 112.0354124581 232.5585718653
208.5741527497 136.7410652227 237.3325594351
205.5436723479 108.9238551073 220.9354159803
227.5602145892 93.2965451481 225.8753878037
212.3737959810 102.0011388343 210.5394399689
224.3258530910 50.5395351902 261.2165705704
235.5025940916 62.1316767974 251.4710138728
218.0847360080 144.4989201225 210.6247119245
223.4775087097 62.8071110070 248.2024983141
213.1897163958 133.2890879133 235.8639015071
212.3813269306 134.3277905218 233.7543643010
233.0659794717 58.8811889940 252.2934253905
225.1281498835 58.2548692897 262.4367627585
222.1541942132 88.8927510810 226.8579564545
223.3820546233 74.0682432941 248.2735561289
231.7928527586 66.2259025767 250.3830634926
226.6450508574 94.5463856296 221.3842274471
216.1109542792 154.2523902966 211.0213165195
237.2550360066 60.4909912014 251.1567843021
227.4039996189 84.7652002136 226.9999919860
192.1931265168 125.3749297655 236.7484717496
215.0784673230 69.7599269247 248.4953787990
211.8826330472 107.7013986850 222.4148882931
201.5914532539 131.1213733716 231.5682535276
207.3309437103 129.3607371445 234.2509891947
212.2283253103 128.2454601548 230.1576335516
220.6949683463 71.5795637060 248.1447003174
227.2963310496 66.4654690969 247.9466392136
217.4608906696 134.5817251194 210.6670418999
227.9383410331 51.4505996399 266.7484045568
226.7088222409 48.9423877305 266.8957009902
202.9036360824 123.9798364489 229.9954007313
194.8899340830 140.9971514455 238.3828524603
223.7346443919 132.1262357441 226.2926757579
222.2607656428 56.6031045167 255.0687026138
229.6199819803 79.8741712595 224.6411455851
211.4829786220 130.1284765244 229.5199700960
224.4840216592 88.9627369511 225.2817431071
194.2679655740 140.0321126375 235.0344280726
217.6694947962 147.1159260414 202.7028467859
214.2360196392 111.5832798465 221.3306394453
203.0126521154 123.2205787603 234.5513777888
219.4798497870 141.7319982529 213.2768816447
233.8629196214 64.5757743838 251.8308964600
225.4546015153 90.0240316432 240.2554786778
204.4817162546 111.9723806158 217.5803361126
228.3409663588 81.5619374371 223.3433344595
220.4174482194 143.2401546245 214.8788610963
226.0894217522 73.8990542675 254.0966834847
217.3954834076 158.7349982312 212.0293504833
220.7515695979 73.0982690204 240.3946774884
221.5409430253 149.9144496694 213.5902005026
209.3086094588 126.7826803621 227.6618451533
217.6171390682 89.6113684464 220.2829845160
204.7775279112 131.6768327070 237.3660833219
234.9751868892 62.6883244074 252.6646169502
215.7403721705 156.4065674428 217.9367468893
209.7730194221 100.6559380428 213.9802212305
227.2767081309 55.2010200025 253.9254424858
209.0175596570 110.9434715943 220.2244175972
218.1454968626 139.3637013391 211.8477501062
205.8920223182 104.9378728049 210.4347564028
223.8633939758 70.5390741458 257.7136735119
206.0279564823 102.9951864801 209.9222203674
205.6278196242 132.6525800690 241.4747299888
221.0417552344 87.4323927853 223.4191078605
204.2141208766 109.3260578268 209.5588722480
223.8771278617 70.7928907931 257.9998304828
220.6176444069 96.0353289970 217.0659071990
199.4118179144 139.0908966230 236.6493745183
211.1815504654 118.2831128907 225.3824203606
228.4100020892 62.7659683594 252.2558024129
216.2854099686 135.9493745743 221.6561069455
208.0045177959 106.4197026758 212.4685537929
213.1497632512 74.1204837375 251.3449774867
219.3946849598 131.5883017511 217.0271318287
228.1586325492 80.0010090903 226.3989008331
199.9179095829 100.8926976498 213.4394580031
212.7475681354 96.4305547941 217.8904624232
206.0625803174 126.4245024472 231.9836114631
214.6374875792 135.8432608491 214.8799045309
228.8360292758 81.9986803503 224.6671107493
229.0108686063 56.8222535691 255.3989786234
224.0915674638 81.2404118068 243.1171353056
213.3692751726 74.7251583103 251.5268435913
210.5784794747 117.8831130796 226.3716224685
232.7635598967 65.3116186118 250.7567117437
206.1295437052 118.4202307375 231.2325977380
204.7554542245 125.4462772814 232.8572305751
219.3722633263 94.7259763147 217.4964749190
210.4272328863 116.0721575620 227.7848551680
237.5174166432 60.6981177288 253.9077063474
212.3102697645 98.0409483348 207.2226748251
