218.9109952251 98.4601350182 211.5602462554
223.7426807498 86.1705854507 215.1849745381
207.0358546968 131.1582370813 215.6135679575
222.2087822091 116.4569824651 195.4532757886
225.3535027367 72.2181827134 233.4538425509
193.6020694657 141.3400392074 238.2714091281
183.9391937111 147.9498382517 234.2041125963
218.6312904324 62.4149529817 272.9132076869
227.5720951426 77.8314586985 222.0920323382
216.0214717398 60.6763615491 258.0134743761
219.2857065874 117.1849902928 205.1512117954
217.2774649850 113.6799935799 196.6101465916
214.8863748301 153.4525343305 231.0205217598
231.2316922850 70.7187301234 229.5581124529
212.5646565623 112.4553773058 212.6739994419
217.9251340721 120.8642058193 207.3214729103
205.4863762898 154.1706595188 233.3392093859
219.7827585947 146.6420233378 225.9737719220
198.6399816002 146.2692697878 233.7615301666
216.3485027548 95.3421040730 211.8250289624
220.0659044915 60.0145676998 262.1020975858
227.1389133736 77.9086083356 228.0659784823
197.5038288085 144.9927176128 236.6239496544
217.0099159558 66.2443457698 277.6107451963
229.5840267742 61.2977375071 238.3836608102
214.4734356245 151.6798154271 228.3432998248
224.3830692661 61.8148730457 275.8275569916
217.9880098789 58.8536456241 253.3177776642
216.7309273413 108.0795573034 200.5643276390
216.1502661585 92.9073261393 211.8148777299
185.3295856477 153.0049999866 237.4971851412
223.8779979183 70.8200841569 228.0947124600
214.7330592733 72.0872721813 272.8962341959
217.2275207153 106.0568575016 211.8681760855
218.1208299407 147.8409931133 234.8322844070
183.7537468361 143.1490997735 234.8321877100
215.7868366607 109.0383239282 204.8944611687
209.4375256329 149.0947372994 237.9616963262
222.7278458500 82.7435253156 217.9026483207
217.8375513861 67.7557803039 279.4457167170
225.7138871860 59.8919396918 243.4473726624
202.1543525848 151.3741419306 240.3876527865
215.7179177420 137.2852479368 216.1420468612
216.4174659603 72.9333966600 284.4020230156
212.7752443607 135.5060854106 216.7293470282
221.3436140332 115.7073419519 201.5619970943
224.4814095363 118.1911574540 207.2629800835
224.1755013337 60.0192657872 248.5127672991
222.2087822091 116.4569824651 195.4532757886
221.3495777531 77.7961585129 222.6022724688
216.9639464356 69.7181938411 264.0804771469
226.6134810858 105.8527361162 201.3853149670
213.8278504052 141.9973141546 225.6688278980
207.1893311858 150.4338408989 232.6262764390
224.2236205345 87.8020553445 215.2490483000
218.4647113573 102.5528534693 201.6074923893
217.3664125415 109.6293721019 198.9758459500
217.6795961889 114.1046483803 211.2880414237
208.5774864716 147.4774644403 239.3659683278
188.4610173345 147.0890705548 232.7037780936
184.8023176031 151.0916481034 235.2219317137
220.0584785852 121.8783100740 206.6576791537
211.9533010557 123.1531716053 218.3606184619
224.5814665790 60.0981113916 252.8342043401
223.8665181024 88.8405066259 214.5071323296
221.5381544239 61.9552789725 257.4214039082
211.3687904167 140.3431678803 227.9523886099
222.5065671225 69.7138053145 263.8044956451
215.9214013460 117.3693261986 210.2100554156
217.4877565970 115.9954800100 202.1369544298
225.2915002425 88.6150322969 215.3428835349
221.7709220722 116.7405149323 207.4430837130
216.0724045358 122.4039405819 216.1574719475
216.4067162473 104.3628414348 202.3392946466
193.8798011217 141.1363784593 235.9910423525
216.8961176607 153.4001593341 233.8026738117
195.9404280693 151.7653145724 241.7002940510
204.8375488720 155.6854918839 238.4100138608
217.3494480515 114.4290213410 200.2153915447
204.0936948078 156.7395974810 243.6191739482
226.8188124559 96.0887867000 205.8324367592
207.8314976046 108.7758687558 204.1225561937
188.1526494750 145.2200309235 238.6071085109
220.6488856251 117.8538685013 197.8096367497
219.1985501151 86.6567934679 214.5813397878
216.0392944839 64.0702795235 263.7453325479
221.7716420831 116.5819962525 205.0896500427
222.0597713909 66.6613986260 266.8552324134
222.5740831021 60.8093163981 274.9221950029
218.2196504497 81.9455746996 220.8138879408
215.4428480943 148.6433087830 235.4352123220
214.0917656365 72.1508955496 283.9041628863
186.7083112837 152.2144751878 238.8916107863
219.9167838219 115.3304019000 194.9070562875
193.3399458422 146.9444675886 235.2790404142
221.7709220722 116.7405149323 207.4430837130
226.5272095279 65.2932033068 245.8532182526
189.5143643819 143.2834462858 237.3987558901
219.0194505626 134.5272692047 218.9724418039
218.2224463174 67.8725670179 265.9969155018
216.6892633023 68.8283024609 262.6936217265
215.2389991109 67.6169925385 260.7586004808
192.1279565375 149.2204771381 231.0818208079
192.0680713515 150.1790216491 234.0487927793
208.5774864716 147.4774644403 239.3659683278
214.9448532386 138.9055161321 218.1231698120
206.7145194792 148.5436880886 236.4622666154
212.0435485648 62.3142596315 263.3173712440
224.7992515415 58.9931921640 251.6670840982
216.0577905125 126.5285463671 208.1655341018
223.9006564861 78.3856546061 227.9143881180
224.7506015550 80.2149004180 221.8825305832
221.5587458024 116.9622579368 205.4412128023
190.8336626797 140.4825313135 233.7770791518
208.4009410348 153.9758011869 243.3538065599
202.9994504715 149.6264293321 242.1703218696
200.2224962118 146.6632165065 243.8132541884
224.2545384791 95.6868506980 204.4193573855
227.0304787993 97.6917252692 206.1524351009
225.2012057657 92.1173217382 207.7168905351
213.7090339297 74.4620820070 283.5068636129
192.4496464001 151.2320139528 238.5628762732
216.9523489973 67.3923414768 259.2537970191
227.4721228071 98.5414029579 203.6837734909
220.7367588536 63.3176692817 250.6154160394
218.3548210444 89.7221127308 216.1282255538
215.8912180905 63.1070346230 256.2148233871
199.4794661429 146.4193532268 237.4651685212
222.4980240029 60.7934284035 256.3493912691
218.1545397509 71.1422319243 268.3198563997
185.3268475740 153.6236296370 239.3471550959
211.7728578441 60.9879250432 261.2724700180
223.0318028141 97.9969639784 210.2479226533
222.1539881058 63.6388391521 235.8665725197
214.0060689986 147.7578245901 226.4827193937
227.4924192018 66.0747531225 236.5539058896
222.5551929305 65.0028320035 245.2940143865
226.3548337507 73.6688177836 227.1461714408
211.9069661426 63.5354195758 263.8244039402
224.7005380722 80.8672433862 218.8998848494
186.0434418633 150.4183840894 233.6736722946
183.6883368799 146.5175995932 238.8143477403
189.3680435849 143.4363734007 236.0181646864
214.8565125189 59.7069421328 263.4225840485
184.6672353494 143.7548724294 237.1408576564
182.6062210090 149.5990990613 237.2464723149
221.8299910642 62.0967794796 243.7072578143
217.0153674172 146.4661216106 232.8953513463
192.5413557913 144.7265264819 240.2410264023
226.0662692228 97.3576094750 207.7149050113
227.8176789173 64.5659984900 247.8509989778
219.0537991605 104.6905238990 204.1495067263
219.7971269970 84.6951141826 219.7803326983
224.7982179491 65.0012687934 241.2611499292
210.1444911890 127.2392295680 220.6636711486
219.3831204538 60.7698151101 261.2613959259
220.8531783304 64.9231005190 237.5680792919
213.1901594835 123.7494495647 211.6082689940
231.2449647632 73.4844882943 231.2563238273
215.2293817834 118.0623838197 212.5892380546
221.0536425670 64.7135873023 239.4594976712
222.7259765042 80.0617799752 225.9821629248
211.5185455255 113.3324872939 203.1500233117
213.1542335131 140.9487095917 218.7349820561
221.3324652954 105.4206586926 201.1529845994
211.2834329142 155.6902410290 237.5798564294
215.5212403155 146.8482225491 230.5607771237
226.4688791462 73.5926875764 227.1764317768
182.5154997804 146.3036388183 238.3054537875
204.5112853728 148.8240131011 236.6215272359
200.6198510176 146.0613535336 242.1189615651
201.3982924831 150.0403627192 240.7159974971
213.6723559130 155.0347748952 234.3549273866
216.7282278305 146.3559609704 230.3071358972
197.4733099734 149.4135934262 243.8749507972
225.2248220189 69.6794508862 235.4041587285
191.0791133233 148.6567523048 235.6845728960
222.6729346847 121.1901434988 206.6852534486
222.3284043754 96.1381550236 204.6010859646
212.4824220373 145.0791747459 221.0237301828
219.7261900137 76.3103129153 221.3025654058
218.7280018600 134.7409856359 221.3654171561
231.5542485797 71.7694500953 229.6249185796
211.2531644469 148.4310820445 229.2304766355
190.8558648862 143.7407814854 240.7504310701
215.5069995147 148.9493317144 234.5935290272
221.3436140332 115.7073419519 201.5619970943
224.4814095363 118.1911574540 207.2629800835
207.6557228388 155.2421269730 236.8807564498
216.0530454364 113.6856111076 204.6950458162
208.9114467545 131.8558904953 219.2898862815
218.5848051762 64.6460723426 248.9661884188
211.8400085670 119.8795123985 220.0767440976
225.5535917607 103.0775032939 203.9214018141
213.7090339297 74.4620820070 283.5068636129
218.0018060659 101.4591885576 206.0561929459
223.4709900100 61.7536122393 256.3512389953
220.4596862710 56.3935112754 257.3082939381
216.5163496159 66.7988203741 274.9066743285
212.2409497490 111.5683377251 206.3021303166
218.1521086789 62.3352693664 251.3097885271
221.1962892420 67.8128671726 271.1448754020
198.7502978170 153.9912168472 240.1304975435
229.5840267742 61.2977375071 238.3836608102
226.1619836672 98.3052205851 207.3247667331
199.4794661429 146.4193532268 237.4651685212
195.3011239749 144.4311844466 233.4980278037
207.9996311194 108.3386283025 202.3408554525
222.4751552500 96.7367028029 211.7322073028
223.8587494305 61.5131450204 275.0435960957
217.8893113375 63.1566557342 272.0583886183
223.8779979183 70.8200841569 228.0947124600
213.8754760235 63.0334758567 265.0036007554
214.4157542114 131.7874039071 220.3976458763
216.7309273413 108.0795573034 200.5643276390
227.8100878637 69.7064261903 237.1200990973
220.1541741893 68.6267747953 271.9111957580
224.5458264855 93.1979818713 219.1060862487
229.0330031361 57.7452484933 238.4468149330
208.0772085083 155.5951595428 232.8337876241
229.5840267742 61.2977375071 238.3836608102
224.1482846182 90.2399327655 213.1180590533
224.2545384791 95.6868506980 204.4193573855
196.3536683987 145.2697034454 243.1637872190
225.3363946626 79.8738346346 226.6758686020
218.6254922878 109.0971992351 199.2861955365
209.1970180629 149.3293170235 237.2229186253
223.4338921638 59.9657912683 241.2947839099
214.1772904971 61.5037661300 258.0604358285
221.9763097183 61.9438536072 245.0878519191
208.0789539557 157.1366990486 237.6706454549
217.2947930248 69.9859791625 268.9460733984
222.8177315513 77.5252324160 227.2301863753
218.3548210444 89.7221127308 216.1282255538
226.5739263474 61.5092125508 242.0431006607
225.2484479366 81.7083714582 226.5578292718
216.7744640297 111.8610932321 206.4459753966
218.4842447952 114.3798135272 195.6061003974
217.2820618619 72.6261956496 279.5384882262
220.2692434094 113.2093751801 196.6104706989
216.3632611941 65.2546710470 256.7117826821
222.7233376712 64.7193421023 253.3621971244
218.3305772646 108.1257185764 202.6332395962
209.8495462743 130.7312633222 217.5495648732
221.0353349094 88.2000038838 210.0331177161
220.3852202426 114.2794611567 207.2950261241
219.2067052982 93.6946282267 216.4418417919
212.9187529830 111.9245137609 210.6863412705
219.7827585947 146.6420233378 225.9737719220
213.8277417996 65.2798852563 277.7605917730
221.2056693867 57.7301449442 256.7772970768
224.1951273548 66.8571382581 230.3191361094
209.9009727169 142.4386913717 226.9193958967
208.3115074911 143.3258107326 223.0776811545
221.5656503477 88.2336238029 219.8014313082
222.3212021151 69.5053336144 236.9292694853
212.7752443607 135.5060854106 216.7293470282
213.7497141984 145.3109536737 232.9242515711
222.5065671225 69.7138053145 263.8044956451
227.5471274347 111.8993818477 198.3584435172
221.2220159227 61.1431010989 257.6301008220
218.4746623743 72.5303955062 281.5037260441
219.8353972714 95.3750589604 211.1091543805
222.0610310656 103.9707073696 207.3814361087
215.5632363457 115.6259923888 213.1351261426
196.5184342665 149.2069720010 232.5381449185
226.2475951010 76.0673868727 229.9489440819
224.0250786442 116.8849547929 206.8803612205
221.0845472856 78.1114060390 222.2674934578
216.9364254335 123.0763378213 206.0511035354
230.2095986833 78.5043246897 227.4822938608
216.3978065783 151.1431978618 229.8929885061
225.6708463765 69.7055297770 235.3244672398
220.8276123128 91.0027950435 218.8320169506
193.1046808425 146.4237303010 235.0615071019
222.3779195367 99.4980609455 210.7536930388
208.5922747219 111.4977482445 201.6562784663
217.6601693469 69.4348935659 264.2366575653
210.6692574899 140.3380734999 221.4809989230
213.7898817778 140.0327098863 221.7591133733
215.4762783418 118.1787790027 207.3634811293
216.1888940132 68.7355206086 264.6944422293
212.4019964075 68.6309335154 279.7946894643
201.7619284397 151.3599148146 242.2851458083
223.4717375243 83.8979790551 216.6463535355
216.6123171205 91.6416169915 214.8754910078
212.9114264359 113.5715666409 209.1041427719
225.4710561777 103.2244147751 203.1615855788
220.2016370020 82.5004501061 217.1966821781
213.9589200419 148.0113837000 232.7505727892
224.5839093435 63.3121958735 273.4280446478
190.8558648862 143.7407814854 240.7504310701
196.2395028106 144.8159286619 236.6214382753
224.8513902030 88.3658559340 218.6264767247
214.9433217596 70.1542058169 272.0912217608
182.5755019188 144.4622268080 233.6370627851
226.9019975176 77.4720766538 222.0324628661
215.8879994884 70.6979544814 284.1572205846
193.6020694657 141.3400392074 238.2714091281
186.7083112837 152.2144751878 238.8916107863
211.6326133394 125.5692055920 215.4113997600
219.2886022213 66.1141468583 244.2913278535
196.1428034742 153.4096761438 231.6484686628
216.3190407132 66.3195711559 262.3582829244
200.2224962118 146.6632165065 243.8132541884
223.4469024800 76.5358059170 224.7266329122
222.2087822091 116.4569824651 195.4532757886
213.4607781167 60.1041667161 258.3900009590
212.2672670398 65.9168145555 259.1499951519
220.0515788187 122.5173308792 208.6471047006
222.7760027762 84.0885836038 223.6262030560
217.4549450200 64.3382601803 269.3630622827
212.7377790574 121.2804729302 210.7763742252
216.8069719506 62.5716279461 263.4814966646
209.0736351241 126.3476715220 215.2230099976
225.7107871771 65.2546858113 251.6309031436
196.3263175420 150.5634970609 238.0648037048
229.6131744718 74.8043272024 232.5284847112
194.3321966865 151.4429149974 236.8369971023
225.5165465762 110.3779638234 195.6314591832
211.9013429512 125.8493276712 214.1002318561
226.1845253951 76.2607143221 229.2181967442
214.9139085054 70.1705983023 271.0903396350
218.7710246560 65.8079005350 259.6861392598
210.9347749429 106.9456173467 202.8570794615
222.8215731864 63.6570044495 258.3330960990
215.6573066281 133.7353574733 214.6328898138
193.0767318766 145.5418260849 234.4234504144
215.3757704721 122.1523189742 219.3666313775
219.3856057659 63.4198138267 249.0098353929
218.9793829953 117.4188175576 199.6342967864
190.8558648862 143.7407814854 240.7504310701
210.7643579881 153.9744913145 231.6239449679
210.3471720764 126.2725562087 217.1705077129
224.4377055518 102.0175710266 206.1237414313
214.8863748301 153.4525343305 231.0205217598
217.8570664815 78.6710431241 222.8488493021
210.2045977226 138.5476973669 227.3190241766
218.7521733487 120.5112505870 214.2395556224
211.1489886930 149.1065647376 235.9906266853
226.0803310008 66.4419793956 237.8744096182
202.2416926258 148.7335711483 240.9008699976
224.6057018145 90.8240188192 212.4062209633
222.2996129141 92.8529195341 216.2110552312
209.4402507211 140.9850056945 226.6889222528
195.0685915697 148.2229336868 229.3023286507
219.1077508466 68.0308219797 246.0972253157
222.7485162048 93.2050112641 205.7361576939
218.0942571971 82.5260554473 219.9444381617
216.7066076184 68.0562995518 261.6110774181
217.3742120139 73.1826041349 284.9625316422
216.7699023518 127.5739287816 209.8080353935
210.1338153632 150.5714416632 237.8883931096
217.9731472037 124.3175812728 210.9492047860
210.2810416143 108.7371596683 202.3579052528
213.5390754001 144.2614102227 224.4965547077
222.4411328081 59.0876062630 254.5805000540
199.3798985377 148.3207303104 244.5017643214
221.2395974759 69.6716840686 273.6737217452
220.9032270351 65.4320588991 250.0879060154
202.1543525848 151.3741419306 240.3876527865
204.1371066645 155.3355002765 237.6027601650
225.7107871771 65.2546858113 251.6309031436
209.0865639594 153.5175997946 239.0074378321
215.3511427633 146.5200291259 231.3241189371
223.1461723776 85.4853413542 216.8493377023
224.1364789437 61.3094855148 272.7632322213
230.2037870631 78.6429087081 221.2145239409
228.5298739391 66.4032709295 236.1097601279
226.2732002703 81.1159611859 227.3413433873
220.8816352382 106.2094350080 202.8614580851
221.6186638661 88.7190012324 220.2602279434
212.2713887574 108.0126581689 201.8860827047
195.3011239749 144.4311844466 233.4980278037
210.9043684088 137.7499760664 225.8353388334
228.7607238419 69.1506010037 231.6023846444
213.7438780406 69.8751437071 278.4476622262
217.3664125415 109.6293721019 198.9758459500
221.8281237451 65.4543762137 254.5520492954
221.9561739800 65.7104176259 268.9859821532
218.5188227713 56.7265375173 260.4403898851
222.8177315513 77.5252324160 227.2301863753
213.4318632747 132.8282237770 214.9178562747
221.3198336040 63.6693704785 250.6643131647
212.9616535507 111.8915604290 209.6059342732
212.8216587755 108.4686332009 212.3939718235
215.8950684082 124.8153667038 212.8025129889
212.1289326341 156.6091325505 234.8638819613
194.7522861313 151.7305960829 239.1582307756
224.0052610107 99.3342381899 200.6863558503
220.9820314864 63.1352604474 251.7686314860
210.9846098324 128.8752279174 214.9798513746
218.1829471938 146.5877647701 230.7979921399
206.3252900775 153.2703626982 232.6234504179
187.6719718340 145.0349707482 238.6863830961
222.4319217311 93.1030707857 217.0261383275
223.2242472093 80.4654967095 217.2058589118
212.9406648997 72.5989745511 281.2711208505
225.8529587077 69.2954149884 237.8656262264
220.9081562049 71.3134515752 275.9644694747
184.9177083980 148.8531416759 234.4813988285
224.4744262621 69.2972925194 230.6485467683
226.4640131449 61.0903095342 244.2536610149
217.4877565970 115.9954800100 202.1369544298
220.8729162814 109.9553919305 202.8757627056
208.0567903706 128.0602156809 221.9706210495
221.6123644844 91.9284584678 208.5985757311
222.2996129141 92.8529195341 216.2110552312
212.9382472863 152.7733456160 229.6380382237
214.9323293951 142.7086585052 225.9097753139
226.2272040001 59.5948893261 234.7192708988
219.2894432618 111.8649331617 210.8025813379
221.2704558669 71.8342215532 234.6328740249
216.8698783526 92.5232844236 211.8200710343
222.9893445589 75.7064754407 225.5165667503
195.9065051631 146.5411532960 237.6773671788
218.4603201236 120.2204381740 205.0334958757
193.2392371911 149.1990831986 230.2023944682
224.5278624899 64.1757824210 271.1218044704
196.3536683987 145.2697034454 243.1637872190
223.9138186719 75.8756944669 229.7962144464
218.0541993043 104.9372210734 203.5084261161
208.4766875332 154.1201363211 242.8617982517
218.2129972274 95.2484452335 210.3353839529
223.9238763866 102.1345457944 201.1112772722
218.1545397509 71.1422319243 268.3198563997
211.5511815312 121.6184157659 213.7464444311
214.2996648698 126.4186282611 209.2695914685
223.6924143309 90.7667330013 220.2897538594
218.1511473627 69.1672506510 273.2093554893
214.5969511805 71.4621101963 279.4282276706
210.1329805747 127.1895390607 220.4081247488
214.5657648792 136.4058542781 224.4551356052
232.3362930516 79.2062177071 223.2475790505
214.3864479423 126.4409483433 210.5496488174
192.0680713515 150.1790216491 234.0487927793
214.4041582533 58.9632749385 261.5135879190
220.3317044120 82.3545571514 215.8980353340
213.4255218368 113.2777623582 210.2838074049
212.3821219929 130.2211916055 221.8067074259
220.9958075427 65.2227212645 262.5044936477
223.7207396506 113.6606246455 201.1608558311
223.5988383874 70.4536761492 230.1392095279
221.3607164741 65.9729447780 235.3329358194
231.9409052465 78.9115455932 225.6324822042
226.9886988232 72.5702947076 228.0894047649
223.7812517663 67.0470969362 266.8948613089
216.9257673245 66.5830166689 270.8283366377
222.6888037276 105.1511960714 206.3564246511
213.2093945115 72.8790966303 279.9599529466
211.9689339645 142.7408186550 230.3419872199
207.3294013890 126.6747368377 217.9190921919
216.1791992887 61.3911392444 264.5065081223
191.0791133233 148.6567523048 235.6845728960
215.7236496089 155.0384977307 232.9811828493
198.7502978170 153.9912168472 240.1304975435
210.6692574899 140.3380734999 221.4809989230
213.6345218368 152.5801122477 229.0590587929
215.4251149379 110.5653880970 200.4914943250
211.2928049898 64.6179665939 261.9867722524
217.7227571263 122.1006002631 215.9253255593
198.9239082051 152.2632681213 237.0597283925
211.9021384774 122.9950863386 214.0795060544
190.9060198870 141.4273667309 235.7260100974
209.4839434611 157.0546538129 235.2047196695
222.9967901212 60.2091617885 247.6741282910
212.5559683335 125.8107024045 208.0321823114
229.0330031361 57.7452484933 238.4468149330
212.8722755799 134.4769700327 221.9995102600
205.9514064041 154.0145115647 245.1184563512
218.5188227713 56.7265375173 260.4403898851
208.6442441245 153.7239817473 236.5466556155
186.3913711971 150.2513977827 239.0332324848
216.6123171205 91.6416169915 214.8754910078
218.5303176603 151.7065106362 231.9260482684
187.6800272813 148.4931891097 237.8947887132
222.2035195458 86.4635468100 220.6854815679
214.2754121269 60.8500503272 263.8974205293
225.2542339845 69.3674278789 230.6547146811
221.5587458024 116.9622579368 205.4412128023
212.1345350964 65.4175432509 258.6374278568
222.2946663629 86.2954362086 219.2209826219
212.0148302640 147.4033253291 235.2831209440
225.6655464510 81.8147144743 224.8390612965
223.5967877469 108.1935101040 197.1024506402
213.9825174823 69.8926938072 278.6464979111
217.4687545862 118.8095251099 213.3278634315
224.5681405558 79.0353881913 227.2887175776
217.9316226576 110.8107535589 202.8353855722
211.4035869078 143.1966629276 230.1338363468
210.1695442150 107.8670271520 202.7247973088
210.2268606374 143.9075576574 219.6152598441
215.0512282621 71.2786445499 278.5305190252
187.2216867806 149.1052570548 234.8687972197
210.9438006404 128.5762564951 214.1660891084
201.5567266506 149.0697269992 239.7001394950
207.1962934164 156.3964739942 239.5132763731
219.7970378016 64.5670774329 263.0833246845
212.8648450069 119.6061222067 211.1416053795
219.0439792359 64.7183797401 264.2057657120
187.2543900146 144.1602928287 237.5166080312
199.0349823990 146.3472702327 243.5843295658
205.8937851527 155.6913789224 235.8253133848
182.5154997804 146.3036388183 238.3054537875
225.3757053333 75.4729626823 225.7292431569
222.3770895240 69.9280608308 265.5105238110
222.0863668672 71.3445222853 268.1112983918
215.5054938967 65.8007265680 274.6470528914
222.4607738723 64.8440817514 252.6765532387
211.6399747218 120.2872945421 212.3988765216
207.2650721087 153.5348907376 244.9144334605
216.2591824238 57.3219848679 256.9424340007
218.6008466445 112.6976963343 208.5225935654
221.3607164741 65.9729447780 235.3329358194
215.2044836333 113.3105718315 214.2957376173
210.8975304765 147.4159845550 231.3993410741
210.9438006404 128.5762564951 214.1660891084
204.0387504109 154.0211669034 242.5391107715
218.0541993043 104.9372210734 203.5084261161
214.8877379207 106.2838074839 212.9758981508
214.9919511751 151.1574956629 235.3340858284
218.5543992830 96.2022092504 205.4592445975
220.3958776556 114.3943478538 194.4608628921
220.0203399580 118.0805933231 212.0407506207
211.4193588147 107.9461703715 205.3799055812
224.6866576788 64.6425177359 270.1804617651
219.6000110688 100.4345763464 201.7227543101
214.6390230341 58.7910396815 259.5851258840
218.5543992830 96.2022092504 205.4592445975
212.5841749045 72.5168457639 281.5204566861
213.9826140482 148.0959544487 226.5991201221
226.7921422949 101.8141303729 203.5129819903
190.9060198870 141.4273667309 235.7260100974
201.6762040835 149.2520334458 237.3134152966
206.6764475594 153.0450725457 245.1100639243
207.1962934164 156.3964739942 239.5132763731
214.4204435115 120.0478385778 220.4008224712
208.3503464385 156.2520881312 243.9381408759
216.8698783526 92.5232844236 211.8200710343
218.3622998889 98.7346921905 207.0463520087
224.0093941953 81.7635060734 226.8938565663
214.2972870270 151.3148639007 228.4785074228
216.2188782755 131.5210322578 221.4304571119
213.4137845191 129.2982156516 214.1558370902
214.5870656920 119.1253060722 212.6932600041
212.5180043105 123.6428437863 211.7269940098
227.7703317388 80.2662366322 222.1021835708
218.4369120110 84.6958352211 217.3503168868
217.4390885100 90.5680729942 213.3467715431
206.5279923449 130.7229100570 220.0314997053
226.0561302728 83.2813609744 221.1505225614
204.5496215574 150.6038193576 240.6737534804
215.7878937181 93.0626523992 211.5190974458
223.5332168970 85.0320632877 218.8125627981
215.0042214535 66.7131527622 257.8713134830
221.1119804578 90.5984062007 219.9656740351
212.7682478612 69.0962892923 279.1564204905
222.6888037276 105.1511960714 206.3564246511
221.8702309851 60.7608026194 237.7705826671
217.5274840795 65.1742163436 271.9772359069
219.7971269970 84.6951141826 219.7803326983
210.0985840841 126.4548439948 219.2115751223
217.3316175347 138.1959788329 218.9691952551
213.6366188564 149.5640624828 228.4888632116
216.0354114132 58.0198406111 260.0051940543
195.5496370179 147.2854431440 229.9106787775
216.4198773619 101.8528819169 204.2211224255
226.0367706259 63.7378946300 240.8527272042
210.2268606374 143.9075576574 219.6152598441
226.9435828254 69.3407316552 229.4377212143
215.3261481401 150.8660068358 236.3994264894
223.3804052956 72.3297417835 234.6877326007
208.0623112195 150.6157045386 242.0488873919
229.0476574939 58.2531927671 236.0837071329
218.8594400235 64.7008132422 259.9403514245
194.1938179006 148.8408248080 239.1588357606
214.4301555600 125.9131370920 218.2641410494
214.3315596731 74.2531400335 283.6536461464
216.7282278305 146.3559609704 230.3071358972
221.2796264063 116.9300880780 207.3270188547
226.9930894067 113.3446111937 199.6161995223
211.2945169616 126.6720016585 218.2521985102
223.3303948176 74.4018627375 232.0930934056
210.3987169977 157.7053283065 236.1144501869
198.4941559431 152.9820110161 241.3161763868
198.4200784288 150.8810573253 235.5770407107
185.9133011191 146.5135495359 239.4101275482
218.4746623743 72.5303955062 281.5037260441
215.4428480943 148.6433087830 235.4352123220
221.2169292228 63.5943594422 268.3661494014
196.8468389369 152.4069182405 237.6540881940
212.6265901386 154.0756805291 236.8702729121
221.9416385332 82.8855727012 223.4868759313
226.3594678025 63.1640647821 238.7266968021
223.8668946839 61.8277897328 254.7027395176
212.9382472863 152.7733456160 229.6380382237
203.5927074995 155.3521472426 239.7640076605
213.7272964318 124.5416431054 219.1739552541
206.2394738903 151.7635655405 235.1022556706
213.0557858589 144.1570230493 224.3777492281
216.3070117100 139.4229215208 218.6840644005
217.3112856661 111.2655306651 203.1158478822
216.3090742049 61.8930455750 261.2056157489
229.5437194933 67.5638757871 234.4680553659
211.8316194241 136.7552952236 225.5443667487
224.3321141380 78.2953305823 221.1780433904
215.5217582027 121.9469871568 207.0787994743
216.3483937888 143.4070438140 225.3409244285
211.7849025192 141.0704745895 230.2193572639
218.7806798323 116.1608299667 205.7828352531
209.4375256329 149.0947372994 237.9616963262
217.2314533774 106.6645617004 212.9299538487
224.1707114764 63.5860056820 235.0807129196
222.7472711910 117.3608512885 204.3808932290
219.5283984565 84.4149914821 221.0914991516
223.5032577187 68.5814848864 237.7867285103
224.9234331331 99.5685935061 207.7331865568
213.1023281175 70.8260982108 276.5353117276
222.8832383810 64.1661366544 268.4611468069
218.5668261535 66.3940558306 267.5218070984
214.7257143887 141.2888839534 220.8543985404
222.2685057021 60.9820999098 237.9146706915
218.7691079433 98.8732105929 205.8548153624
228.3829050155 65.7707163008 232.7938737898
207.3097636759 155.8156046884 246.0833844033
211.3129663770 131.7254658674 216.6374055244
216.8226275173 67.1800603775 267.3116661592
222.2693783370 94.4695232678 209.4372099308
209.2184027973 107.8025916730 205.1034891127
217.7073643502 63.6513395391 265.1767639193
191.1926318854 145.3969824073 234.9096237729
226.3812228746 71.0137059161 233.0759571424
217.5855576202 66.5556721757 257.9382763879
228.8363194183 70.3993415632 231.7282586453
216.2864430695 60.4753505442 260.5144130190
217.0634571985 142.5758048964 229.0875458798
185.0834306979 149.1464590507 240.7225887626
226.9835393486 66.5994065892 246.2358385663
218.3622998889 98.7346921905 207.0463520087
205.4863762898 154.1706595188 233.3392093859
208.5544932188 131.2793828723 216.9480790000
207.7406056022 143.5704102223 221.2885329657
217.8894831847 144.7702538226 224.0899358809
219.1243881082 123.4571992990 211.5011421137
192.9227777180 146.7518679399 233.4917995214
215.6558855914 94.4616853307 212.8372707060
215.1950448155 147.3116964134 227.0038421219
217.8905042153 146.6813696890 223.9482776319
191.2774552407 150.5501084404 236.7859565530
219.5414364300 93.0718847179 211.7831174980
219.0283310385 99.3539688482 206.1186465567
228.4525327556 69.4036779982 237.1976343589
213.7580318786 133.5115589559 221.0837658215
217.2865753201 71.3711401211 277.8664178539
224.2305125673 96.0981331698 209.1208282198
216.4806698477 139.3283758475 217.8894814916
210.0306030240 144.5873694458 228.5106837673
213.5910394411 135.4326842291 223.5313719802
209.8877643252 137.7207412170 224.6762889460
219.4147109324 117.8726086601 197.5101983757
185.5429915692 150.1225056458 234.4051102255
220.7946060144 63.9184965643 255.9741850921
219.6842680890 100.8978037981 201.6075227595
220.4955351267 60.7533430172 257.8692924982
215.4645224002 62.3171781952 258.0561593194
216.9868943814 153.2808682916 232.4350028431
210.5397920452 155.1461704389 238.0173364444
217.3112856661 111.2655306651 203.1158478822
207.8476818898 154.4835908395 238.4994431700
204.8375488720 155.6854918839 238.4100138608
216.4962255038 57.0742463596 259.1789964012
192.8253029769 152.4650531768 234.4489021172
221.2018768109 115.0139320206 201.1231542650
217.8612098103 127.0049274486 209.8848490601
214.8632633870 68.8217935921 276.0989611181
229.9727217057 68.3202548583 235.4472349131
210.7643579881 153.9744913145 231.6239449679
199.8673118066 147.3301807053 244.0014359207
225.8982170289 91.7627983775 216.5073157890
223.2926055343 119.5632469913 205.0525462582
225.1872557214 88.0093427908 212.5103276208
219.7831501526 118.7729514929 211.6605717697
218.8896888842 63.2172991917 273.3821025881
216.7395274971 72.0965628516 266.3213650852
221.5128995675 90.4505472958 210.1294933769
226.4688791462 73.5926875764 227.1764317768
228.3775637385 59.5199247749 248.4999688017
222.8317276606 70.5295210185 231.8226710685
215.7274986953 110.4590372425 200.9271621400
206.3975811309 151.0401649146 241.0516684816
198.6680661077 145.2331285859 241.4964926561
204.7634470849 152.8262651533 236.1476655296
207.4946630184 154.2749482288 236.4593914832
215.8868052227 63.6745407150 274.7325796110
189.4813537508 144.9449381014 233.2781519526
208.8961781844 113.1134727909 204.9057208520
222.7984101086 79.5542355925 219.8558785051
182.4630335869 145.6692122069 238.8268101950
205.7004191592 155.8805286832 238.7121611684
215.9588558492 94.9359250537 213.7262304257
214.4655922643 66.6129245565 262.4769870327
221.6589519752 59.5534882012 254.0184145818
209.9539266363 133.1839475827 217.7969363253
226.2337080564 61.0154500760 244.4984837791
213.4327722445 141.2643135968 224.8286390116
193.6412283433 143.2082498976 232.8322108523
207.1313562726 151.8271907728 243.3249253938
222.0208953520 113.8826044101 197.8077574932
222.3156179779 67.4380210340 266.2042412578
222.1851910369 89.9377284655 215.6224507820
215.2781179609 138.9091218152 217.0360950496
217.0170587848 65.9579571828 257.0868586874
225.1463053278 71.8326050793 227.1733176355
227.3195076239 62.7582127509 245.7012787005
217.3742120139 73.1826041349 284.9625316422
221.3533043425 95.4740766961 211.2997912343
216.0217354317 141.6234773701 225.9757589677
218.8328881023 124.5242927315 210.9342028783
211.0307324674 123.9951256406 216.6792968202
220.0945943494 56.8816922103 253.5711405904
206.5888145066 152.1277220833 233.3977365144
224.4708061564 82.8733892930 223.8784162164
200.4131397389 151.2166629120 242.9316718810
216.6592902775 117.5690429837 212.7761817937
226.2643586927 70.5865713985 228.3073888666
223.2725354109 118.1537775679 208.7628294727
225.9531768054 90.5090337298 215.8976796453
225.2179629355 79.9672508725 221.6911012535
219.8378458047 63.1961723533 261.7484442566
218.8132304453 133.5304875201 219.5257287062
217.1764586208 121.1178169990 208.4270060003
186.7387143671 147.6889639287 238.6223830507
211.9781880926 138.0090986746 217.8434073854
199.8498552166 147.4484348223 239.9540127606
221.2559160428 113.4358707216 195.3332203437
217.5207843232 60.2631725264 252.8445156214
218.0129055212 105.0928514581 206.4620811829
217.9934568938 126.8414024913 209.6996313890
196.1354781414 144.9033062805 236.2496054041
214.5870656920 119.1253060722 212.6932600041
207.5836307914 130.6985580531 221.8644975589
220.0203399580 118.0805933231 212.0407506207
223.6374533692 109.0903911650 203.9165436761
225.8472741054 65.2181994999 239.6907883937
222.6270471481 72.4555303248 228.1570905659
206.5216468513 149.1414711344 234.4222883429
214.5095959985 60.9446752799 259.3009398727
200.1759052877 147.6405184486 238.8926201012
219.0581619356 62.9221291355 260.5505535636
210.8763839682 118.7931722960 216.9128336144
216.7395274971 72.0965628516 266.3213650852
196.2382336352 146.4526799713 232.1906665498
215.8971214926 147.5616848196 233.3149453933
217.6340765511 96.0315620216 209.9392633087
220.3811965441 66.8489708022 277.6979058986
218.4424176467 62.9071504508 260.5418234430
230.4023818312 69.7869492151 231.6474633715
186.4944036537 145.3704400991 238.9352881661
213.3386065191 59.6079237758 263.2319457441
191.1372694285 141.1185717127 234.3460194034
205.4863762898 154.1706595188 233.3392093859
216.8747628528 131.9478136492 220.7064796053
211.8746096474 121.9167960591 207.6186941456
225.1169713941 92.6293225996 211.6540449167
222.0610310656 103.9707073696 207.3814361087
217.5207843232 60.2631725264 252.8445156214
221.7725942539 61.4486493135 245.9799373466
208.0271224297 156.7054806441 235.1615178766
214.4033390224 75.4793698314 279.4125177287
228.0992807356 70.5559684160 226.4884947769
218.7414214068 89.7245736929 215.4059802043
221.3981769794 68.7613726345 276.0373779781
186.3565841904 143.7281762057 235.9238641895
220.4501217275 85.5726694990 214.3039401221
217.0469076875 62.6560315868 256.0289900735
212.8812293435 127.1959798046 218.6921410031
218.0623275670 95.2670369822 215.0712132434
195.3292371840 143.1042156362 238.1077110251
197.4077505666 149.8520961353 230.8173302722
194.6155635749 150.0514416934 239.1512268697
213.5098864477 146.3805372217 224.5592284779
225.5954375920 74.1230438923 226.6761824073
218.0153882652 60.6561137343 251.3027817200
213.7205500325 124.0620946644 212.5803772497
228.2288297081 61.4356681079 239.5756069123
180.6524973272 146.1308602775 237.7422537527
214.1772904971 61.5037661300 258.0604358285
214.2675544691 63.0960366371 256.9963489785
223.5325030605 78.0018828050 229.7106935292
221.6430215340 74.6602618623 227.4330879000
217.1956699620 73.8887672393 276.2844211069
217.8960206008 80.0912775136 219.9342869291
214.7562688955 154.9189965140 232.7517037629
222.1851910369 89.9377284655 215.6224507820
209.8289859679 132.4896520289 217.3388442784
214.7103643962 128.4899816107 216.9493570600
212.8250990738 122.9904356492 213.3956690593
196.6536394456 151.5060221119 232.9233115363
222.3131724132 61.1367260674 235.8306449583
193.8333190073 141.0312441892 236.8914184341
212.2415728734 145.3680131451 225.4806201004
221.5973935842 65.9275275391 270.1469894470
220.2692434094 113.2093751801 196.6104706989
213.0494598540 138.3700583354 226.4094840189
226.0563823750 102.6978547934 203.1443323817
208.8427959929 147.7022822118 235.9785304461
210.1798743093 121.6294429786 219.8090397043
224.5839093435 63.3121958735 273.4280446478
225.1001181173 64.8780053794 233.3799118749
224.6223549037 65.3244483028 249.7592325785
221.4848087007 59.0507419289 249.5555900056
213.2865882293 141.3887525986 219.8949364518
217.4761457257 68.8550525205 265.9452969533
217.5854071642 90.4151471218 214.7273656480
205.9226747508 131.1726436935 218.8001360740
225.0370803946 102.4706087783 202.1647977900
208.3290996945 154.7903229429 239.2835428222
215.0207506720 59.9744411326 261.3501139124
226.0308081686 67.5712319130 246.5500076615
218.9102742055 64.5425677282 245.8297047296
223.9182022475 70.2164090439 235.8659182713
221.0956412242 93.7129475149 217.6305575324
213.7580318786 133.5115589559 221.0837658215
221.7725942539 61.4486493135 245.9799373466
212.3154452928 72.2367236847 282.8316245899
180.8680188662 145.7292579371 237.1363194167
221.9474312596 104.2160037181 200.1296256356
212.3203302217 107.8747105617 214.9976271897
220.5925468819 93.1720994603 210.7504704038
195.7186517891 147.6490900162 240.5603209765
213.5537170086 154.4997424818 231.8983173209
217.3069529122 97.3222844841 209.2513860325
193.1046808425 146.4237303010 235.0615071019
206.8326574599 155.0769218988 237.9441280619
214.6609325661 122.4802327821 206.6112929837
214.8088798709 137.0474473408 224.3964892504
215.6960738187 147.3789993913 229.9092604716
218.1494356349 110.5143283206 208.2556374387
221.1093228837 58.2276048647 261.4976317089
218.9119867131 150.6413113599 231.2402640363
216.1888940132 68.7355206086 264.6944422293
209.3959046290 122.1709902116 213.2072302866
217.1212322913 101.0433552905 204.9922477936
211.9781880926 138.0090986746 217.8434073854
223.9138186719 75.8756944669 229.7962144464
222.8215731864 63.6570044495 258.3330960990
190.6528134477 142.3992051924 235.5829737128
208.4661552220 154.0581634733 236.9571959068
215.8327880676 149.0581518692 229.9162640766
219.2186477811 61.5568241887 250.2144811653
213.7577307626 139.1119995714 225.5394813740
210.3128131594 141.6797440244 219.6299073989
214.7118860492 119.8341189925 218.0078439168
218.0182726823 68.7066735495 281.7314942230
220.8006621222 71.0031053110 273.2096423202
191.9101960946 152.1678966164 235.2279279861
221.5136850499 62.0920515307 245.7503996283
193.6505901860 151.4099187747 237.7232601027
228.3704484472 71.2537197357 227.1144337968
203.6849952872 153.4270580080 236.7057926428
213.8048922920 136.8840165644 225.7921939827
220.5776875217 60.0983424734 249.0549503645
216.3190407132 66.3195711559 262.3582829244
220.1563895119 85.3361070709 214.8777061661
212.2713887574 108.0126581689 201.8860827047
224.7005380722 80.8672433862 218.8998848494
219.0410123398 68.3654416184 270.6056612574
207.9867104820 154.9325360358 242.3689925647
208.4471001451 157.5204683168 235.8743382922
213.8985019717 116.0504552499 212.1379130346
213.4496326033 106.6995317555 203.0812090802
204.0387504109 154.0211669034 242.5391107715
221.7118739537 78.1394026363 218.4672734105
197.5477480728 153.5719615724 239.2771082004
214.1950078180 116.7057911408 207.8056179910
209.3430296137 142.4734433938 223.8110903407
221.5613252533 58.8944932988 249.4029136832
222.0134167491 62.8576659283 239.7799763889
218.2561477906 138.3059438232 220.6248046067
223.7672896424 86.4958526833 214.8664294369
225.9487519668 59.7197044347 241.5189106274
214.0258453161 143.5048170905 220.5147756080
214.2081689325 114.1958316229 209.6874457699
211.3668489877 122.5178547707 219.9706206070
224.4798974515 76.6717080361 229.9969240037
213.9282652788 124.9552745900 210.9888300416
212.9827906719 141.0744241724 220.1426138275
217.9071152135 109.6568981746 210.7141839006
219.2894432618 111.8649331617 210.8025813379
219.1243881082 123.4571992990 211.5011421137
223.9741249788 61.1361560818 235.0784133897
223.5967877469 108.1935101040 197.1024506402
214.8447259017 116.5483159526 208.9550467989
215.1064127272 138.3022688497 221.5513491591
223.0785901420 80.2618014996 217.9924527994
225.2444226330 68.5091467725 246.8956553706
226.5560223432 82.3576856381 226.4664757074
208.9114467545 131.8558904953 219.2898862815
223.2790876955 67.5600509336 231.4504248356
224.1530342586 100.2219755979 205.8286781941
222.0153556738 71.8922424987 274.3241684289
215.9823268574 123.0263032015 216.4771721876
217.5292415991 148.6208403691 227.4045849285
224.0636404703 117.7085768175 205.6358695437
220.6105712155 108.0518676210 204.7858297994
214.2531907279 111.5799213738 200.0613366997
229.0426608721 69.4150766384 229.6120817369
210.2348122518 121.2706902368 212.4914681164
190.6578511684 150.6073237806 237.2913404790
221.2531524091 60.7462184527 243.0547876975
220.9561242334 94.6873846471 210.6370902060
205.9226747508 131.1726436935 218.8001360740
216.2938997151 125.6098891469 216.1708287484
215.7413411999 126.7516825167 214.3703732074
226.7505003320 92.9803781725 208.5116415970
231.5542485797 71.7694500953 229.6249185796
196.6265659056 152.5990474639 240.8233859707
223.4504690927 108.3464359764 195.7218565354
214.1193812606 74.4748842805 281.6517781368
226.8162918032 61.7325597558 237.2612852359
218.9055843325 64.7777829904 259.4014920421
211.0011424758 124.1231649930 215.4369567746
210.2751463123 130.4645295448 216.9504309206
221.6123644844 91.9284584678 208.5985757311
214.5001270216 153.9097906829 233.9373826061
215.6464519591 110.0271721891 201.4745590574
216.3804118061 137.0960524704 222.4466751889
222.2443323926 66.8044795075 263.8304266761
219.6029810240 63.3684076103 263.6769062916
215.9708621827 107.3730081629 215.0219670409
219.7018374138 99.8568838486 209.7578926146
215.7361329063 68.7521219628 276.3747695968
208.6223513916 122.0668785154 215.2902341329
225.5639727076 62.0332564973 236.4939352772
227.5424008707 76.5721335473 227.9107659063
219.7132787380 59.0078805484 253.4856196732
209.3462629815 119.3414735901 213.2191890685
217.7876857655 79.6057695560 222.0202945117
215.8729152505 109.6496963704 215.3119392847
207.3097636759 155.8156046884 246.0833844033
220.9561242334 94.6873846471 210.6370902060
216.3014683842 66.7530817334 261.4412917417
221.9948056831 58.7993459376 259.0886924916
210.3320837430 150.0298945422 231.2157655802
219.9870371043 70.1324960761 233.7211818341
215.1280673437 148.4077498231 229.1738651932
223.4358678084 116.5280881158 206.6608810013
220.4732946764 89.6209954091 211.2723492983
192.1279565375 149.2204771381 231.0818208079
221.7432027197 113.6939648685 198.6154406361
212.6552488650 145.9575141334 233.4633093452
221.3340077108 58.0091153227 250.3390347077
222.7398450148 63.5404858524 265.9006370610
209.9773187982 142.9881618980 225.2723779519
210.6302425954 147.4777592717 226.2642824830
195.5047917851 149.9155352337 242.6957536811
207.4094806328 152.1132943221 244.6043269202
214.3697070978 149.0773754429 228.0518648037
219.3901043335 97.4770874025 212.1577212918
202.8583048579 151.6398400699 240.9795184736
183.6883368799 146.5175995932 238.8143477403
226.9835393486 66.5994065892 246.2358385663
214.6631368498 62.7284974439 257.0245927640
221.3719894278 116.0658803246 207.9805344486
222.6340614104 100.5072667766 209.5680141955
213.9211280332 113.5445643599 210.7464356326
199.3127078901 146.1436063304 241.3039595880
228.8363194183 70.3993415632 231.7282586453
219.0435015078 144.5259588458 225.3539327657
211.8103548495 123.2289510284 214.1165556890
222.0838468817 119.0524730690 204.1432391115
213.5110604105 111.8654223527 214.7130615250
229.7869022512 60.3692509508 236.7035398848
216.1812381885 110.1630158665 205.9485762581
220.0427287620 62.4603248223 259.8411503598
220.3862165700 120.0892957782 209.7298562804
212.2713887574 108.0126581689 201.8860827047
182.1645966005 144.9210251387 239.9298422877
194.7522861313 151.7305960829 239.1582307756
214.4157542114 131.7874039071 220.3976458763
201.0907125525 149.1222287439 240.3506095496
227.3583284096 78.7782793150 222.4150817293
208.8886195134 120.8365319544 214.5101487131
228.1419002094 74.1049536239 232.9862679246
231.5970482942 77.0901595235 222.6277462986
215.3959043221 147.6067386474 228.0683804366
213.0070254859 151.7389560874 229.3745219977
186.1320772297 152.2601773182 236.9471274637
221.0844742730 113.5615846811 196.7408506644
227.4721228071 98.5414029579 203.6837734909
205.4959868599 152.3385843227 234.7128030880
225.7395532099 65.9030472953 236.6053874987
192.2188111048 150.3843492684 235.3317484800
214.1849500602 139.0478537582 218.7199799923
219.8769313413 122.1883765240 209.6186738615
213.2343351728 69.4270659005 275.2171399179
222.7253271191 61.4582982304 235.6856762288
194.4357737599 144.0833431270 233.2639167123
222.9893445589 75.7064754407 225.5165667503
227.5270806197 70.2321405296 236.5313259114
220.0464040172 64.5651454777 258.2849676784
222.0153556738 71.8922424987 274.3241684289
214.6652104373 68.5892502517 283.3262022831
218.1834774108 121.6865356861 207.3160208947
225.6358927036 67.5692220105 245.8948989093
216.7699023518 127.5739287816 209.8080353935
220.3958776556 114.3943478538 194.4608628921
211.7500642184 109.1287880650 201.5766072063
224.9425853739 57.8419676856 238.3623437112
221.2496147550 90.3234040011 214.8097770247
222.8734908834 67.6500322248 264.8137344021
201.2465871709 149.5722301102 244.3451047523
211.0199948101 127.5690183918 221.1768253022
223.1418463281 60.1562535906 248.2547221300
222.7253271191 61.4582982304 235.6856762288
209.0736351241 126.3476715220 215.2230099976
207.3724511054 143.1866390425 223.0848398275
199.3763477722 150.6837004170 244.4206750554
221.5856126886 113.5571007091 197.8654470137
216.1781511619 66.8582571576 257.8026208576
212.0987927902 108.9583899791 201.6047349921
215.3073701359 72.2878503810 277.3448401820
194.9510800276 147.5475184890 238.2657221379
224.2544289939 68.9783764597 246.3504432189
218.9109952251 98.4601350182 211.5602462554
222.2786199575 81.8313149393 224.5605262849
221.7350888969 64.4096253535 239.7175569950
194.4410845163 145.3896621999 232.6256718026
218.8886803921 112.6303865043 208.8754701906
226.0343916219 61.6853553715 251.8075933167
221.3719894278 116.0658803246 207.9805344486
214.6209917892 138.4186634649 224.4596699575
225.8627039355 59.7660116086 248.2758420842
215.6375200274 123.4130391699 206.0876967788
202.9525531772 150.9205039462 240.6916854778
194.4113606774 153.3568286270 234.4496918458
223.0987868967 106.3920998187 203.6206497150
195.1237326641 146.8954472597 233.7682174405
213.3707037137 125.2355598569 213.3311628764
214.0802201549 130.4663287653 220.0922857991
211.0844090272 124.7671269135 216.1490132101
212.1260305884 154.0327272251 236.8913462965
210.8644220620 122.4440093610 215.4299499675
217.4363903327 142.7528217262 224.9480566244
211.5358147639 61.2356635515 259.0359076175
231.3317789892 76.9791401285 223.8161086739
220.6358035606 71.2654561774 277.6148181101
221.4727529559 105.4308405910 201.0393789426
194.5740068385 146.5065887292 230.6194370417
226.0573617222 62.9178969870 236.8986730082
217.3664125415 109.6293721019 198.9758459500
221.5394945320 107.7414087362 198.1060473881
206.2394738903 151.7635655405 235.1022556706
217.8504349888 137.8485638654 218.1751098257
189.5143643819 143.2834462858 237.3987558901
215.5369518083 148.2216987868 229.8463373502
215.4994373663 110.7877456786 199.1646573151
210.3987169977 157.7053283065 236.1144501869
212.3599273032 132.0421223494 220.3821561550
216.5341999384 121.6120034985 215.4145583530
221.8534077639 106.5537236653 198.7966825896
221.5992033700 94.4384179858 206.7167479522
181.2388870331 143.3951866071 234.6080609925
220.7624012789 96.6216595881 215.1143690220
197.5038288085 144.9927176128 236.6239496544
222.7654740680 58.2788138868 259.4428378897
213.6833201838 109.3541415334 209.4933354251
222.0610310656 103.9707073696 207.3814361087
195.9465824101 143.8480602726 236.1149809428
223.7471389266 57.9309516381 252.6173235376
211.1489886930 149.1065647376 235.9906266853
220.5925468819 93.1720994603 210.7504704038
218.1794038533 77.8148476759 220.4873995644
219.9315088463 124.3781446206 208.5194367701
218.7232136393 111.1915456964 209.3816613259
225.9273870698 104.5306174361 203.5442044418
214.8477653794 65.6201981986 262.8160675883
