131.7287445068 55.9059982300 159.4286041260
140.0820617676 25.8080520630 194.6720123291
142.6139526367 34.7299995422 171.4938049316
138.5246582031 20.0123462677 227.9700012207
116.6274261475 65.2098693848 249.4600067139
137.8408660889 49.0129661560 162.1399993896
122.0316925049 54.0673675537 244.2100067139
146.6727752686 27.1189937592 214.5061950684
123.2338027954 74.4872055054 252.0912017822
138.8974304199 22.4498653412 229.5200042725
144.7867584229 28.2520160675 212.2046051025
144.9192047119 29.4175930023 186.1882019043
140.2316589355 57.2193565369 162.6903991699
129.5483856201 74.4679565430 246.1259918213
139.1597595215 84.5899963379 249.1000061035
143.1467132568 50.5797271729 161.3499908447
140.4031829834 29.6945781708 233.3179931641
146.0772247314 29.3453559875 226.7300109863
118.4474258423 68.5598678589 247.6000061035
142.0398101807 30.2867507935 221.3800048828
149.8043060303 29.3740768433 227.3423919678
134.4864654541 55.0312347412 165.0800018311
135.7533874512 38.8498687744 163.9826049805
139.5036315918 28.5069828033 203.7595977783
137.2188262939 40.1140251160 237.4899902344
140.0972290039 28.4653568268 190.3400115967
146.4551391602 27.4599990845 191.3030090332
139.4643096924 37.6140747070 233.1423950195
130.5246582031 72.0223464966 250.9499969482
146.5716857910 22.3073673248 207.3699951172
131.5162963867 57.8087005615 153.7149963379
133.2031860352 64.7645797729 157.0279998779
146.5939941406 24.6622085571 191.0200042725
135.1302947998 71.4298400879 248.1250000000
137.6734008789 49.2898674011 157.3526000977
136.2551422119 26.3600006104 177.9230041504
139.8597869873 22.9057159424 202.4018096924
145.5231933594 31.9545783997 172.5479888916
140.5474243164 31.6998653412 182.5200042725
133.9574279785 44.8898658752 234.9400024414
137.1040649414 43.4528427124 166.5999908447
142.1827850342 28.8589954376 194.3761901855
137.6421966553 52.4598693848 162.1100006104
136.4074249268 29.5798664093 180.9700012207
133.6597595215 27.4099998474 231.2900085449
141.7552947998 50.6069221497 163.9840087891
122.8046646118 75.7723464966 246.7400054932
142.1027374268 43.8701019287 169.7689971924
134.4772338867 59.5353546143 156.1900024414
129.9239501953 63.6800003052 153.5838012695
126.4008636475 64.9329681396 160.8300018311
143.9321441650 27.5069351196 181.1031951904
117.9514007568 68.4400024414 250.9288024902
128.2297515869 65.1699981689 154.8000030518
138.5959625244 20.3988018036 236.3368072510
142.1027374268 43.8701019287 169.7689971924
143.3664703369 26.3312339783 183.2900085449
128.5413970947 67.2099990845 154.3388061523
143.7372283936 26.3853549957 187.9700012207
140.8236236572 21.9869823456 222.4395904541
132.9643096924 61.8640747070 153.9924011230
129.0742950439 49.8840751648 241.2023925781
127.7022018433 64.4198684692 156.7099914551
131.8094024658 63.9825363159 152.7440032959
147.6739959717 24.6722068787 229.3000030518
132.1288299561 43.3440246582 244.0999908447
125.8067092896 76.8797225952 160.8399963379
117.1840057373 58.3522071838 245.9199981689
144.5743103027 34.2440757751 168.8323974609
145.4199981689 22.3752365112 202.7673950195
119.4839630127 63.9300003052 244.6538085938
142.4537963867 23.5772056580 236.6911926270
141.0886230469 25.0217704773 221.1459960938
129.0182800293 68.8633728027 155.2259979248
134.2997589111 43.0200004578 230.2799987793
137.4862976074 15.6087007523 229.4750061035
117.1840057373 58.3522071838 245.9199981689
140.9682769775 28.4733753204 226.7959899902
121.2997589111 68.0599975586 246.9100036621
141.4289703369 41.3992614746 232.1889953613
133.5388183594 59.3440246582 154.0599975586
140.8236236572 21.9869823456 222.4395904541
145.7543029785 23.9340763092 220.2124023438
143.5321350098 42.5969390869 160.6231994629
128.5814056396 60.0999984741 151.0288085938
139.2586212158 29.8817710876 204.4859924316
139.4672241211 80.3853530884 246.8800048828
141.6886138916 23.0856113434 210.0276031494
133.0946655273 26.6623458862 232.6900024414
137.8325805664 26.8299999237 189.1179962158
141.2821350098 80.9269332886 251.9531860352
144.1927337646 56.2401008606 162.7789916992
141.4539489746 23.6499996185 225.9838104248
137.5599975586 39.4452362061 232.3873901367
131.9647827148 67.7053222656 153.9010009766
142.1588287354 24.5140266418 196.8799896240
138.9427337646 37.9601020813 239.6889953613
143.5165863037 25.0216922760 229.5157928467
126.3163070679 75.6087036133 243.9149932861
139.3979187012 40.3276214600 171.9270019531
142.8582763672 29.6733741760 225.9059906006
134.9774169922 58.6598625183 162.8200073242
145.4952850342 21.7869243622 233.3639984131
130.7646636963 53.8923454285 162.9700012207
143.6989746094 31.7292652130 164.6689910889
130.6191253662 63.3758621216 158.8540039062
141.9406890869 30.5810241699 231.6802062988
142.1372222900 28.5553550720 201.6999969482
142.4079132080 51.2776184082 160.1470031738
135.9072265625 31.5653553009 230.6600036621
118.7097930908 62.9057159424 246.5718078613
127.4146575928 70.8323516846 159.4199981689
128.2407226562 77.8166427612 250.5460052490
149.3289489746 27.1081829071 192.9270019531
142.1633911133 35.1998672485 174.5626068115
138.6621398926 47.2569389343 238.1931915283
145.9321441650 21.9369354248 209.7131958008
140.7246551514 22.9523468018 205.0000000000
130.3589477539 52.6081809998 249.2169952393
143.4920501709 79.8403854370 247.4669952393
144.0149841309 27.7869262695 233.9453887939
126.0819320679 63.9689865112 160.5380096436
138.8147888184 47.1653213501 155.0509948730
117.3897552490 75.7399978638 245.9000091553
143.8388214111 31.3340263367 223.4899902344
139.8546600342 18.3223457336 235.8500061035
137.2033996582 51.4598693848 163.1126098633
136.9657592773 28.6859035492 176.4830017090
122.2832717896 69.5081024170 250.9739990234
139.7257537842 23.3859024048 204.6130065918
130.5637969971 48.1872062683 246.5211944580
140.9564666748 77.8712310791 251.5800018311
131.9647827148 67.7053222656 153.9010009766
134.0279235840 60.1276206970 165.9969940186
115.1274261475 76.7298660278 248.3500061035
127.3646545410 58.3023452759 154.6300048828
137.4862976074 15.6087007523 229.4750061035
138.9549865723 48.2369270325 164.1253967285
121.3379135132 67.5176239014 253.9869995117
137.0846557617 21.2323455811 189.6300048828
142.0621337891 40.8969383240 232.5731964111
139.7897796631 40.0857162476 171.3717956543
138.8336181641 28.8069820404 187.8896026611
138.2636260986 42.5569839478 168.9196014404
119.8538055420 68.8172073364 255.0111999512
124.7522048950 54.5298690796 243.9700012207
142.6139526367 34.7299995422 171.4938049316
144.9316864014 19.1773681641 226.9400024414
142.4679107666 57.4376182556 162.8669891357
139.1739501953 33.8499984741 228.0337982178
131.3220672607 46.0880508423 238.5920104980
142.9352874756 47.0269241333 161.5039978027
140.3567657471 25.3820171356 201.6346130371
120.4747848511 59.3853225708 245.7109985352
142.4916534424 82.6993560791 250.7504119873
139.9589691162 26.6392650604 179.2589874268
138.2338104248 48.3772048950 242.6712036133
142.3321380615 37.8569374084 164.9931945801
132.1033935547 80.2498703003 251.8626098633
139.2717590332 43.4768028259 160.3310089111
136.8797912598 49.9657173157 161.9618072510
138.7489471436 29.0381832123 235.2870025635
122.0616607666 60.6493568420 249.8704071045
138.0586090088 41.3956108093 171.1876068115
146.3265838623 27.5716915131 199.8358001709
139.5952911377 32.8269233704 237.0240020752
135.4236297607 45.2669830322 162.4795989990
141.7036285400 28.9569816589 195.8896026611
135.6659698486 24.0088005066 191.5468139648
122.6188201904 67.5740280151 253.1799926758
138.1974182129 33.0098648071 174.8699951172
135.9986114502 41.8956108093 166.2575988770
141.1838073730 39.9172058105 168.0111999512
113.1667633057 64.2920150757 246.5146026611
125.3088226318 74.6140289307 246.0599975586
143.8239898682 22.8822078705 212.4900054932
145.3739624023 23.6399993896 212.9338073730
135.6889495850 70.8281860352 252.3470001221
134.6267089844 34.8397254944 236.8600006104
130.9108734131 71.9429702759 254.6499938965
120.3074264526 59.0498657227 245.1100006104
148.1002807617 23.8298377991 193.4049987793
141.7852935791 14.6269245148 231.7539978027
136.8193969727 79.4225387573 245.0440063477
138.4613952637 18.5699996948 229.2388000488
141.5588226318 41.7940254211 234.1199951172
126.2731933594 57.5445785522 246.4479980469
139.3614044189 51.3199996948 155.9687957764
143.2489318848 45.2558326721 164.3820037842
140.7082824707 14.4133758545 229.4859924316
129.6788177490 52.4140281677 244.8199920654
128.7931976318 52.5245780945 242.7579956055
136.0486145020 25.7756099701 192.9076080322
126.3608703613 46.1229667664 246.8199920654
142.6588287354 26.3640270233 181.1299896240
138.8255767822 71.8459167480 245.6389923096
128.4589385986 73.5158386230 162.3820037842
139.8746643066 17.5223464966 215.0299987793
145.1452941895 21.3069229126 208.4840087891
138.5667572021 46.2220153809 232.2946014404
147.1227874756 22.7289943695 207.1961975098
131.7287445068 55.9059982300 159.4286041260
133.5934753418 30.8530483246 234.1860046387
137.1559600830 80.1088027954 252.4067993164
144.0926361084 18.3068008423 212.2530059814
132.1352844238 64.3269195557 162.7839965820
144.1149902344 84.2969207764 247.9053955078
140.3552856445 16.8269233704 232.4140014648
143.8699951172 19.7208442688 236.8399963379
128.4499969482 71.2908477783 161.4300079346
130.4916839600 53.2473678589 243.9799957275
146.7116851807 28.4273681641 227.5700073242
134.1139526367 34.4900016785 231.0738067627
133.3267059326 61.7097244263 153.7799987793
142.8140716553 45.5228424072 164.5000000000
146.8038024902 26.7672042847 204.0211944580
137.7246551514 51.1423454285 159.4199981689
139.4392089844 48.1775932312 241.5281982422
121.2102966309 52.0698394775 246.0650024414
120.3639602661 69.5500030518 244.5138092041
135.8282775879 39.2733764648 232.3860015869
138.3883819580 35.8679618835 231.5859985352
138.1374206543 56.9698638916 161.3399963379
134.4746551514 24.4723453522 189.0299987793
112.8859558105 60.7788047791 248.0468139648
147.7316894531 21.4573688507 215.9400024414
145.3433990479 23.0998687744 224.4226074219
141.1446685791 23.4523468018 213.9900054932
136.4616546631 31.8293571472 235.1704101562
141.0839538574 27.4500007629 166.6737976074
140.0708618164 27.5829696655 184.8300018311
139.2557678223 31.3659038544 225.9230041504
122.8046646118 75.7723464966 246.7400054932
140.9116668701 53.4093551636 158.6903991699
143.3440704346 19.2928428650 237.0899963379
139.7379150391 20.2076225281 233.0370025635
128.9966735840 69.7900009155 154.0019989014
139.0699920654 74.2452392578 243.3373870850
136.2039489746 38.3800010681 160.9138031006
147.3340759277 26.2328433990 203.7500000000
115.8967666626 71.3720169067 252.5046081543
126.3607330322 51.2400016785 241.4226074219
134.7740783691 76.3228378296 250.8399963379
141.5087432861 18.7959957123 211.4186096191
131.5939941406 71.5622024536 250.1100006104
140.9827270508 32.7701034546 166.6389923096
143.8567047119 26.7997264862 214.6100006104
127.9982833862 72.9333724976 246.6559906006
136.2643127441 44.1940727234 234.5323944092
135.3208618164 36.3829689026 235.0199890137
137.4640045166 15.6122064590 228.9499969482
144.7589721680 55.3492622375 160.7489929199
120.8189697266 57.4592628479 243.6790008545
121.3116912842 63.1973648071 250.4100036621
120.1538009644 67.5072021484 254.7411956787
116.2636260986 78.1969833374 248.5095977783
116.8486175537 77.5017700195 247.4960021973
134.7740783691 76.3228378296 250.8399963379
125.7240066528 50.0022048950 247.3300018311
135.4226379395 41.0167999268 239.7530059814
139.8321380615 36.9369392395 235.6631927490
146.6849975586 25.4069252014 215.2353973389
140.4197540283 19.0699996948 234.4500122070
133.4992065430 69.4775924683 157.1681976318
121.6299972534 61.9652366638 245.3273925781
142.2698059082 45.5067520142 156.9799957275
128.8882751465 63.8533744812 155.7760009766
139.4046630859 39.9723472595 234.6900024414
122.5532989502 67.6426925659 251.7779998779
146.9764709473 24.1812343597 201.7500000000
125.7359542847 44.1788024902 242.0068054199
136.0755767822 34.7959175110 240.8289947510
128.5233001709 76.4426956177 251.6380004883
141.6632995605 36.4526977539 169.8979949951
143.5740661621 21.0428428650 224.0099945068
117.9074249268 73.3298645020 248.3500061035
131.7313995361 46.3600006104 237.6188049316
130.7567138672 44.9897270203 244.8699951172
135.5136260986 79.7269821167 247.1895904541
138.4292144775 38.1875953674 233.5381927490
125.2384567261 74.2662811279 246.9497985840
130.8486022949 56.9456100464 165.6775970459
145.3292083740 34.3975944519 173.0281982422
139.1582641602 23.2973060608 236.8610076904
136.4121398926 73.0569305420 253.0231933594
132.9684600830 64.9262771606 154.8097991943
140.7313995361 29.3999996185 179.1087951660
141.9347839355 27.7953243256 229.7109985352
140.7220611572 22.6180515289 208.7220001221
128.6316680908 69.1493530273 159.1804046631
147.3955841064 21.1559162140 224.0390014648
138.3267669678 22.6320171356 235.9446105957
146.0299987793 28.5608444214 169.7299957275
143.0143127441 44.5540733337 160.5623931885
140.0433959961 24.6798686981 235.3726043701
129.0182800293 68.8633728027 155.2259979248
127.4238052368 74.4872055054 162.0312042236
137.1933898926 46.9398689270 164.8926086426
139.3474273682 37.2298622131 237.4600067139
138.6340789795 38.5528411865 237.2399902344
143.3287506104 21.4959964752 204.9486083984
138.1089477539 26.8281841278 234.7570037842
125.4520645142 48.9180488586 242.6820068359
143.6721954346 27.7098693848 227.9899902344
126.0857620239 49.8759002686 250.0230102539
142.3225860596 24.4400005341 211.9179992676
116.6899948120 60.7308464050 252.3600006104
124.6440048218 74.4822082520 244.6600036621
131.5033874512 48.4598693848 245.6426086426
131.3952941895 57.0769233704 156.0240020752
128.6002960205 49.3998374939 250.8350067139
146.9539947510 23.2422084808 191.9799957275
141.6897583008 28.0599994659 195.3899993896
130.7782745361 58.5433769226 151.6259918213
140.6774291992 24.5398654938 221.8099975586
145.2567138672 28.9597263336 198.0000000000
141.8972320557 40.2453536987 165.6100006104
133.7346649170 42.2723464966 231.6799926758
136.3872222900 25.8953552246 187.9100036621
149.5152893066 26.5369243622 230.0639953613
140.4031829834 29.6945781708 233.3179931641
131.0197906494 55.0657157898 158.6318054199
143.8740692139 25.6428432465 192.4599914551
137.2440032959 24.2322082520 178.6800079346
125.7459564209 45.0888023376 245.1768035889
135.9497833252 47.4857139587 241.9118041992
142.9336547852 24.5478248596 205.3539886475
135.3446655273 71.5723495483 246.3600006104
141.6898040771 17.3967514038 235.0999908447
137.2733001709 45.2926979065 164.6979980469
143.4088287354 40.7740249634 167.7500000000
144.9316864014 19.1773681641 226.9400024414
123.7440032959 54.4222068787 246.9199981689
140.2836303711 29.0669822693 188.3495941162
135.3791351318 33.1458625793 234.4239959717
141.7747802734 25.7953243256 167.4409942627
127.6392135620 58.0075950623 244.2182006836
143.6714019775 24.0499992371 200.3688049316
134.5836181641 37.1469841003 238.5095977783
126.2474212646 56.9498634338 243.1600036621
142.5940704346 78.6728439331 251.2999877930
131.0888214111 56.1740264893 160.7200012207
139.2986145020 34.1717720032 223.6859893799
139.5421447754 47.6069374084 240.4031982422
136.3872222900 25.8953552246 187.9100036621
138.2052917480 33.5369224548 240.0140075684
118.0199966431 70.8452377319 251.7373962402
134.7847747803 55.4253234863 158.0610046387
143.7765808105 21.8316917419 211.8358001709
141.3059692383 21.3188018799 208.6668090820
139.2586059570 37.9556121826 169.3076019287
143.2582702637 23.3033752441 194.0159912109
119.6288223267 58.5540275574 250.5899963379
141.7688293457 26.8940258026 206.8199920654
141.6421966553 45.8998718262 159.9899902344
145.1167144775 23.3497257233 210.3800048828
145.4343109131 24.1440753937 205.7624053955
137.3997497559 43.5499992371 160.1399993896
138.0886230469 84.3217697144 249.4359893799
146.3749847412 28.5669250488 213.3553924561
125.5236206055 79.9269790649 246.6895904541
119.2067642212 65.3820190430 245.8046112061
129.5197601318 66.4800033569 154.5800018311
146.0647888184 21.9853229523 213.7010040283
142.5816955566 27.7273674011 205.9799957275
134.5679168701 75.0176239014 255.6269989014
147.8789672852 27.5892658234 207.0089874268
135.4159698486 46.7888031006 240.8568115234
144.6821441650 28.3769359589 183.1031951904
137.8236236572 85.3269805908 251.5296020508
137.8752899170 72.1069183350 246.0540008545
129.1879119873 53.2976188660 251.2469940186
142.5138092041 27.7272052765 191.0711975098
145.8789672852 28.0692653656 207.4389953613
124.5388259888 75.4440231323 247.3000030518
129.6566772461 47.6199989319 241.6519927979
146.5255737305 22.7459163666 199.8289947510
135.6889495850 70.8281860352 252.3470001221
134.4517669678 51.0768051147 238.7510070801
131.0736236572 76.9369812012 248.3395996094
140.8236236572 31.7669811249 181.7796020508
142.6036224365 28.3669815063 209.1095886230
147.5927886963 26.8189945221 200.2861938477
119.4120635986 58.3080482483 248.3420104980
134.0279235840 60.1276206970 165.9969940186
149.4889373779 30.3458328247 233.2420043945
135.4514007568 47.6500015259 236.3787994385
134.0939483643 57.0800018311 157.2938079834
143.9100036621 52.8908462524 164.3899993896
126.4799957275 74.2752380371 155.5074005127
134.2138061523 47.7172050476 242.8011932373
147.6392059326 23.8875923157 198.6781921387
144.2452850342 30.2069244385 172.5339965820
140.2766876221 25.0499992371 187.3419952393
147.1882781982 23.6933746338 193.5760040283
124.9734725952 52.5730514526 249.8359985352
144.7484588623 82.6462783813 247.0497894287
128.9316558838 75.5693588257 157.8303985596
129.4616546631 47.7293548584 241.8003997803
144.8092041016 34.7575950623 223.3981933594
136.3834686279 40.1930503845 170.6759948730
118.3713989258 55.5000000000 243.9588012695
143.0594024658 25.4125347137 222.5740051270
136.8355865479 41.1059188843 239.7389984131
138.7146606445 38.7923469543 233.6499938965
128.6002960205 49.3998374939 250.8350067139
137.6582794189 39.8933753967 230.8459930420
142.4799957275 24.8552360535 200.8674011230
148.8489532471 27.5881843567 195.1869964600
146.9334716797 30.5330486298 232.7660064697
133.5934753418 30.8530483246 234.1860046387
129.0636291504 60.1869850159 160.8695983887
127.7436218262 67.5269775391 156.2295989990
130.4799957275 55.6052360535 247.2274017334
124.1397552490 75.6900024414 244.1000061035
140.2316589355 57.2193565369 162.6903991699
133.7127380371 61.6601028442 164.7789916992
136.1559600830 21.7088012695 190.2268066406
135.3982543945 29.8873062134 236.9110107422
146.4888153076 18.1140270233 221.0800018311
134.7888183594 45.9040260315 241.8999938965
122.2188262939 58.1040267944 250.7700042725
122.6472244263 68.7353515625 247.1900024414
140.9936523438 24.0478248596 229.5939941406
146.2263031006 25.1686992645 209.6049957275
130.4940643311 74.4628448486 252.2099914551
145.7416839600 20.4473686218 228.5500030518
124.6440048218 74.4822082520 244.6600036621
141.7955780029 23.7359161377 182.0189971924
144.3821411133 33.9469375610 223.9531860352
144.0355834961 15.7859172821 219.9989929199
143.2516937256 52.2773666382 163.0200042725
135.9357604980 16.2759037018 230.6930084229
148.7042999268 27.2740764618 191.8323974609
114.7714004517 59.7700004578 245.8287963867
118.3567657471 72.9020156860 245.9446105957
142.5021972656 26.1598682404 181.4700012207
129.5483856201 74.4679565430 246.1259918213
130.8442993164 48.9040756226 242.8923950195
137.8574218750 79.0298690796 246.3000030518
132.5874176025 74.3898696899 246.9199981689
128.9542999268 78.8440780640 243.6123962402
140.3213958740 42.9900016785 158.8088073730
127.5182876587 42.7333755493 241.8159942627
133.3955841064 54.6159172058 159.3990020752
130.3333892822 70.2798690796 158.7026062012
145.0688171387 18.6640262604 215.6399993896
139.6616668701 31.0093574524 177.9703979492
128.1272277832 75.8453521729 246.1000061035
141.7855834961 30.5759162903 232.2189941406
130.1825866699 61.7900009155 149.8880004883
125.2232971191 58.1626968384 248.2680053711
141.1882781982 26.2333755493 183.1360015869
129.6539916992 62.8222045898 157.2299957275
138.6074218750 30.2098655701 181.8099975586
142.3388214111 18.0640258789 238.0299987793
133.0940704346 76.2828445435 253.9899902344
142.6226348877 15.5868005753 219.9230041504
142.2122039795 17.8498687744 211.6399993896
124.3772201538 58.8753547668 248.4000091553
142.5967102051 46.5797271729 163.6600036621
143.3652954102 27.0269241333 184.4640045166
127.9683914185 53.7179603577 241.6660003662
139.6425781250 32.3699989319 222.2579956055
117.8557586670 52.2959022522 247.3130035400
136.2551422119 26.3600006104 177.9230041504
141.8018646240 83.2675247192 250.6019897461
146.9016876221 27.0973682404 203.7799987793
133.3408660889 33.8929672241 237.4199981689
115.0157623291 58.0158996582 247.5130004883
137.2587432861 49.3559989929 163.2686004639
134.0279235840 60.1276206970 165.9969940186
140.3039550781 15.8599996567 217.2238006592
151.7589721680 30.5592651367 229.1989898682
139.2586059570 37.9556121826 169.3076019287
137.8182830811 75.2933731079 246.0260009766
128.7299957275 70.4608459473 160.3899993896
119.5427246094 57.1701011658 249.0089874268
132.3865814209 65.8416900635 156.8957977295
141.5774230957 26.4398651123 207.1000061035
116.5072174072 68.7553558350 251.2799987793
132.1027374268 71.1400985718 160.7989959717
134.9425811768 42.9099998474 229.5480041504
130.6926422119 71.2667999268 249.0930023193
143.5789489746 50.5881805420 158.1170043945
136.9833984375 50.9598693848 165.6726074219
141.3155822754 16.5259170532 225.4989929199
141.1367034912 33.1097259521 166.1900024414
141.6898040771 17.3967514038 235.0999908447
137.3626403809 52.6767997742 163.1929931641
144.4646606445 23.1023464203 196.7500000000
142.6226348877 15.5868005753 219.9230041504
134.8486175537 79.0317764282 243.6159973145
141.7740020752 23.2722072601 190.3200073242
142.8793945312 47.0525360107 162.9540100098
140.5589752197 51.5492630005 155.8489990234
133.8536529541 43.2978248596 233.5540008545
146.3592071533 32.3975944519 180.6681976318
146.9334716797 30.5330486298 232.7660064697
133.0199890137 66.1952362061 160.7873992920
143.7232818604 24.3681030273 220.1940002441
145.5286102295 28.8256111145 195.7176055908
122.7797927856 70.8157119751 248.8917999268
117.5757598877 73.5058975220 250.2129974365
127.3989715576 76.1492614746 159.2890014648
133.8551483154 26.8700008392 231.4430084229
146.4497528076 24.4500007629 191.4199981689
126.0013961792 53.6899986267 242.0787963867
122.4138031006 58.9372062683 251.2312011719
118.5717620850 58.0168037415 244.4910125732
141.4833984375 19.6198692322 211.3825988770
144.7546539307 18.4423465729 220.5200042725
131.6386108398 76.7956085205 251.4376068115
132.7897491455 73.3300018311 246.0800018311
139.2236175537 57.2269821167 162.5596008301
141.7892608643 24.6792011261 228.2642059326
148.2652893066 23.9069232941 195.8440093994
136.2047882080 32.1353225708 229.8710021973
133.0527801514 46.1989936829 244.7261962891
148.4321441650 26.1269359589 231.0932006836
135.9859619141 41.8488044739 162.5968017578
138.5646667480 30.1223468781 166.8500061035
136.1816558838 58.8293571472 163.2804107666
125.4136276245 78.6669769287 248.9095916748
137.3208618164 79.7829742432 251.2200012207
131.0397491455 46.2599983215 238.6200103760
145.0967712402 25.0920162201 214.0846099854
137.4639587402 28.7299995422 176.4738006592
133.2752838135 54.6469230652 165.2239990234
137.8574218750 79.0298690796 246.3000030518
138.3038177490 33.6784782410 232.0713958740
145.3127288818 28.9601039886 209.4689941406
140.1167144775 32.8497276306 233.3899993896
146.9452819824 25.3869228363 210.4640045166
126.7536315918 68.7769775391 157.8195953369
142.2307281494 25.7500000000 230.0826110840
123.3317642212 78.1368026733 245.1310119629
141.3851470947 25.9899997711 201.1029968262
125.1555862427 70.3659133911 249.6589965820
141.5631866455 48.8245773315 162.6479949951
135.9599914551 35.4152374268 231.4573974609
128.0240020752 49.1622047424 248.3700103760
140.3638000488 18.9472045898 233.3211975098
124.3563079834 74.8487014771 244.7250061035
129.7020568848 71.0703887939 247.0070037842
126.6513977051 45.3899993896 239.7388000488
144.0752868652 53.3069229126 160.8440093994
140.1797485352 31.8199996948 164.5100097656
136.2039489746 38.3800010681 160.9138031006
136.6989593506 72.3081893921 250.8069915771
144.4904632568 81.9869384766 250.3873901367
141.3947753906 41.7953224182 158.7810058594
132.1767578125 61.8020133972 160.5446014404
142.4640655518 23.9328441620 206.1199951172
133.4051361084 74.6100006104 243.7730102539
118.0199966431 70.8452377319 251.7373962402
138.6579132080 45.1076202393 241.1770019531
130.1247863770 56.3253211975 154.8009948730
135.5291290283 40.5958633423 165.6940002441
131.3492126465 54.3475952148 248.3782043457
124.8008651733 55.1029663086 247.0599975586
141.1825866699 32.3400001526 220.4280090332
137.0008697510 41.6829681396 166.6599884033
135.6659698486 24.0088005066 191.5468139648
143.3188171387 20.5140266418 208.8099975586
144.1692047119 23.3175926208 227.5182037354
117.8940048218 74.5322036743 246.4600067139
136.4882659912 47.2373085022 241.8509979248
140.0116882324 36.9373664856 233.8099975586
140.2039947510 30.2122077942 223.3600006104
121.8583908081 62.1679611206 247.9960021973
135.3618621826 58.3075256348 164.6619873047
140.2062988281 38.6686973572 232.5950012207
134.1299896240 79.8652420044 246.7973937988
140.2982788086 26.5433750153 175.9859924316
131.4891357422 77.9658584595 251.3240051270
122.7972183228 69.3253555298 251.5000000000
114.8308639526 68.4229736328 253.2399902344
141.8939971924 31.5522060394 220.8800048828
131.7939605713 56.0900001526 156.7138061523
122.4616851807 52.7173652649 245.2200012207
142.3598022461 26.0767517090 176.1999969482
130.8159637451 45.1488037109 239.8868103027
142.2352905273 77.4969177246 250.9440002441
136.4467163086 44.6197280884 236.8199920654
141.2449951172 35.9469261169 227.8553924561
140.4497528076 28.8999996185 203.3700103760
147.8239593506 27.5900001526 226.1838073730
137.8786163330 29.9817733765 181.0759887695
129.6521911621 68.2198715210 154.7299957275
145.1716918945 30.6273689270 226.8300018311
147.4908599854 31.0229701996 232.8699951172
138.0072326660 18.9753551483 229.5400085449
143.3374176025 27.8698654175 228.4799957275
129.7643127441 55.3740730286 244.3923950195
117.2691268921 62.6958618164 252.6640014648
132.5707244873 57.0200004578 157.3426055908
129.3914031982 58.4700012207 159.5088043213
146.1821441650 21.8369350433 231.5531921387
142.8988189697 30.4440269470 172.1299896240
137.3349914551 56.2169265747 161.2953948975
125.1555862427 70.3659133911 249.6589965820
140.3559570312 27.2388019562 167.9968109131
136.2757568359 83.0158996582 252.6630096436
145.4192047119 25.6875934601 233.1781921387
132.5088195801 54.7040252686 165.5899963379
140.5482788086 16.9533748627 227.3560028076
142.7979125977 55.9576187134 164.7070007324
130.1817626953 60.7668037415 160.4110107422
132.5865936279 49.2516937256 243.8157958984
138.5014038086 46.5000000000 158.4488067627
128.9507293701 72.8700027466 246.1726074219
136.9657592773 28.6859035492 176.4830017090
139.1246643066 37.2223472595 168.6600036621
115.2282562256 66.4873046875 252.6710052490
136.6097564697 38.8400001526 167.6699981689
141.0616607666 23.6993579865 236.7904052734
135.4840698242 72.9928436279 249.1499938965
142.7997894287 20.4257164001 204.3018035889
141.5316925049 35.9273643494 237.7400054932
149.2921447754 26.3069362640 229.8432006836
128.8882751465 63.8533744812 155.7760009766
144.4664764404 30.8712348938 173.6399993896
139.0834655762 32.9530487061 226.0659942627
138.8255767822 71.8459167480 245.6389923096
141.4539489746 23.6499996185 225.9838104248
148.2652893066 23.9069232941 195.8440093994
139.9616851807 32.9673652649 233.5000000000
138.0567169189 29.0097255707 236.5899963379
141.7467041016 29.1697254181 203.0999908447
140.8246612549 32.0123443604 221.7200012207
125.6657638550 71.6259002686 158.1529998779
142.2464752197 24.7712345123 192.9100036621
128.7931976318 52.5245780945 242.7579956055
139.1597900391 33.1557159424 227.4718017578
143.3588256836 48.2140274048 161.6299896240
139.2597503662 56.3600006104 157.5100097656
136.1506958008 46.6910247803 163.9002075195
132.0221405029 43.6369361877 242.4631958008
147.9140777588 27.0728435516 212.1599884033
139.2391357422 54.8858604431 165.4340057373
138.9397888184 24.2757148743 206.5018005371
142.3386077881 24.2356109619 216.8475952148
133.5182647705 33.4073066711 238.3509979248
138.9274291992 31.9298667908 166.2900085449
140.7192535400 30.4292011261 186.1242065430
140.6046600342 18.3923454285 237.4700012207
146.9334716797 30.5330486298 232.7660064697
138.0708618164 32.2929687500 176.2699890137
148.0221405029 20.7569351196 219.8432006836
141.8439941406 30.0822086334 221.9300079346
143.8343048096 22.1140766144 213.4824066162
130.9967651367 70.8120193481 154.2846069336
130.1038055420 71.1972045898 158.4011993408
144.5321350098 18.2369346619 216.4031982422
129.0140686035 51.3828430176 251.8099975586
134.8836517334 79.8378219604 246.2839965820
118.7097930908 62.9057159424 246.5718078613
140.1464691162 29.9112339020 230.2500000000
116.4988250732 74.5940246582 249.4700012207
137.3346557617 50.0923461914 157.3999938965
143.3652954102 27.0269241333 184.4640045166
121.3321380615 62.4169387817 250.0031890869
129.0140686035 51.3828430176 251.8099975586
143.2967681885 22.9020175934 203.5346069336
136.3082580566 27.0573062897 193.1510009766
138.7674255371 29.2998657227 205.0000000000
117.9586105347 73.7756118774 252.1775970459
134.9425811768 42.9099998474 229.5480041504
144.0926361084 18.3068008423 212.2530059814
130.7052917480 42.2869224548 243.8240051270
134.8733062744 44.1426963806 241.3480072021
133.2331848145 73.5445785522 156.2379913330
138.9397888184 16.9757156372 224.7317962646
138.1716613770 39.4193572998 236.5704040527
138.4936218262 51.0569839478 156.0495910645
124.2008666992 46.8729667664 244.2799987793
145.8789672852 28.0692653656 207.4389953613
141.0199890137 34.7752342224 228.4173889160
141.2308654785 33.6329689026 177.5399932861
144.0926361084 18.3068008423 212.2530059814
139.9738006592 43.6872062683 165.3912048340
143.0192108154 15.5275936127 218.7581939697
146.6727752686 27.1189937592 214.5061950684
142.6226348877 15.5868005753 219.9230041504
141.3608703613 28.4029693604 197.6299896240
127.1220550537 72.0180511475 156.0320129395
117.7789688110 68.7892608643 251.0889892578
141.2921905518 16.2298679352 216.4799957275
141.1779174805 40.7576179504 235.4369964600
141.3236236572 22.7369823456 214.3896026611
142.1372222900 28.5553550720 201.6999969482
140.8074188232 29.0898666382 189.4600067139
142.4640655518 23.9328441620 206.1199951172
129.8279113770 65.1476211548 162.9469909668
148.3388214111 24.8040256500 230.6999969482
117.9514007568 68.4400024414 250.9288024902
140.4187469482 34.1659965515 168.1186065674
126.6513977051 45.3899993896 239.7388000488
143.5589599609 17.1081829071 230.6470031738
137.2988281250 32.6040267944 235.8999938965
127.2536315918 55.5869827271 247.7395935059
132.6867065430 74.3097229004 254.9499969482
139.8236236572 44.0569839478 167.2495880127
135.0846557617 35.2923469543 234.1799926758
135.6592102051 41.0875930786 238.7682037354
113.4736251831 63.7069854736 247.1396026611
138.6721343994 74.7369308472 244.3131866455
147.1882781982 23.6933746338 193.5760040283
121.8040084839 66.8522033691 247.4700012207
142.5839538574 36.0600013733 166.3038024902
142.1372222900 28.5553550720 201.6999969482
133.7382659912 34.9773063660 239.9910125732
148.8489532471 27.5881843567 195.1869964600
140.3262939453 29.1486988068 165.0149993896
131.0140686035 62.7328414917 153.5899963379
137.0546569824 45.5423469543 241.3899993896
142.2652893066 26.4469242096 185.4040069580
114.8308639526 68.4229736328 253.2399902344
140.3097839355 26.4257164001 168.5917968750
135.7467651367 55.9020156860 160.1446075439
129.8286132812 59.2056121826 165.1275939941
122.8046646118 75.7723464966 246.7400054932
140.5274200439 32.2598648071 175.9499969482
137.9147796631 71.6653213501 243.7209930420
131.0739898682 60.4322052002 150.2500000000
143.9340667725 27.6328430176 205.3799896240
140.0708618164 27.5829696655 184.8300018311
142.3917694092 25.0868053436 221.8810119629
133.2786102295 29.5856113434 235.7075958252
116.3167114258 78.1697235107 250.4299926758
143.3287506104 21.4959964752 204.9486083984
144.0439910889 25.6022071838 228.1999969482
128.4499969482 71.2908477783 161.4300079346
142.7189636230 58.0792617798 159.6189880371
140.4208679199 30.9829692841 183.9199981689
129.6374206543 63.5598640442 151.9100036621
144.1046600342 18.9723453522 219.0500030518
137.6839904785 27.1122074127 232.1500091553
124.6546630859 50.4623451233 248.1699981689
141.3608703613 28.4029693604 197.6299896240
132.4988250732 53.5640258789 163.5299987793
135.4338073730 46.0072059631 240.8511962891
127.1220550537 72.0180511475 156.0320129395
145.6317596436 28.1468067169 207.8209991455
120.2014007568 67.8799972534 246.9288024902
144.2016906738 80.1673736572 250.5200042725
134.3851470947 76.7900009155 243.3730010986
143.7799987793 20.0752372742 208.6973876953
142.2102813721 26.3198375702 178.9850006104
145.2699890137 81.2152404785 247.1073913574
145.5216827393 20.5773677826 213.4400024414
141.5316925049 35.9273643494 237.7400054932
135.7516937256 70.4473724365 250.5099945068
140.9308624268 23.6929702759 216.8399963379
148.7216949463 26.5973682404 210.7599945068
141.3747863770 31.4353237152 172.6309967041
147.5072326660 26.6753559113 201.5100097656
144.2227783203 35.0489921570 174.9461975098
140.5557556152 54.8159027100 159.2929992676
142.3146667480 17.4023456573 213.9400024414
131.3567047119 71.1097259521 160.0099945068
141.1702880859 38.8598365784 234.6250000000
132.0097503662 75.3300018311 246.7000122070
142.0621337891 40.8969383240 232.5731964111
142.9316558838 58.2393569946 162.3704071045
138.0499877930 39.3052368164 161.2973937988
145.9321441650 19.7969360352 214.1231994629
131.9957580566 70.0959014893 252.7530059814
127.6482543945 65.3073043823 162.5410003662
142.4388275146 23.4040260315 191.7200012207
135.1857604980 22.4159030914 189.9830017090
134.7847747803 55.4253234863 158.0610046387
139.3417663574 24.3368053436 234.8310089111
143.5382843018 20.3733749390 208.8059997559
140.4208679199 30.9829692841 183.9199981689
140.4849853516 35.6169242859 230.3353881836
136.1367034912 58.8897247314 163.6600036621
127.7022018433 64.4198684692 156.7099914551
147.0843048096 27.4840755463 200.3923950195
139.1597595215 84.5899963379 249.1000061035
137.9559631348 36.1188049316 166.6768035889
120.8189697266 57.4592628479 243.6790008545
144.0597534180 25.1399993896 205.8300018311
131.0636291504 61.5369834900 161.0596008301
142.0408630371 54.5329666138 165.1199951172
125.4520645142 48.9180488586 242.6820068359
125.2197570801 51.2099990845 246.7700042725
127.9683914185 53.7179603577 241.6660003662
138.8513946533 25.7199993134 187.0888061523
136.4140014648 71.1122055054 245.5200042725
124.4140777588 55.8628425598 248.8799896240
143.9504699707 32.6569366455 183.0973968506
138.6819152832 31.0989875793 224.6380004883
125.3088226318 74.6140289307 246.0599975586
129.6782836914 63.9633750916 160.1060028076
137.7182769775 41.1033782959 161.2359924316
140.8597564697 21.2999992371 218.1100006104
136.7289581299 26.5181846619 233.0670013428
145.0783843994 31.5179615021 175.6860046387
137.0157623291 39.7759017944 232.4629974365
139.7889709473 41.8392639160 230.8389892578
128.9507293701 72.8700027466 246.1726074219
147.6516876221 26.2473678589 207.4400024414
117.2691268921 62.6958618164 252.6640014648
133.1199951172 70.2852401733 153.5173950195
131.7287445068 55.9059982300 159.4286041260
133.0527801514 46.1989936829 244.7261962891
141.9127807617 16.1789932251 220.6761932373
140.2062988281 38.6686973572 232.5950012207
138.0243072510 79.1040802002 246.2823944092
142.8366851807 26.8500003815 229.4019927979
142.5267639160 83.9820175171 246.7546081543
141.8049926758 25.9769248962 234.6053924561
140.0436248779 29.9069824219 183.5895996094
131.2867126465 62.7197265625 159.0699920654
147.2342987061 28.2240753174 207.7424011230
139.2502899170 34.5298385620 240.0950012207
151.0540771484 29.1428432465 232.5999908447
144.4599914551 35.6552352905 171.8773956299
142.7289733887 48.5292625427 155.7089996338
142.0452880859 28.6869239807 229.0639953613
129.5227813721 51.4989929199 245.1062011719
142.8199920654 17.6208457947 237.4799957275
116.6917648315 77.9868011475 249.8610076904
148.1416931152 25.7573680878 202.3500061035
137.3540039062 43.0622062683 237.8600006104
151.7589721680 30.5592651367 229.1989898682
140.5672302246 83.2253570557 248.1500091553
147.2200012207 24.5652351379 213.3173980713
148.1002807617 23.8298377991 193.4049987793
145.3866729736 26.5900001526 227.3520050049
141.4359588623 30.7388019562 171.6268005371
127.0082550049 53.4573059082 250.8410034180
127.4146575928 70.8323516846 159.4199981689
132.9697570801 54.9500007629 159.9700012207
134.8359680176 42.3388023376 163.3868103027
132.0067596436 80.3920211792 247.5646057129
143.1233978271 21.9198703766 205.4526062012
141.8052825928 23.7569236755 206.2940063477
133.2837982178 56.7672042847 166.1311950684
122.2188262939 58.1040267944 250.7700042725
115.2282562256 66.4873046875 252.6710052490
118.7582626343 69.6673049927 254.5410003662
144.0597534180 25.1399993896 205.8300018311
128.5413970947 67.2099990845 154.3388061523
146.4888153076 18.1140270233 221.0800018311
137.3767700195 52.4420166016 161.1946105957
136.7497558594 29.0100002289 229.6800079346
123.6251449585 76.5999984741 243.9130096436
117.4040069580 61.6322059631 248.0599975586
134.3574218750 31.9498653412 231.2200012207
145.5421447754 20.0769348145 228.6531982422
141.7067108154 31.9297256470 183.3600006104
137.1308746338 38.6629676819 236.9599914551
125.7240066528 50.0022048950 247.3300018311
136.3574218750 79.8798675537 248.0899963379
141.6288299561 36.8840255737 165.4799957275
127.1908721924 71.1529693604 157.1100006104
132.2767639160 81.2320175171 249.9446105957
141.6632995605 36.4526977539 169.8979949951
118.3136215210 68.2969818115 249.2595977783
141.4192047119 39.9975967407 161.9581909180
152.6789550781 29.2281837463 230.4169921875
140.4866790771 30.2000007629 224.8919982910
132.5894012451 62.1825370789 154.1840057373
137.3540039062 43.0622062683 237.8600006104
146.9943084717 22.2440757751 218.4824066162
127.0814056396 67.0599975586 156.4588012695
141.0497589111 21.4300003052 225.6200103760
143.5739593506 21.4500007629 202.3838043213
144.9908599854 19.5329704285 221.3600006104
134.4320526123 40.8203887939 237.6670074463
143.4140777588 42.0828399658 168.3099975586
140.7852935791 51.5869255066 164.6240081787
140.3787536621 26.1759967804 193.1786041260
121.7752914429 64.8169174194 251.9739990234
133.7172241211 61.0953521729 152.3800048828
134.4517669678 51.0768051147 238.7510070801
133.1759643555 26.4488010406 234.4868011475
116.1739654541 69.9199981689 251.3538055420
129.5016937256 50.1273651123 248.9300079346
136.1506958008 46.6910247803 163.9002075195
140.8236236572 31.7669811249 181.7796020508
144.4826354980 80.0367965698 249.5529937744
147.6188201904 23.3740272522 193.3799896240
129.7646636963 60.6823463440 158.7899932861
124.2459564209 72.1588058472 158.0968017578
139.0997619629 21.3899993896 228.6800079346
142.1697540283 19.0599994659 234.5700073242
141.8749847412 42.8769264221 171.7553863525
129.1879119873 53.2976188660 251.2469940186
130.8774261475 60.0098648071 159.6900024414
147.3340759277 26.2328433990 203.7500000000
130.6746673584 70.8523483276 253.8099975586
143.9240722656 29.1728439331 185.1799926758
127.4267578125 61.9520149231 151.9546051025
123.9646606445 45.7823448181 243.4400024414
143.5643005371 57.2440757751 160.1024017334
140.5874176025 28.9398651123 202.2599945068
144.7236175537 28.8469810486 208.6495971680
147.1299896240 22.7708454132 197.2299957275
147.1902923584 25.3598384857 211.6349945068
139.9282531738 29.4973068237 168.3710021973
142.0746612549 24.1523456573 194.2799987793
121.2397537231 74.6699981689 247.9900054932
117.6367111206 60.8497276306 247.0399932861
142.7997894287 20.4257164001 204.3018035889
123.0464706421 55.1612358093 250.0400085449
141.1567687988 34.6520156860 181.4546051025
138.9743041992 47.1640739441 237.6723937988
119.4063034058 51.6287002563 246.0950012207
128.0136260986 69.3769836426 157.1795959473
123.0464706421 55.1612358093 250.0400085449
128.3338012695 52.4472045898 251.3211975098
140.7174224854 33.5198631287 167.3699951172
116.5614013672 68.8300018311 250.8688049316
134.1813964844 75.4400024414 242.9188079834
142.3598022461 26.0767517090 176.1999969482
143.7116546631 57.2393569946 161.8204040527
141.3139953613 78.1922073364 246.9799957275
144.8740692139 23.9728431702 234.5299987793
138.6257629395 55.9859008789 159.5330047607
143.8440704346 32.6428413391 224.0499877930
133.5949859619 80.7069244385 248.7153930664
135.9247894287 40.9253234863 237.8209991455
144.8982849121 26.7633743286 227.6259918213
119.5427246094 57.1701011658 249.0089874268
139.9020538330 16.8280506134 217.5720062256
117.7359542847 52.9088020325 246.2268066406
144.4231872559 27.4145774841 182.1979980469
141.7982635498 22.2673072815 217.6809997559
133.6997833252 35.2457160950 240.0617980957
141.5272216797 53.0753555298 160.7799987793
118.4888229370 59.2240257263 252.5000000000
134.0627746582 60.6689910889 162.8461914062
128.6597900391 56.9557151794 155.9517974854
144.2372283936 28.5553550720 176.8300018311
136.2682800293 45.6933784485 237.2859954834
141.0199890137 34.7752342224 228.4173889160
139.2131805420 34.6745796204 232.6779937744
143.2582702637 23.3033752441 194.0159912109
131.0408630371 59.0429687500 158.1599884033
137.9674224854 49.7298622131 160.7400054932
143.7292175293 34.1675949097 166.5081939697
127.5882873535 75.7933731079 244.0659942627
135.5502929688 25.3098392487 234.2850036621
140.2236175537 24.9169826508 233.9695892334
147.0843048096 27.4840755463 200.3923950195
137.9636230469 45.3569831848 231.9395904541
127.4067077637 57.1797256470 244.0000000000
125.5008697510 56.6929664612 247.1499938965
140.4059600830 17.4188003540 216.8568115234
130.6388244629 59.0840263367 157.6100006104
130.2116546631 49.8993568420 245.1604003906
134.8836517334 79.8378219604 246.2839965820
135.9357604980 16.2759037018 230.6930084229
128.0894012451 75.3125381470 160.9540100098
140.8972320557 36.8453521729 236.9000091553
137.4474182129 80.4998703003 249.8200073242
138.9446563721 17.2623462677 228.5200042725
117.6367111206 60.8497276306 247.0399932861
144.0640716553 28.1128425598 179.0699920654
138.3117675781 52.1068038940 156.6610107422
122.4139633179 57.7799987793 242.6437988281
128.8727264404 54.8301010132 250.0289916992
126.5767135620 78.7197265625 250.8600006104
118.0436248779 57.7169837952 246.5995941162
127.3408660889 49.7329673767 245.8399963379
144.0488281250 17.0740261078 214.5000000000
139.5302886963 33.0798377991 238.4049987793
139.3902893066 38.4298400879 171.1150054932
137.0952911377 39.1269226074 236.9940032959
146.0772247314 29.3453559875 226.7300109863
140.7933959961 29.9198703766 232.0126037598
134.0555725098 58.8759155273 162.0789947510
133.5416870117 61.9773674011 152.1999969482
132.8533935547 38.7898674011 235.9925994873
135.4357604980 25.2759037018 179.9530029297
138.4325866699 83.6800003052 248.6979980469
128.5552978516 44.5569229126 246.0839996338
141.7120513916 16.6703872681 223.9570007324
137.1349945068 48.9869270325 162.4653930664
140.3638000488 18.9472045898 233.3211975098
136.5086059570 43.7556114197 233.6376037598
122.6240768433 68.8828430176 253.7399902344
143.8127746582 30.0689945221 188.1062011719
118.9417648315 70.7068023682 252.5110015869
132.2613983154 44.9000015259 237.2687988281
143.6933135986 21.8026962280 212.5180053711
128.8440704346 74.4428405762 251.0999908447
140.6186065674 30.6056098938 184.0476074219
141.3155822754 16.5259170532 225.4989929199
140.9652862549 39.6869239807 163.2740020752
147.5072326660 26.6753559113 201.5100097656
137.8882751465 20.9633750916 188.8659973145
140.2062988281 38.6686973572 232.5950012207
148.5416870117 20.6673679352 221.4300079346
126.0857620239 49.8759002686 250.0230102539
139.0497589111 23.2800006866 233.9600067139
144.3821411133 33.9469375610 223.9531860352
140.0138092041 29.2972049713 179.3311920166
128.7299957275 70.4608459473 160.3899993896
143.1427307129 24.2001037598 235.1790008545
143.6918640137 42.5475234985 163.0919952393
139.8289489746 44.4181823730 239.1470031738
134.2527313232 76.5501022339 254.4089965820
139.2233123779 43.6526947021 166.2879943848
130.9740753174 43.9328422546 245.7099914551
139.3708648682 19.6629695892 223.5000000000
134.0814056396 43.0999984741 234.0787963867
139.3979187012 40.3276214600 171.9270019531
138.4846649170 22.5323467255 235.3600006104
141.5087432861 18.7959957123 211.4186096191
143.5588226318 24.6340255737 189.6499938965
139.2108612061 56.7629661560 164.6599884033
128.6652984619 76.0069198608 246.3339996338
143.8574218750 26.1998653412 206.6699981689
140.1108703613 18.6129703522 215.8699951172
116.3167114258 78.1697235107 250.4299926758
118.9197540283 74.1399993896 246.6399993896
139.6283874512 77.0979614258 246.5859985352
134.1734008789 53.8498687744 163.9726104736
144.3643035889 56.1440734863 158.1224060059
149.2789459229 25.0381832123 192.1869964600
143.5367126465 46.3697280884 162.0899963379
135.9813995361 73.8499984741 242.8787994385
147.9838104248 27.0772056580 232.1112060547
142.5021972656 26.1598682404 181.4700012207
134.8408660889 26.6829700470 191.2200012207
140.4047851562 73.7753219604 248.3509979248
121.3116912842 63.1973648071 250.4100036621
136.8757629395 38.9059028625 170.3030090332
128.0486145020 60.6556091309 154.6576080322
144.3347778320 31.0753231049 179.9010009766
136.0419158936 26.5489883423 181.5880126953
138.1040649414 42.3828430176 236.0800018311
125.6439666748 51.0200004578 242.8137969971
147.9088287354 25.7640266418 211.5999908447
145.9727325439 24.0401039124 216.7589874268
139.0243072510 42.9440727234 230.3923950195
128.7517547607 59.0368041992 160.1910095215
135.2186126709 44.1056098938 164.7476043701
135.3618621826 58.3075256348 164.6619873047
125.2197570801 51.2099990845 246.7700042725
135.9763031006 71.3887023926 244.7449951172
132.3783874512 65.9579620361 155.9360046387
136.6897888184 27.7057151794 178.3917999268
135.3208618164 36.3829689026 235.0199890137
123.7440032959 54.4222068787 246.9199981689
125.6147842407 56.6853218079 243.4510040283
134.8408660889 26.6829700470 191.2200012207
141.3639984131 20.0922069550 218.6699981689
128.8882751465 63.8533744812 155.7760009766
140.2766876221 25.0499992371 187.3419952393
136.4467620850 49.9620132446 241.1446075439
133.5586090088 28.2156105042 235.8475952148
132.1347808838 44.2253227234 242.0410003662
133.6997833252 35.2457160950 240.0617980957
140.9436187744 33.0069847107 175.0995941162
122.0316925049 54.0673675537 244.2100067139
145.2518615723 21.1375236511 235.4119873047
139.5859680176 28.8788013458 166.3968048096
126.4008636475 64.9329681396 160.8300018311
128.9288177490 51.3040275574 246.0000000000
141.7217559814 27.6968059540 211.1210021973
122.4739608765 73.7600021362 245.5637969971
140.7246551514 22.9523468018 205.0000000000
138.2138061523 35.6572036743 240.9212036133
122.7540054321 54.5722045898 245.4199981689
141.7852935791 14.6269245148 231.7539978027
127.5882873535 75.7933731079 244.0659942627
140.7232818604 84.8281021118 249.1739959717
127.6786041260 47.0256118774 246.6175994873
127.6438064575 77.3272018433 251.6311950684
143.3388214111 17.9840259552 236.5299987793
139.2633972168 75.8998718262 250.6526031494
120.5618743896 75.2875213623 247.9720001221
136.8867034912 44.5097274780 165.7599945068
135.9267578125 39.8320159912 162.0646057129
126.7714004517 77.7500000000 243.1587982178
124.8008651733 55.1029663086 247.0599975586
133.2532806396 61.1381072998 151.8040008545
128.1272277832 75.8453521729 246.1000061035
136.9479217529 73.4776229858 247.5869903564
140.3779144287 16.5876216888 232.4369964600
122.7797927856 70.8157119751 248.8917999268
140.7192535400 30.4292011261 186.1242065430
144.6216888428 24.6573677063 194.0000000000
148.7516937256 25.5673675537 208.5599975586
