205.0359133273 105.7643055221 212.6944078580
193.1799397571 136.0998739101 236.8184288399
210.6176113782 110.6909115076 208.5223568502
206.5349327727 138.4892224576 248.0467832330
228.7966598491 66.6008018871 250.2050513360
222.9984449906 134.5695186298 224.6468219928
206.0587343577 95.7869863312 219.1521554244
212.0847636197 94.3908631080 235.7544183887
215.8192535434 135.8026206466 232.5418653658
218.2813003710 139.9196026254 228.0616721225
205.9216560359 105.9725816644 208.4338928329
222.7439676526 125.5564254343 219.6268657960
212.8347152902 143.9648683193 237.9532041173
237.2356704470 51.0767562766 256.2695483909
214.8505136024 107.9073992473 207.1833053902
231.7536705972 130.4676388411 212.9595631838
228.4639153268 120.0782043477 205.5422316876
200.5712107001 94.9327259312 225.8328123577
212.6916751730 95.4177910474 241.2327717218
226.3817803327 67.6708725067 241.2278868618
211.3249579101 84.9238820490 244.4305519627
226.7864846391 128.3049726694 204.0700753744
228.2780821388 114.1139095477 206.0074867702
220.5508294165 91.3112954885 239.0327834759
210.9564391464 136.9593877924 232.8659447126
226.5616443096 69.2410377770 245.4198875650
216.5920458159 136.3460604239 233.5845068911
207.6283602751 93.5228037726 236.3278479213
215.6469456435 136.0142600521 225.9735405326
226.8483566313 66.4872502324 249.6847803368
220.8978831129 136.8722438141 224.4366587891
205.2464230841 139.2183450935 239.8840728588
216.0348310680 108.1232957270 210.2076570597
192.2362638410 136.3018075440 245.5963841631
210.1985087858 143.1855326059 239.1534209586
212.6937962806 140.0196800097 234.0458756953
219.8202038971 116.0584358085 195.9955328498
209.6593089250 98.1606683744 234.1465030983
197.4391135647 143.9998280192 241.5792649093
214.1221292935 106.1703460521 204.0688713294
216.0615248108 114.4127232885 201.1238905859
212.3183555585 102.3843161493 215.6732863478
226.8654498234 126.2489741346 208.0404661776
224.6622970405 125.0477948861 217.4450814157
215.7624601619 118.3331159790 200.4958924555
208.9453429110 107.7509965275 202.7939864857
225.2613985074 112.3540664631 203.9859404784
230.9081516373 68.7825856660 255.9937412237
207.6546851601 142.2675325332 244.5312638549
208.7406782304 135.2122088504 245.6378984911
230.7652232311 127.4000034694 204.5275859557
201.1380508906 97.2130487507 227.8887907485
213.8472497555 95.1584387670 236.1670833744
209.8735338368 106.6266826123 214.6355748893
210.1414943207 115.7975587740 206.0129044503
203.2686651358 141.6924901249 237.8838422077
220.3651205510 138.4204326094 230.2211827592
217.7078201021 93.3457674656 237.4680477025
211.2297985547 104.5105830453 202.2092744331
219.4577862654 89.3410053778 247.7244201057
211.3922167763 143.2280356403 239.4012870029
238.4781448730 51.7636291907 257.7854769276
212.6679226067 91.3372376680 244.2654184522
199.1530908044 95.0820399379 226.4302540314
210.6518281487 107.2515481634 207.9085568937
222.5431490673 132.8411469634 229.2516415112
202.1998088165 99.7882163324 219.1108148006
199.8003200183 146.2084329897 236.2688358519
227.0059418323 132.4758124118 213.8088788468
220.5177780771 89.0412491526 242.4542563651
193.2556381494 140.6199583255 236.5441874479
206.0568913641 90.3814193446 243.7420969637
215.6354623951 73.1252200213 246.5712748073
207.9516556492 113.2777341947 202.3300717612
235.7958571522 65.6640058212 254.1841910642
204.5127191870 90.9788672971 224.7347914179
202.4629182250 93.5023920269 233.1118251804
209.2932413264 129.6268515990 243.8132362317
198.9400846024 99.9720594478 225.9012757259
221.4997563474 131.0681204913 218.3074100816
206.5476180752 132.5382742859 240.7902486382
217.0099604977 138.9300042189 234.4829153274
192.5152766522 139.2310534159 238.9973402395
225.9494296255 126.7894038600 214.1946198561
212.2381737761 109.6052479433 209.9850087737
207.2825389298 113.9196745190 204.5630968322
230.5396774141 127.7080984453 208.2905486357
233.9389000239 128.2612711546 210.4023103981
231.0712480514 73.2557853011 250.8136013736
204.5437831325 98.7433431278 215.8003939487
219.0929505095 78.5774347991 249.6545078424
208.5805392823 107.3649649604 205.3709029723
231.2087672143 128.8949428839 214.5488567090
203.2889878479 145.3970681185 236.5718048216
224.4923681567 70.6906070484 245.8981975265
225.1421998120 127.0786902686 223.6840693763
197.2511417804 97.0965865822 224.3531130685
205.2464230841 139.2183450935 239.8840728588
199.6891340966 140.5339225050 238.2796151731
214.7854080296 93.0103764319 236.3503907299
212.2112995264 108.4525371094 201.3081080721
235.1492047649 53.1488023530 261.4063870206
203.7810925277 92.3636204706 228.8944147540
204.1407693826 89.1136629092 230.2295702724
228.5290930235 61.3817489834 255.8366896868
233.9142534419 49.0309586480 258.9213093117
229.3756773484 66.6851580599 255.1174959190
197.8644180876 142.9055131931 244.3540025383
225.8586997892 124.2411283147 204.9453350173
213.8007826085 79.0787543264 247.1620079243
224.6363069848 133.6748035908 217.3231858919
212.8219776144 91.1459428604 243.8338414462
218.3503642780 133.2419153485 228.2122986818
204.7573723711 101.2810420526 215.4961683390
216.0296764819 94.6541336292 244.6487554448
224.9261368243 77.5882499486 237.8741377222
232.6927634168 50.2121104909 255.6959324010
212.4543481950 101.0532843190 219.9478443680
184.3477268129 142.2196272054 240.1917354815
219.4768583760 77.8222589053 246.2541390054
214.4123934911 136.7173697894 225.8533585860
208.9817409599 95.8692738034 226.5170785035
204.2365865281 103.8692809385 215.3539307567
217.2612964190 89.0338800178 240.4102485940
208.1209742173 141.1742361569 245.4640868185
225.3307204648 120.7554863878 203.1853539545
220.2289397213 89.6331965556 241.6975072514
210.6219224830 79.7034970174 240.7637665926
221.1338302934 130.9071889298 219.9198368035
212.6840562737 78.2799477199 243.5393935909
215.2399734913 117.1015320911 202.7542086581
209.9126303710 93.8058498018 231.1043375641
225.6308454065 137.2815991671 226.3480565921
201.6435796756 93.4545980033 225.1090527612
202.0317072256 102.7813107905 216.1729601456
227.2126070781 123.9664133047 203.1044632336
228.1319973867 119.9646639291 202.9588409427
209.8951876355 113.0537422743 200.3436545775
216.7281247563 108.8355812745 211.2093958380
226.9666356145 124.7379926223 206.4240822257
207.8323132872 100.1593588796 220.2150267113
225.2090179016 112.6746934173 203.6905243363
227.6920756926 129.0415681241 220.8157904666
232.3187887156 63.7587924926 256.2335664689
233.7487702841 60.7967120445 254.4660919456
229.1082599495 129.2078362839 217.0253881493
198.6743950356 141.6454769030 243.1049918820
215.3023282942 122.9361061986 198.4233317556
229.5075496468 61.6786170749 251.6779237069
226.9105872571 128.3783479360 218.7535902717
227.0285684811 122.5797929491 206.6233720595
209.3244682604 101.2780059777 235.3962572567
189.3358353678 132.4434022908 242.6480736701
233.9614431483 68.1147532709 251.7795767422
208.2268318215 141.2516069796 241.8933095181
215.7818056178 76.6061716440 244.0952365845
224.4741130107 138.0087564886 226.8321130081
211.0255630353 88.2036231057 238.2493350677
212.6786825933 133.9601456994 238.2910807407
204.3885892049 136.8520728536 246.2633946162
225.5165824301 72.5785157801 251.3172166304
217.2146458445 120.1446179899 195.4591690724
210.3769006631 110.2463292670 207.8114334881
228.1866434733 67.0690223941 247.4338968356
234.3455325460 56.3824155706 257.8821280000
221.0050009970 119.3783227535 202.4156111019
218.1241814629 93.8371784688 243.1198271344
188.6419932182 136.4840876441 246.4926730743
208.6919524875 113.9418880193 203.2540739656
215.6469456435 136.0142600521 225.9735405326
214.2782440268 142.1812715674 235.7926115458
219.0144164398 138.4082245002 226.0190706587
210.7029989670 132.8176598037 238.1960284134
206.3443005083 94.3474499835 223.9833338732
207.1745299349 100.3781750048 214.8373065798
202.7304988699 100.5142183992 220.1044060033
237.4720813060 54.0031431312 258.2219383348
229.4774843732 125.1085220536 201.9353879717
210.3960516854 118.5403918835 204.0130585816
229.0348254790 64.8533561685 255.2229319029
208.6131588140 134.9056581691 245.4105904110
207.0415410390 95.9918716241 235.3258777525
210.4126933835 84.9588670727 241.7083065800
208.0896082243 99.1471329171 240.4506970036
219.6090065344 133.4578722935 218.9147222961
229.5533283838 71.8923000490 249.7851902841
203.1135008765 137.4591310754 243.8096335101
193.7172716094 141.9070015564 240.9541909895
229.2907392786 72.8090625643 252.9489548415
227.8346499683 65.2485291657 253.3956302245
231.5945842957 126.6588626563 205.5842460913
229.4262935948 65.1591519125 250.3280723957
233.4243187805 55.8734228870 261.0694888866
208.4495363177 130.8411520452 239.9823829646
190.2998921446 143.9032937725 236.8713927320
216.1190196885 117.2378305883 198.8390482391
236.6906517984 64.1438449987 255.7713740845
205.0364505934 83.0834961552 240.5026235957
221.3734055409 73.9217281807 246.8183575522
221.5310658443 127.0546009599 220.5216663641
217.3901937165 89.8840169539 247.1461512162
218.4895940712 94.1763733825 243.3598465639
215.0402959710 138.2910537624 235.9253468196
187.1836532575 138.7731519188 239.2979275326
216.4800991347 78.8290102740 241.4171580247
216.0648556667 134.4012042740 232.1447626483
229.2675109442 66.8263840398 247.7692225899
225.4871228582 134.4242569269 223.5448301082
225.1675884583 121.5963441156 203.6949145799
216.6310151850 90.6843723564 246.3403192547
210.9524117293 134.2371945723 246.3499276995
214.9620033329 96.0985739867 247.2734504786
211.9292548209 92.0252204278 244.4508950939
238.5360240072 49.8523307693 258.2346289757
228.4652547717 69.3875556871 249.9554016393
212.3015842905 111.7534239954 203.5078840831
211.1670319233 102.6187997727 215.1479255196
201.5494596869 139.3625246407 242.6382425744
217.6121703301 94.2563508421 245.2464854929
199.7969228875 98.6980326118 215.9626358507
217.1790977326 143.3896808695 226.9993430928
212.2676320958 94.4828292481 234.6473844413
209.0405864615 110.0263115067 203.4609966634
233.4409303640 62.8724974939 252.0948691208
218.7685640042 88.3757886153 247.4210505422
225.1686438618 91.1197098496 244.4937486108
214.9790106539 113.1036922020 203.5059603948
233.4347695406 55.0005860835 249.3891891613
203.0248091786 143.0732653342 241.7755268692
210.1414943207 115.7975587740 206.0129044503
209.8053677709 110.4999047663 204.6507120076
209.4375644852 84.3403522697 238.3083780599
224.2488185915 132.6071498723 209.3040891418
230.7834938486 126.0291287733 210.7434182404
207.1807364445 102.0589530644 218.9081323747
212.2646421201 98.7170328687 220.5749628040
225.1538972841 132.5236571466 216.0297047967
228.9877501480 120.6016676548 204.3306792940
233.5843497141 128.7849287335 209.6292882651
206.1887221884 94.9815829711 223.8630474724
218.0631548889 84.6491065788 246.2006639236
206.8797586244 117.1679339027 203.2411843753
230.1067566327 115.0289477731 203.0526858841
209.9267712953 100.5528757182 220.4181128008
211.5052575341 104.9730048671 201.3932135443
220.4150765675 116.7180683489 199.2963658487
233.5546990625 57.5265031074 256.2468584415
211.8865302876 92.6204403303 241.7842058803
198.4917011059 98.9645201239 224.9144397238
212.6348800525 88.4116633360 238.7594113805
233.6067119040 69.6695689034 255.8102386184
202.9854174311 91.1627347417 234.1996279204
213.0016037310 107.6070845605 205.0764933689
188.8225262899 140.8329756376 238.5932856895
197.0055546996 138.4589329934 238.6480168006
220.6954071470 133.0164568882 227.5425077479
212.8438516045 136.5127026468 240.6104289887
206.4529771096 114.9774339538 202.7115852254
225.2923090735 127.7007862086 210.8567872855
235.3021348089 58.1189014591 254.1010416546
208.2767401469 101.4278275987 214.1022832944
213.1144321486 114.3656540661 206.2847496931
217.2565507129 83.1481843716 249.6766778733
209.3559192495 113.2448918352 204.8721023573
205.0021353288 107.8975347586 209.3574268631
197.4620612010 96.7151636070 225.9726417711
212.2383461615 133.0282998768 237.5553860958
229.5438765567 57.1285723954 257.3219676004
204.6097800198 107.3685291184 212.0397139591
228.4924345800 66.3904371353 254.2692707367
222.9327680447 116.7790300575 205.3646737985
210.9594706110 92.2870954198 241.4264496925
225.9556338377 67.3665277999 250.3018339844
207.8206469959 94.6414219663 236.3038288806
217.1685825086 73.7025524565 243.5026909970
225.3644432898 128.6554439954 210.2421202116
198.5654442546 142.8455863553 236.4620084300
214.4059301474 87.4199718661 244.5021511887
218.8040365454 145.0638081550 228.0494928365
211.3052227107 137.0763505645 245.1386347198
210.4460397510 84.2309460568 241.8019956936
219.8299361057 138.8411671275 228.0712108652
210.5771080872 130.1046978447 242.2190765798
226.5525914167 125.1761867594 220.7120830571
224.8857029698 119.0161441362 200.8879054720
210.8884016863 135.3862795773 234.1662647828
207.0540201247 90.8322806415 240.1375876500
199.6615955026 144.9190772490 235.8702987990
210.7029989670 132.8176598037 238.1960284134
219.8499828526 77.1616911223 247.1662309095
233.9039494215 67.7120522643 251.5030825824
220.5437449178 114.3916713288 200.9692629110
208.6843240259 137.0937173312 237.2288877048
220.5414171488 140.0573198479 231.2220839267
228.4890109427 130.2440635150 217.7369339471
209.9210661125 101.2713346623 240.5078222727
219.0144164398 138.4082245002 226.0190706587
206.1036382895 105.6292170903 215.7908062187
201.2519222538 100.5612130192 224.8523155104
199.3421249040 99.4960234221 217.6065891479
189.7178980197 136.3052844082 239.0479419244
208.3270686602 89.5750141159 239.7252159262
227.5358905806 63.3732788046 255.7520994582
216.4689967566 118.6895586915 199.3738356298
207.3061481159 105.6837717336 214.5759184317
219.5240247640 139.4823823556 233.2226310851
196.9521950391 135.2076176776 239.9101481224
204.2683545622 94.4758844328 216.0663949217
214.8724583530 137.8523389121 230.7605569783
212.7234678752 135.9014218816 231.0522589329
214.6521766006 138.8348659676 229.4098486299
202.0426224385 138.5531431254 246.4196513122
208.3530819470 89.0997397071 240.7784004869
228.8248430151 121.4553415984 202.8083450943
188.3372073647 140.9431677379 238.4925215295
210.7980147060 98.7824129811 213.3366364102
228.1710790256 128.4163129132 218.0236778449
195.4242967558 141.9758128964 236.7412650440
224.7192162365 91.1196706624 243.2022951820
219.6672123258 113.6249508150 202.1969230452
236.3031762589 47.3579178127 259.1160954254
208.9159837547 137.4129095723 235.0135449492
226.1097175732 77.0232470698 240.3306313844
206.3496770823 136.2714823235 242.3143548593
210.1165374876 95.4801628638 234.1132107768
221.9678466981 69.8789693939 241.8985780466
222.1718580297 126.2859059012 218.3499570857
231.0559654310 128.9039760161 209.2074912199
234.3492341047 63.4690041758 257.0651925469
206.2585255713 135.9464922105 242.3270778278
187.1786358888 138.5131388289 243.3044356040
218.3170967136 115.5583364848 204.2018843813
217.3827901912 91.9492268402 245.8219540850
215.4550631380 93.0104321584 238.2746590113
216.6382028095 144.5220050254 227.5425971022
197.3695878513 138.9710986783 238.6133725228
214.0283706337 86.1058820632 240.8653619740
225.2669668837 132.6275695036 213.3940171101
227.8601021770 65.6958506538 243.1657180455
223.2121587499 92.6412980966 244.9659130513
206.9040273803 107.4431417720 208.1664675416
231.0071083506 66.9202814162 258.6808207106
202.5618146677 99.9174758704 227.6134409431
214.7473006054 90.5880322520 240.1246111422
227.5358905806 63.3732788046 255.7520994582
209.2410890098 102.5358980793 211.7242481431
212.6911960893 79.3808056977 240.5207172218
206.0089388203 104.6353032565 216.7878502483
213.1879425192 96.7317924560 218.2870012871
200.0676849081 97.4344861428 222.2081410273
216.9439761271 133.5890714833 225.1584188628
215.8192535434 135.8026206466 232.5418653658
210.5592053810 105.0513594763 203.8577813982
211.1651897378 132.8124996535 246.4152278932
209.1285694218 98.4832127562 239.3581503618
207.2106131481 94.5229328465 236.6178595351
225.4474275823 75.4824806360 251.6947422737
200.4958878048 137.8402534393 237.5805685228
207.6575800585 90.9653333846 236.8348926639
221.1115888066 68.5309082688 242.1957662051
219.9351052354 91.3112435914 237.2634887868
234.2074388868 64.3887783599 259.2683317435
208.2839291183 143.5645675426 246.0740547092
210.9524117293 134.2371945723 246.3499276995
215.7842326127 94.3471668264 246.2860783674
221.8885788673 130.3104352473 217.1224071035
207.8693264719 100.1296599725 239.0999886550
192.4069027163 140.6825967337 242.0990592099
206.0121568256 90.5151098658 237.4319278090
208.3245611337 88.5677143191 232.6413889625
207.1807364445 102.0589530644 218.9081323747
234.3261579457 71.7857168272 253.6820177599
229.5075496468 61.6786170749 251.6779237069
229.4018782176 74.4274430092 247.8888551031
214.4130510049 96.1858433145 241.2312126537
212.1542371508 95.1205722947 242.7601948485
221.4458715790 134.1619006120 222.0954582662
202.0317072256 102.7813107905 216.1729601456
230.5959337690 132.6562794033 207.5935588418
211.5275117733 101.8394302899 234.3966555414
211.8255191180 132.9330124357 237.4817580484
218.0835993021 134.9181651710 223.1906831883
200.4942090031 144.0734631014 235.0921089238
197.7692208910 95.9815190571 222.4608464957
238.1600545923 51.0465169031 258.9877141235
212.0010961182 83.2745033732 237.2114078321
206.0541975678 105.1126184689 215.3151803888
204.2498884436 141.8242271512 248.0968459925
212.6348800525 88.4116633360 238.7594113805
210.6149434615 94.6975277570 232.7038011267
220.9233141765 76.2549584243 246.2862462737
212.6960860812 98.8196929818 214.6773375821
212.0078003607 92.3401146910 242.3386986998
211.1964845595 83.9594661580 243.4576680515
222.3704423229 70.8397646255 241.9827911132
199.1941806511 142.2751180183 235.5748998401
235.2742437247 56.4975484637 253.1138617728
210.2490509448 88.8016765531 230.3184414493
226.9666356145 124.7379926223 206.4240822257
215.3023282942 122.9361061986 198.4233317556
212.5366455518 105.4675972764 204.4616622058
206.2529871246 94.5268981438 216.1338500791
212.8438516045 136.5127026468 240.6104289887
236.6906517984 64.1438449987 255.7713740845
201.0905940165 94.6900686614 222.7645935555
208.2694720252 106.1710202197 216.2977019529
207.0262039684 114.4770322656 203.7514175859
206.7055938677 114.6268308996 205.6453782777
217.4243314153 136.5436047585 225.0591977516
219.7163998168 94.3850411813 244.1134581712
205.8900101942 89.6771035388 236.6847816491
205.8938348280 107.0422990843 215.2797892438
216.4248242455 94.0381542081 238.7560860598
206.9339847025 105.8015855229 214.0351090298
218.2479859418 91.5257661723 246.1322961285
230.5914442606 55.2219115802 258.8354187711
195.6426403506 136.1631588691 236.9021389807
189.7099621612 133.0565894411 243.7308784484
200.7508568819 94.3338755707 225.7261064089
224.3359380169 67.9583537648 246.4804329917
212.9969339567 135.0209967535 241.4582378277
217.0099604977 138.9300042189 234.4829153274
221.7056305937 118.9683868595 201.9953274651
226.6408419160 122.8652692164 206.7560565350
234.1977366929 73.8332014750 254.5762230009
210.4035113804 111.7161432279 202.1671837443
210.5677704524 137.6634196914 242.4765436581
210.8487964870 87.5276441345 240.1116987653
221.1964467389 74.6181111396 246.5767977018
229.5154975391 127.0401108664 213.5302999976
203.8528016622 144.8254491309 233.8319654992
217.6527862201 122.0844528112 196.3832400432
210.4460397510 84.2309460568 241.8019956936
227.5787821686 117.1114218560 205.6488484823
210.8487964870 87.5276441345 240.1116987653
224.6317662967 113.7957172043 203.8629185856
209.9893311460 108.7294830226 209.4103783116
211.6285278466 136.6982798787 232.8967680671
194.9334530632 136.3990959650 236.5424752648
236.9946221594 52.6403744262 260.0149004890
235.3021348089 58.1189014591 254.1010416546
219.1790506572 89.2877169237 241.1068183909
191.9431670292 139.9605338829 237.7204315292
212.2466584560 98.8196537948 213.3858841532
204.0101156381 94.5563882767 229.7090535610
229.2122577370 126.3092809377 208.1202397129
213.2323261786 113.3586934489 207.8565283417
208.4235361303 99.2396238826 219.3033409435
207.8238441469 80.0526681183 240.5030854282
211.9064239165 107.4265418180 206.5075155401
196.9521950391 135.2076176776 239.9101481224
210.7029989670 132.8176598037 238.1960284134
216.4442152097 93.9008550226 244.9083911493
218.7736293542 84.4348748794 246.8576530078
208.0328408686 100.5925506015 218.2888217753
210.2257579986 85.2134731122 240.4512873451
197.3500176844 98.0981838363 225.2417377530
216.1503610016 87.7330167410 241.7520539520
209.3413968248 116.5195126867 205.2530593146
188.0413835457 133.7183649465 243.5428047560
200.6040225689 94.7167300342 215.7791608452
224.0945574208 127.3128793968 214.5495039274
209.0223664165 143.4028732247 238.9504592436
203.3391660201 91.6680231876 232.2317506422
234.8248160995 56.4975092766 251.8224083440
223.0595207270 75.4109687755 238.7918925604
219.0725075722 93.2863173413 237.0949522922
210.2601771115 104.1474103201 217.3048603765
215.9779780744 142.6144412552 232.2662938003
229.4339643587 65.3466790086 256.9498905672
213.1137132956 106.8465722914 207.8553171051
212.2346084214 133.0513759465 245.1288335989
229.2564750344 129.0165711391 201.7780265629
203.7479162042 93.1473171294 229.7901503065
231.4784305325 50.9652183963 258.1928708774
193.1021011437 141.1693104613 236.5053352550
205.7946919301 88.9723481973 243.8231937093
219.6454064664 70.2603047356 244.2264720836
234.7239872849 59.2079982558 252.1086979803
225.7213062336 127.0637316592 212.4302653086
213.6872421161 140.7199081519 235.6189743121
226.1389540115 70.3396385300 254.3159398773
220.5050124094 90.0544773913 241.1706108525
210.1558251845 106.0606033881 213.2769900897
192.1523887734 136.7891135168 244.5727832899
207.4409090786 93.0419581568 239.2695877827
230.7587682561 55.0485335884 261.3546366920
213.8336551964 140.7629860291 236.5442332930
208.5976151417 141.1201748470 239.0818499676
213.2373883847 98.0844655516 238.2751961947
203.7579756354 90.1735562278 229.8882526083
224.0657840000 92.2810266837 245.1932255001
191.9431670292 139.9605338829 237.7204315292
213.5108301386 102.5657986358 235.7459375887
204.1411404720 102.2131077679 219.6661072994
193.7172716094 141.9070015564 240.9541909895
231.0532456271 52.1945090760 256.1735598548
214.2782440268 142.1812715674 235.7926115458
226.2197447168 71.1064870275 250.6109767280
220.3652833459 78.3234310569 245.2186073892
212.1149834605 80.0539087909 238.5728987945
228.6740070643 117.4728901665 204.9853322310
212.2501199458 92.2307605490 241.8294968395
212.8219776144 91.1459428604 243.8338414462
192.4724673980 142.6109604358 236.3823141952
212.3123641793 104.0761715184 218.8363582822
209.5145147273 138.2196493533 243.4825056999
206.7257359001 109.0499868865 210.6516673099
224.9999230333 122.6401894035 202.8179665604
199.9784224983 139.9314671588 237.1247316199
212.6629965412 96.7456987750 240.5136097913
223.8753143951 131.6870870762 226.0596676892
210.2024978809 98.4406594600 218.9664360588
205.0213998552 145.1085289964 235.4616493418
216.0767010291 133.0818395033 226.7226137146
207.9412584517 108.6111414131 203.8103256694
210.9167335047 138.0403368059 241.1428827979
224.8783472900 131.7424646369 225.4093950677
227.3777115585 125.9683238999 201.0328054309
221.7466506135 132.3556500812 216.6210424593
234.1661730643 60.7818455531 255.5533280406
205.5744101777 89.9548752528 242.4724853609
202.6460663406 139.1672794852 238.0473230123
229.8443605033 71.7757373414 248.3595528937
208.9205615875 133.9388460048 239.8433461182
211.1929929110 112.8566895591 200.3687900937
205.8430702315 143.3974460640 247.1799959690
210.5607243695 103.9554270208 218.3801033971
211.5691580509 114.6193762195 200.4275253124
205.7887377603 79.8583088640 237.3542684668
232.0338152442 58.5148710782 258.5247569981
226.2197447168 71.1064870275 250.6109767280
213.2156532181 80.6367874047 240.5513570316
213.4389960391 98.7268181696 215.8958535839
214.8953752510 108.3128269366 207.1391863854
229.2738930423 118.8181684409 204.2932206148
230.9433097236 55.3371918503 252.0667641757
207.1316690864 89.3011408632 235.5552820269
229.9733065975 68.2199752218 245.6815561313
229.4018782176 74.4274430092 247.8888551031
212.8152822964 105.2133318210 201.8164835568
217.2565507129 83.1481843716 249.6766778733
226.7162007725 129.7388788196 223.8341443188
223.9885024232 128.6467772360 212.8227019053
218.5381512057 74.7760673451 248.8664820841
229.7542094658 67.2196309701 253.8055601423
208.3303160968 87.9967037894 242.7951310704
211.6312663511 134.1931006230 240.5000633937
213.3973877874 116.7417973802 200.7563446437
224.9860175640 73.2834852441 254.4364669737
228.1029865157 71.1548835067 250.6750013421
203.7479162042 93.1473171294 229.7901503065
212.5366455518 105.4675972764 204.4616622058
200.5378432976 143.0847084097 234.9902242608
196.8956192411 134.7769225215 241.0457529147
216.2336602379 94.3472060135 247.5775317962
198.5102534741 94.4302366080 221.7165995316
208.9453429110 107.7509965275 202.7939864857
206.2633940250 83.5021252763 239.9934627107
206.0673376601 140.3372935841 249.1238665498
202.3177738129 140.8843667229 242.4051730475
220.4660643622 134.2912993996 228.6782519951
228.4282505870 70.4701237357 242.8157535590
223.1545447959 130.4511998208 212.0288181815
218.6866706676 90.0042898900 246.4495277351
227.6722631095 130.4827713125 213.3925669773
206.6571269989 105.2347705168 209.5171495686
221.0961749848 119.4915010810 203.3290843775
218.7405630071 79.6449258715 246.8703134168
212.0705662330 79.7407378310 240.8130143356
230.2959647201 58.6568905967 255.8047222660
211.6035807673 85.0992293079 239.3360061192
220.0919543044 136.6770073168 223.3127357287
209.7443506959 112.8194495122 200.3195415176
235.0395697954 50.2724165273 255.7757067693
213.9620995094 134.0250900183 237.6383146298
189.9912617011 138.8984249664 238.9433471933
212.1646698873 78.5226034561 246.6076140592
211.5299032109 97.0305374039 219.5994845746
190.2998921446 143.9032937725 236.8713927320
202.9854174311 91.1627347417 234.1996279204
200.2990356690 139.7816700583 235.2307692620
226.2421910412 71.1886055387 244.1822663570
224.0545184455 118.8618168275 207.5786006237
227.0407988133 75.0785443072 244.2272234553
225.5165824301 72.5785157801 251.3172166304
207.0903683742 136.5756012172 238.5599619688
234.7504692904 47.7676464332 256.6218278283
226.5589827120 130.9077294978 220.2590559799
229.3684107857 56.4265312731 259.6807837368
205.8566671750 83.8086076562 242.6609447977
208.3890945038 79.9093744723 239.1910183133
215.0867231281 116.7446421262 200.2843995006
237.3063759795 64.1438968958 257.5406687735
219.1217410421 136.3917705354 227.6378195177
228.2477949749 70.5645890785 245.0019026804
222.1079495744 128.0351818609 222.6241798382
209.5820053894 136.1757881898 245.9800341670
215.3639144897 93.4309185888 245.7543210985
231.7174573839 65.9068862226 249.3457797738
214.5739041994 112.7411608469 202.0961410722
234.9251747620 56.7613775630 250.0868525395
225.1355310877 133.3003616944 213.2067351138
226.0616016469 126.5787788535 208.6525014168
222.2512546113 130.4090249733 225.1418860361
203.7114586215 94.8062098407 228.5529109493
202.8075902456 93.5448953469 223.6304531380
208.5705891814 97.9614454711 234.6754517127
213.6108815986 77.0981726607 245.6079844075
205.8838830143 96.9072876563 220.7545614254
204.9774995905 107.3231737698 214.5072734703
230.5200452981 66.6557406942 255.2959758748
224.4042774676 91.8371964762 242.7478702655
198.0182096719 141.8777831303 238.2006543257
217.1298152040 145.1778997953 230.0967445371
220.6052238958 75.5378461367 247.4884834697
216.8383908631 88.8626727299 242.5026498875
213.0638738973 108.0472475271 211.8471486556
202.7727398087 101.2300283415 215.4287131816
209.1285694218 98.4832127562 239.3581503618
209.8735338368 106.6266826123 214.6355748893
209.3808575604 104.9334585975 208.5350056220
220.4012045295 78.5347558534 244.9268409599
202.6220011950 100.8931192940 226.7629911649
216.9233109858 140.6095060981 227.8086345126
210.9861046430 100.5564615260 234.0269759212
237.5353701799 53.8594790801 257.9710911364
230.0723435118 54.5574873562 260.8238972096
211.0256744910 92.5926279298 230.7890134685
231.3059038075 128.4313602569 202.0274660359
223.2221427980 88.9904654515 245.3849260570
214.0425470656 84.0041851528 240.1334532816
230.5613023829 55.9828593982 247.8526266839
191.6597199247 139.2188923477 243.1362365926
209.8423432523 80.2968556962 239.8618811154
209.9126303710 93.8058498018 231.1043375641
221.4997563474 131.0681204913 218.3074100816
232.9705017550 54.0735193103 262.0666659003
232.0590565116 56.4752761369 260.6299675592
189.1615879633 138.5678419224 245.3426889507
232.9667791412 67.2740073135 248.6309359681
230.9708213596 126.0663345583 201.3330290429
210.7029989670 132.8176598037 238.1960284134
230.9287215460 122.0300825615 205.0318259136
227.3777115585 125.9683238999 201.0328054309
210.9756210033 110.9866627610 203.4440924546
224.3848659153 111.5873459492 205.2136006126
214.0691498451 81.4690819775 240.3835763571
185.8874702752 138.1751449815 242.1482386282
220.4943062923 142.9571139503 232.3326805227
218.7405630071 79.6449258715 246.8703134168
220.5508294165 91.3112954885 239.0327834759
219.5553113629 137.2759003442 225.4758166493
202.5456286295 92.8926921755 234.3868745172
228.2649751207 110.8210333066 203.1238624790
212.1258272897 143.8029163486 239.1269806287
194.0569189361 135.6323746844 237.7701362321
208.0238742886 115.6530883541 199.6598661238
217.8771511067 74.1916993798 247.1271114454
232.2329853357 65.6612415963 251.0190095884
218.4244712337 88.5952187428 246.5306244807
210.6287502836 92.6260213677 228.4953401323
230.7652232311 127.4000034694 204.5275859557
211.9357563744 90.0395414223 238.0488362968
209.8951876355 113.0537422743 200.3436545775
207.5212965308 107.8495169816 215.6382138256
203.5712173355 91.5215795870 233.0220236191
207.8604259288 98.0634693147 223.0698329066
202.4640126429 97.9798092184 227.9525832101
216.5721687563 143.8406853696 227.3528954911
198.9194991465 98.7780100713 217.8492747797
216.2153306901 108.8314936914 203.7778257454
226.9327599095 129.4166427325 219.6135352198
219.5370764169 122.4257531784 200.3923758516
197.7466935459 141.6654868220 238.1871652011
202.7211240264 96.2670714036 219.4280181319
203.0248091786 143.0732653342 241.7755268692
212.2274089889 137.5920803757 238.7603057324
230.6825660854 54.9465368956 247.4451827353
202.6944688393 140.4249007950 248.0291439720
232.6697089132 62.2383228319 253.0516174570
212.2676320958 94.4828292481 234.6473844413
208.6707487839 101.7079158463 213.2390048837
209.7005739602 129.3379765641 243.4467375471
222.5214961009 129.8115762259 214.3284706139
225.3452529042 134.6298254329 224.7265955281
210.4437941759 143.2733107288 235.8941039883
207.9459434152 84.4763101993 241.5156594775
212.6928136598 107.1174058422 201.2862331987
209.2008194421 103.6088603885 218.9971307233
226.9653267669 130.5761483352 208.9313163967
221.5310658443 127.0546009599 220.5216663641
203.3391660201 91.6680231876 232.2317506422
207.6836538703 89.3906306669 240.2606087098
221.0780013352 130.8714081079 224.1079815756
221.6994501731 66.6506681317 245.8997961733
210.8501578925 94.7540270157 240.7893778169
218.7485211565 89.1538054395 244.2989709800
219.2331090374 119.0166968356 204.1744118458
214.4545406246 143.8181588060 236.7935127134
213.0252581593 134.5553582107 232.9027384061
215.8758570526 78.7405888321 250.4567441091
191.1829143174 139.0543021688 239.2563172372
208.5191750461 136.5178690100 244.0617137503
208.6231736848 100.4154158184 214.8865543229
235.1109448989 132.2701703508 209.3004786976
202.0628290165 139.9873811782 236.0880256102
199.8180199227 94.1037360182 215.9722959473
203.3599040490 89.4924218265 236.4958306141
221.6764708113 89.2284882781 247.1711589196
210.2780869045 143.9782270401 237.4178460325
233.0907607582 59.2121250127 247.6822382175
227.3538335042 126.0160805151 222.6662324423
225.4701579355 124.7373503270 219.9056797798
226.7065261039 68.4059518141 244.6762050245
229.6850545878 57.8172282375 248.7327012222
206.8286508589 94.3812452396 224.7536489109
227.8303969742 113.4419750131 206.1695116041
223.7519201983 128.4888679155 212.8024799846
226.3353103367 128.7070840391 212.9024754406
214.3323625420 138.8530209704 228.3369753557
231.2329230088 126.0291687271 212.0348708362
233.0149880561 132.9238398262 209.0852690504
223.6473679153 120.6402273501 203.9480698232
209.8951876355 113.0537422743 200.3436545775
209.8601192790 113.8856081009 208.7323565361
207.4221536329 89.7795660947 244.1816182911
199.6891340966 140.5339225050 238.2796151731
206.9076625554 100.2331306311 215.6475531894
219.0725075722 93.2863173413 237.0949522922
231.5533899010 125.7381397241 207.5604613217
228.6581696287 118.8181169272 202.5239255093
229.1402366036 58.3533357488 250.8782478973
195.6063576583 142.8715950890 242.7672891006
208.7675797778 102.2790460663 219.2643000046
210.1866257043 141.2564406667 243.3663112116
220.5938235579 94.3050637218 242.2268192421
217.3280523134 139.6471172734 233.2806772984
207.3141130674 98.9727933348 220.5891118614
217.3144931051 114.5425643023 199.2100107010
227.0649328307 130.7102815482 209.2560310887
217.1790977326 143.3896808695 226.9993430928
222.7439676526 125.5564254343 219.6268657960
199.3145712203 98.3017465326 228.1974784195
225.0421056544 73.5793117019 244.0461354649
223.7885532865 91.8371445791 240.9785755764
212.0090274848 133.9600899728 236.3668124592
213.7703163146 140.8522390705 229.7278491279
221.3617449754 131.4497425829 215.1930827843
221.3098991511 131.8502984300 228.7345186191
236.9321813954 66.3863898709 257.1426186256
206.3664857501 97.8604197820 224.1124511954
231.1075468370 59.1616344763 249.9241178438
221.2959631671 132.3169561885 222.2637033464
211.6285278466 136.6982798787 232.8967680671
194.7385221415 135.6251982115 242.6182113884
212.5129425690 116.9148079680 203.9898013039
216.1591336591 75.9581145085 243.1730523028
222.1718580297 126.2859059012 218.3499570857
204.9088597886 95.2471386091 233.2493663931
225.3529466192 132.8746213778 210.8438697612
227.3601714308 131.5432537993 214.7339294153
197.3559547545 139.2849859327 240.5700220535
201.9948478605 94.3154912807 215.8227945277
202.7727398087 101.2300283415 215.4287131816
198.0925845607 94.4268148923 225.4366848690
224.8721121000 70.8566992639 242.2715907024
209.1169984580 140.8775175773 236.0136311653
230.0010174808 129.5226783873 216.2211908076
229.1108460980 74.5440057170 249.3144924934
206.1153051008 88.8225510968 241.9292313514
212.0708703232 137.6503859609 238.5787443555
211.6379902969 144.3247929057 236.8008195394
215.0446248544 79.0071431222 241.9986486250
200.6040225689 94.7167300342 215.7791608452
193.1799397571 136.0998739101 236.8184288399
208.5287018940 131.5048140203 245.8345910749
232.6679362181 127.1495196610 212.1824304503
217.5167706732 131.9344707511 225.4122204327
206.9107726595 81.8843963252 237.2531871295
214.2482916341 133.3507385178 232.0573734404
204.7242000327 95.5012249503 220.0761956004
222.7958025170 127.6420733481 223.6798714432
214.5617315194 140.7630548622 238.6363913147
233.6197359469 58.7566145012 247.5906127489
225.8029552818 71.3012080597 253.0731288419
225.2364434705 125.2277341001 201.9351652574
226.0302640845 77.8557210708 239.4139187581
229.2691384349 130.2604864433 207.7130858106
208.7830611300 99.9950372137 235.0265776365
198.9779128832 97.2191418235 216.0364091674
220.7965021148 118.2355471458 199.5492286011
230.3587163635 53.2801796358 262.5798094212
234.3455325460 56.3824155706 257.8821280000
230.8127203804 131.2683756868 214.1275525306
211.6379902969 144.3247929057 236.8008195394
223.7753202688 131.7121439572 226.8326430975
214.0722164626 112.8756890996 204.8078231305
229.9764464595 71.1551704473 247.0484036868
207.1401180750 101.4718281690 218.9058754229
213.6108815986 77.0981726607 245.6079844075
218.0808808097 88.3910458604 241.5941665109
209.9149836100 100.0966549349 234.7668976031
207.4311641888 139.0901345112 245.9997379116
218.7320509121 136.3304414513 223.9297622218
217.3827901912 91.9492268402 245.8219540850
220.0411248548 137.3278524259 229.7458042823
211.6285278466 136.6982798787 232.8967680671
208.6231736848 100.4154158184 214.8865543229
233.1963462977 55.1907584251 255.1514706717
216.9991566906 139.1033949582 228.2678794049
220.6052238958 75.5378461367 247.4884834697
219.4577862654 89.3410053778 247.7244201057
192.4777844690 137.8137496004 241.8479637523
219.7354883403 139.8620833506 230.0981608664
226.4681630992 127.8454515030 223.7478610049
213.1786862143 95.6372868504 248.3115732594
230.9342072258 55.3679002318 258.6026609711
214.5524473914 138.1155746935 230.9054953685
189.0006035063 134.3196894825 245.9397683257
207.2904540062 116.2596972246 200.3934883447
187.5748191625 143.0269103433 240.9470046758
217.6779081171 95.0369976072 243.4190999990
187.1008646200 141.9584018899 242.7383382764
222.1718580297 126.2859059012 218.3499570857
219.2935267122 144.7968719799 228.1475429755
228.0546556925 74.0459583185 253.8615493738
218.0888802961 131.2049902842 226.6891291430
218.8799146973 80.1445432519 250.1469420472
234.4719242195 51.2043523900 255.6897072664
214.1672989280 108.3127581035 205.0470283636
211.0059429237 104.8765545053 216.4509997273
192.9439143901 137.4941793073 237.0364815312
222.4645541099 73.7896990895 242.4901698854
213.7664906114 116.9619196924 202.4633584581
191.9431670292 139.9605338829 237.7204315292
208.6919524875 113.9418880193 203.2540739656
196.6423793599 138.2870568891 240.7618045250
215.7776236659 134.6750790458 225.4261966575
204.7153001566 105.9141026226 214.5883702159
226.7162007725 129.7388788196 223.8341443188
217.6779081171 95.0369976072 243.4190999990
200.1793067244 140.1459493040 237.5258033426
221.5352459584 89.7480567227 248.0303726402
215.4742104687 140.7823287709 237.7673152253
217.8771511067 74.1916993798 247.1271114454
202.9927577552 91.8304305091 238.1311354471
197.5337456062 141.4744723718 238.6424368311
211.7156287305 87.0233949862 244.3097043569
223.8895810660 127.3621722272 216.9893005834
226.3817803327 67.6708725067 241.2278868618
211.6650695456 106.8093314778 207.8060693620
205.4633309420 88.3564913800 234.2692322069
195.8880401002 143.3320396296 238.2454212143
227.0582816162 69.6106168574 244.9147152720
218.3736693616 76.4211249005 240.2285658893
223.2121587499 92.6412980966 244.9659130513
208.6131252968 117.6637009810 204.9101747420
235.7808763466 64.4106314765 255.2034107709
199.1499903683 143.0810128770 242.7951513257
207.3059846257 133.3640995564 244.9494382197
197.7721533682 135.5436438021 239.8180919475
213.9994009786 140.3359673954 235.8666374718
231.5765753253 56.0487320450 259.3603559564
233.2991351462 63.7922716781 254.2980083174
228.8828764576 56.5442044302 255.5825969616
201.0876955687 95.0989990275 222.4074425727
224.2092475340 127.1154134135 203.0671847972
205.3913409750 95.6736827009 234.5189779960
234.3555661642 68.2703111518 255.6541244228
225.7381371128 128.3144883967 209.3755582657
215.4512988005 108.8314186678 201.5823485826
212.3448615185 110.6665634250 201.9664080075
215.0402959710 138.2910537624 235.9253468196
215.9305345376 112.0521859664 204.6087732351
216.6676437529 92.8739107796 244.9731317351
208.2767401469 101.4278275987 214.1022832944
211.7672336648 133.9694199282 243.4227820061
212.1480561833 109.3452132692 211.5791071691
224.0239477593 126.1617818892 220.9053085984
216.2523360594 96.0406317358 240.0551338010
234.4336456399 48.7882910226 255.8530973437
206.1508323662 114.9306043037 202.3612231862
208.6327513692 140.1740814635 246.4490164529
205.2161395126 92.2033741642 230.5974125129
208.5544196836 89.1798088411 245.2995525714
225.8856469933 114.3034441280 202.7321196475
203.7663658642 136.5347010871 247.1180313578
207.5263052416 138.5565894132 239.1643498150
191.6538841111 138.9824609927 243.4017933207
216.2523360594 96.0406317358 240.0551338010
224.6896330503 112.9173499203 206.7587439716
206.8670287231 131.1135998904 242.7487746367
211.0265357125 130.1047370318 243.5105300086
231.7158229793 56.0588870400 260.6594145111
212.1766673520 112.4432404656 201.7692109689
227.4208061812 115.4475213297 207.3294288117
207.1807364445 102.0589530644 218.9081323747
227.9559325996 126.6071898535 213.6195233966
212.2676320958 94.4828292481 234.6473844413
210.6889036316 105.6429072013 202.7525284426
210.0515951887 82.7537392402 243.4476589918
210.9524117293 134.2371945723 246.3499276995
200.8711452919 139.0521895914 236.5076779723
201.2519222538 100.5612130192 224.8523155104
219.5952757210 78.3395193561 243.8029178995
207.0540201247 90.8322806415 240.1375876500
204.6122911377 137.3774138349 247.9542884138
227.1333560960 73.1064259823 244.8316610110
203.5565309846 100.2306274268 217.1780746531
233.1575474410 61.7164470415 255.3777777134
206.1664003142 138.2100227810 239.7813771411
218.0835993021 134.9181651710 223.1906831883
212.8558649632 97.7972978716 219.6632770362
211.0059429237 104.8765545053 216.4509997273
211.5263884129 105.3754276914 214.8292152330
208.0930640021 113.9563131520 204.8905906578
229.3258568525 122.1963198352 209.3172818659
209.9327826182 101.7979463909 236.2053283874
209.0542629977 106.7493367903 204.5439803702
231.8056776042 123.1708160329 202.8065365431
224.2111689542 134.0080909475 221.4172001612
213.0016037310 107.6070845605 205.0764933689
223.9743453057 72.7461335167 243.5756141491
204.9774995905 107.3231737698 214.5072734703
218.9596503813 135.8719634841 228.1414744110
225.2145642070 131.0097965452 220.0800480992
202.6483345962 144.9908867654 241.1426968180
221.2049135608 74.7596304988 247.4541082515
218.3170967136 115.5583364848 204.2018843813
221.2959631671 132.3169561885 222.2637033464
219.1487785894 137.0810792005 230.7682722937
220.5050124094 90.0544773913 241.1706108525
223.9757199425 74.5112825484 248.0789016599
200.0332555252 96.4070807157 219.0090525869
228.5421100708 117.1192999436 201.0016986960
202.1596981664 140.5920321145 238.5738631928
209.7890019069 108.4358322551 205.5194585996
218.6459783761 91.1977051307 237.6513550579
207.3659787768 138.8465981120 248.6982917068
218.0121762666 74.5824920334 246.6350824466
209.2024011202 89.0603679390 240.4232445657
229.6806510977 128.8103637551 208.0683764020
193.4905910228 135.8176313212 242.1287912269
223.1270223466 115.5189426370 202.3463676202
215.1454415375 95.6489813990 239.7985547903
203.9682699294 93.7220257389 217.9777247996
228.7855919330 128.2727022449 203.8902818285
224.6666670437 126.5833989298 215.8264126377
230.3514912567 130.2285546659 215.8707987506
220.3725896181 143.3552619591 229.5620166311
208.1614805452 129.8386372346 241.8540435508
209.3413968248 116.5195126867 205.2530593146
224.1502837645 73.4550171237 249.0357209753
191.0219236643 139.1092787831 244.0066322690
231.5394024615 60.8379532477 255.8950294772
216.7236959097 134.5715993055 223.8077096814
189.7099621612 133.0565894411 243.7308784484
203.6980247495 140.6955326316 248.7314215638
215.4742104687 140.7823287709 237.7673152253
206.8768340396 82.2154888694 237.2309992997
197.2511417804 97.0965865822 224.3531130685
210.0082560134 107.8911127971 202.3077097874
221.9463222530 92.6922690486 245.2481152947
190.6321618561 144.1538691564 239.4315324206
203.0280904771 99.3403275621 215.7820899202
228.2519555242 68.8332372639 241.8148515584
208.0297613121 134.0952058402 239.3053183584
198.1316334379 98.7891706445 227.2984912931
222.7958025170 127.6420733481 223.6798714432
233.9482819725 55.7307879960 253.0500693112
204.9383097386 93.3547606941 237.2873228329
186.1050710073 141.3589448788 238.5953403895
230.6416986307 126.9489029575 212.9465574370
212.3151238941 102.6693534747 237.8850253472
227.9932058133 65.3971636538 254.0917674138
222.7200713109 133.2716688444 218.1974683275
206.3106731436 80.5688281465 240.6224847068
207.4228324193 92.4520321631 224.8671960382
214.1221292935 106.1703460521 204.0688713294
209.0049371965 136.9439202307 235.3349253469
226.5327895165 125.8390745217 221.8016532134
221.2959631671 132.3169561885 222.2637033464
234.7060192360 64.0928312876 255.7039189270
202.0317072256 102.7813107905 216.1729601456
227.0382977790 130.7663483291 214.1036210667
208.5043234333 104.1667373168 209.7626665892
213.0982287945 97.3611379400 216.9883062842
210.9674624316 140.9453357291 239.5326793930
208.2767401469 101.4278275987 214.1022832944
223.0467527432 132.7167135923 211.8887872489
202.3085995659 96.7026320800 221.2403552068
222.3522010671 129.9811763402 220.2099916370
235.6645052582 54.3105422877 259.4587635003
223.4924935256 90.8500751036 241.4864180660
213.5108301386 102.5657986358 235.7459375887
219.9351052354 91.3112435914 237.2634887868
199.4896921075 145.5460526526 239.6028604544
207.7733703227 79.9093225752 237.4217236242
217.4443008607 91.1328614287 236.8141852681
202.9450608538 91.5189479944 233.6375275644
195.0473423580 133.8979841831 239.2580690775
215.8184307455 133.6325375701 228.6893395747
207.6847979290 98.0953751824 228.8888832974
234.4719242195 51.2043523900 255.6897072664
222.9327680447 116.7790300575 205.3646737985
210.3805860601 103.6057496555 210.9485822073
211.4075568125 99.4008260669 233.3727443210
203.6328872628 137.2164753391 240.7414130418
194.0222200589 142.8132685369 240.7165131190
220.5907021845 75.3850532979 238.5258641319
198.5102534741 94.4302366080 221.7165995316
223.9619357015 130.2249378824 210.4138813253
207.1745299349 100.3781750048 214.8373065798
210.7321930958 109.3181297071 206.7193028243
220.3749975611 69.2445984063 246.1778365482
201.4846997336 99.4844567353 217.1935987405
228.9581442019 120.7892286502 204.6792186634
231.8056776042 123.1708160329 202.8065365431
216.4800991347 78.8290102740 241.4171580247
228.5691700063 118.9212519950 202.4042497356
224.1532490334 133.6059375414 228.7578521285
225.1686438618 91.1197098496 244.4937486108
220.0994555207 144.9921084771 229.2714660359
211.7824094512 138.3103219046 239.8312684605
229.2122577370 126.3092809377 208.1202397129
214.0216566764 106.5572817939 210.3702229260
229.4970980123 56.7616226457 253.0663938274
216.1532255711 109.4866719335 208.8393618562
211.7672336648 133.9694199282 243.4227820061
233.8903579893 62.8725366810 253.3863225496
203.7289280111 91.9782682118 222.9854299464
190.6321618561 144.1538691564 239.4315324206
208.3280965062 144.0100811217 238.5512780587
206.1560342620 108.4513702316 215.1986924982
206.9285641999 79.9184079482 241.7498321835
226.1389540115 70.3396385300 254.3159398773
224.0643846493 90.9462243406 247.8517922427
210.0939933701 81.6495936884 243.6324563975
230.3570346216 123.1335756025 202.7572883835
224.9496727949 68.7821030091 249.6303746093
202.2123903704 140.4620566526 243.5008084209
206.4541488542 89.3922628349 232.0392460625
214.8198471080 122.5095621068 197.1537201527
189.7099621612 133.0565894411 243.7308784484
211.2158829613 130.7386602218 243.9057310508
212.9517506933 105.7237124925 211.2093421470
211.9530391534 79.2540634844 245.4528749941
203.5891875108 99.6538041404 224.0032704280
199.7277747740 96.5510988735 216.6592353834
194.7946630101 143.4174628711 236.6182439843
205.5992431618 91.1917735339 238.6879763797
216.1989399688 138.3892832064 226.4204093337
200.0332555252 96.4070807157 219.0090525869
216.9439761271 133.5890714833 225.1584188628
221.0816620856 93.7831879314 244.5529794985
221.6827979710 129.5038779710 222.9462167423
211.3361216556 91.8692813625 231.8682689454
209.0049342045 101.4847987570 220.2708455367
205.6776568151 139.8228342395 249.3687252745
232.4788153523 54.1297637026 249.0061101743
211.4945972740 133.9766377887 235.8953991529
221.3907757779 114.8898513878 201.8986617236
223.2918906146 114.1840837505 204.9044305004
215.8318058970 109.6003752061 206.0620092673
219.1886139155 117.1497327376 203.5426776409
204.9774995905 107.3231737698 214.5072734703
211.2297985547 104.5105830453 202.2092744331
207.5212965308 107.8495169816 215.6382138256
209.7896033593 79.9605394327 242.1009760296
232.5785749923 69.2755012058 250.9728555653
215.1583182800 94.7645884583 248.9488769701
201.4206035081 99.3679427618 222.6910136147
209.4580508750 93.8060976018 228.4160877781
226.6447496769 77.4519759599 243.8059205263
227.4092127552 65.8036024618 248.9939567883
