33.0838050842 166.3571929932 212.8112030029
54.2786026001 196.6956176758 139.4676055908
58.6633033752 196.0526885986 136.7779998779
53.3867683411 204.0420074463 193.6746063232
37.0867691040 206.3020172119 196.1546020508
50.9216880798 184.7973632812 170.4300079346
61.0072212219 200.6553497314 125.0000000000
19.7549877167 185.8269195557 202.2953948975
46.7920646667 187.4980468750 175.2020111084
9.8308668137 189.9329681396 206.1799926758
36.5333862305 158.8198699951 211.2626037598
59.0374183655 198.4098663330 131.5500030518
58.4727897644 199.5789947510 139.3161926270
47.4574203491 167.4098663330 218.7500000000
25.9333858490 203.9098663330 212.5826110840
30.0920639038 163.5080413818 209.2620086670
58.1938056946 197.1371917725 137.9111938477
45.5536231995 165.9769744873 219.3595886230
56.7974205017 199.8298645020 134.6699981689
55.4140777588 166.1528472900 221.0000000000
46.9140777588 201.2228546143 197.5699920654
35.6214027405 162.3200073242 205.0988006592
15.3040018082 182.3222045898 206.9000091553
28.7566795349 167.2299957275 207.4320068359
40.6127243042 206.1701049805 193.0789947510
25.0572204590 165.1253509521 208.0400085449
18.5336227417 174.1769866943 205.1396026611
20.4067058563 185.0797271729 205.3600006104
23.2988224030 204.1240234375 209.3600006104
49.5286026001 198.2656250000 161.5375976562
51.1420631409 193.8580474854 155.3820037842
28.4682826996 202.4433746338 206.7659912109
14.2127866745 185.7989959717 210.2861938477
29.4797534943 210.3000030518 201.0500030518
12.7134733200 202.3730468750 203.2559967041
28.0589485168 166.6781768799 212.0169982910
24.0814018250 168.5899963379 207.7187957764
52.0714035034 190.7299957275 143.2487945557
40.0947837830 160.1253204346 201.4109954834
50.5789489746 163.1681823730 215.6170043945
50.2074203491 197.0498657227 155.7900085449
28.0382823944 165.1433868408 208.3759918213
49.1407318115 190.3399963379 176.5826110840
56.7088241577 193.4240264893 159.0000000000
30.3916645050 210.7793579102 204.9703979492
17.1082553864 207.0272979736 212.2610015869
10.9952917099 185.4369201660 205.9840087891
40.7238082886 156.3571929932 214.4011993408
48.7397880554 159.3957061768 224.0718078613
44.1574211121 164.3698577881 219.3899993896
53.4367065430 196.4097290039 153.7299957275
39.9255867004 202.9159088135 199.9490051270
60.3149871826 197.5169219971 158.1153869629
53.1652908325 191.2869262695 154.4440002441
49.1667060852 167.4297332764 217.1699981689
52.2263031006 181.4786987305 174.9349975586
54.0174217224 191.6398620605 137.1199951172
63.8618698120 195.1075286865 172.5319976807
34.0597877502 201.0657043457 203.0317993164
31.5355854034 200.1059112549 201.3889923096
45.1746635437 200.2423553467 196.4499969482
54.5667076111 192.5197296143 180.5299987793
51.0140800476 201.8328552246 195.2099914551
48.4416656494 165.0493621826 223.3404083252
39.0333862305 162.3398590088 216.2326049805
55.5252914429 161.0569305420 220.2140045166
5.0208663940 188.3929748535 206.1999969482
16.3686027527 182.4956207275 208.8675994873
55.0764656067 189.6612396240 146.6699981689
54.2616882324 192.6973724365 149.9100036621
17.6767063141 203.6197357178 202.5399932861
30.9427871704 169.9290008545 210.5161895752
34.4142990112 166.0940704346 205.8524017334
51.4972190857 187.1853485107 167.3200073242
49.8040008545 202.9122009277 197.6600036621
53.9179115295 192.5476226807 143.1869964600
54.1108665466 195.7229766846 139.0599975586
48.3039627075 189.2200012207 177.1038055420
56.4752922058 187.9969329834 165.8939971924
51.4249877930 185.8369293213 177.9953918457
33.4692153931 202.2675933838 209.2682037354
48.4406929016 162.3210296631 225.2902069092
54.6589355469 200.7958221436 187.6020050049
55.3421325684 191.9269409180 151.9331970215
27.2697525024 166.1000061035 207.9800109863
58.6155853271 192.9259033203 157.6690063477
49.0992126465 160.4275817871 217.8782043457
32.4207191467 169.5866546631 209.6860046387
57.1926460266 189.7468109131 171.9929962158
21.5440025330 202.7722015381 208.5500030518
50.5816650391 208.5693511963 196.4604034424
10.1797542572 193.0599975586 201.7799987793
54.9197540283 197.0599975586 180.8200073242
54.3621368408 188.1069335938 145.1531982422
38.0908660889 200.9329681396 199.2399902344
34.3772201538 167.4153594971 208.4400024414
38.3967056274 164.5197296143 206.2899932861
54.7040786743 200.7228546143 187.6999969482
42.9608688354 159.8729705811 220.8199920654
57.4579124451 190.8476104736 166.5370025635
11.1308660507 195.1029663086 210.0999908447
26.3197536469 205.4799957275 205.8500061035
56.4172210693 198.9153594971 157.1500091553
38.0467681885 205.8420104980 198.4146118164
11.6774206161 191.4098663330 205.9400024414
58.7099952698 200.1852264404 136.2473907471
50.0136489868 194.7478179932 152.0540008545
51.3833045959 163.0226898193 224.3880004883
40.0672225952 206.1753540039 192.9800109863
57.7482566833 198.9472961426 174.3110046387
54.9067077637 191.9597320557 182.2099914551
58.0142974854 195.8440704346 162.6524047852
40.2708663940 201.3229675293 200.3799896240
30.7782554626 209.8773040771 205.8610076904
49.2847824097 160.5553283691 218.7209930420
13.8907175064 192.9566497803 205.3660125732
43.1616897583 201.9773712158 190.8000030518
54.1816902161 199.0673675537 190.7899932861
56.0746650696 192.2623443604 161.8699951172
20.2952899933 200.8069305420 212.0440063477
50.2259559631 198.4888000488 191.9067993164
51.7991256714 191.8858642578 175.6139984131
58.2316627502 191.7193603516 177.5704040527
50.9914016724 194.9299926758 181.4987945557
19.6640777588 201.5828552246 201.4199981689
14.3859567642 200.6587982178 204.1268005371
50.3565940857 163.7316894531 224.4557952881
54.9616889954 201.0273742676 191.6600036621
15.3097543716 198.7700042725 201.0299987793
48.1574211121 189.2198638916 176.5000000000
46.5439643860 206.3000030518 191.7338104248
50.5816650391 208.5693511963 196.4604034424
56.4592132568 188.7475891113 150.4082031250
53.6159553528 197.1688079834 135.8868103027
53.0802917480 188.1298370361 147.0350036621
55.2074203491 195.2998657227 168.8399963379
38.3636245728 206.2369842529 193.0195922852
53.1982803345 189.0433807373 139.6459960938
53.0308685303 194.2229766846 186.2099914551
48.7382545471 189.6672973633 147.5410003662
43.4967079163 162.3897399902 219.9299926758
21.6682834625 170.7433776855 203.3659973145
8.7736225128 188.8969726562 204.1696014404
53.9108657837 166.2629699707 220.7200012207
56.0582809448 193.2433776855 183.6159973145
57.0089340210 196.7358245850 184.8419952393
20.3042984009 184.0040740967 200.5124053955
28.5167064667 168.4697265625 211.0200042725
54.9207191467 163.1666564941 224.3359985352
21.0631961823 181.1745910645 206.8979949951
48.2197570801 196.9799957275 156.3700103760
39.2074203491 162.1398620605 216.8899993896
61.6592102051 197.0375823975 134.3481903076
56.2797546387 198.5399932861 125.0499954224
56.2016639709 199.6793518066 159.6903991699
37.6538085938 203.0471954346 204.9212036133
9.0714025497 195.8899993896 201.9888000488
49.2416877747 202.2173767090 196.3800048828
37.7899932861 166.3152313232 205.3773956299
38.4316902161 205.6173706055 201.8099975586
59.2672195435 191.5353546143 177.1999969482
55.1389694214 197.3092651367 146.3589935303
60.4939651489 198.5000000000 171.3937988281
40.0799980164 202.0308532715 204.6600036621
17.1019287109 179.8089904785 203.9080047607
21.1321353912 203.9469299316 211.9832000732
17.2686042786 205.7356109619 212.6576080322
56.0746650696 192.2623443604 161.8699951172
50.7088241577 183.9240264893 168.3699951172
53.8567047119 197.6497344971 147.3600006104
58.9016647339 196.5893554688 164.8704071045
60.3931961060 196.1545867920 155.3079986572
52.5574188232 200.3498535156 136.5099945068
54.9649887085 196.6469268799 152.2753906250
46.8216629028 188.5993499756 170.3603973389
51.3640022278 195.8422088623 147.7100067139
40.6127243042 206.1701049805 193.0789947510
25.1340789795 168.8628540039 211.9899902344
53.8997535706 159.6499938965 217.1200103760
40.0639991760 156.6822052002 209.3800048828
52.6508674622 199.4429779053 156.1299896240
51.3202896118 193.8098297119 157.8450012207
31.3240776062 206.4428558350 214.3600006104
53.5716629028 165.3293609619 223.4904022217
36.9557647705 159.6059112549 221.0729980469
51.2921371460 163.5769348145 216.6931915283
45.3127899170 201.1690063477 199.6661987305
24.2767658234 205.3720092773 205.0746002197
47.6249885559 202.7269287109 192.6454010010
13.1818714142 194.4475250244 205.9419860840
50.0836486816 191.3578186035 176.8040008545
57.1427230835 203.0401000977 138.2689971924
13.0239629745 190.3500061035 200.7738037109
24.1614017487 167.1999969482 207.1087951660
14.7226448059 196.6668090820 204.9830017090
51.1736259460 192.7769775391 139.0495910645
47.7946662903 187.4123535156 177.0599975586
18.4216880798 197.3973693848 202.8699951172
49.6936492920 201.7278289795 189.1940002441
29.1552906036 202.3569335938 212.3740081787
50.8047828674 182.4153289795 176.4609985352
38.4616661072 165.2993621826 209.6504058838
54.7040786743 200.7228546143 187.6999969482
44.4116897583 159.5873718262 212.7799987793
54.6267051697 193.8297271729 175.9100036621
60.7842979431 197.5540771484 127.2523956299
21.6782836914 202.0133819580 205.9559936523
18.8038063049 182.3171997070 209.3211975098
40.2416648865 206.6093597412 194.3804016113
9.8017606735 188.9468078613 203.2210083008
53.2439994812 187.8422088623 179.3200073242
10.2974205017 198.7398529053 203.1500091553
58.1852912903 195.0169219971 137.0039978027
40.5040779114 159.3428497314 222.7200012207
23.0286159515 166.7617797852 209.2559967041
60.3931961060 196.1545867920 155.3079986572
49.7321319580 203.1769409180 194.3432006836
37.6452941895 200.9269256592 204.0140075684
21.4283866882 206.7479553223 205.6060028076
15.0867061615 190.3197326660 205.8399963379
52.8052940369 194.9969329834 160.6439971924
57.6521377563 194.0569305420 142.4031982422
13.4788217545 194.1840209961 208.3300018311
52.7188224792 160.9840240479 220.7399902344
13.4691257477 187.8358612061 208.7440032959
29.1967067719 208.4397277832 210.3499908447
33.4692153931 202.2675933838 209.2682037354
49.5097541809 186.4400024414 165.3700103760
58.6633033752 196.0526885986 136.7779998779
8.2563028336 193.7487030029 206.1250000000
18.3418712616 184.5375213623 203.2319946289
62.6140785217 195.8028564453 174.9899902344
23.4921360016 179.0269317627 203.3531951904
53.0355873108 188.3359069824 150.8190002441
36.6140785217 162.3928527832 210.4599914551
24.3222007751 171.8698730469 205.9799957275
53.9367065430 202.5597381592 192.2200012207
54.4955863953 192.4859161377 181.5290069580
54.8540000916 197.6921997070 134.1800079346
39.7620658875 199.7980499268 197.5620117188
50.1386146545 197.8017730713 149.5459899902
49.1274185181 203.1598663330 190.7200012207
31.0867061615 206.4697265625 206.8699951172
25.9136219025 169.8369750977 208.1895904541
55.2667045593 200.4997406006 156.6900024414
47.3457641602 189.1259155273 184.2530059814
35.6646652222 162.6423492432 218.4100036621
44.4708671570 185.8629760742 169.0999908447
15.3040781021 189.2628479004 206.6799926758
50.8286018372 192.5956115723 146.8475952148
50.9914016724 194.9299926758 181.4987945557
48.7138061523 202.6671905518 197.4812011719
32.3840789795 210.8428497314 203.8399963379
47.7167701721 200.0120086670 158.8646087646
50.6086044312 200.7356109619 185.5876007080
53.0538063049 188.8771972656 147.4212036133
30.8214015961 160.8099975586 209.3488006592
56.2672195435 197.7353515625 181.1000061035
12.5022029877 190.9298706055 201.6499938965
15.8908662796 203.1129760742 205.1699981689
31.7140769958 166.4428558350 212.3499908447
48.2174186707 203.2198638916 192.6399993896
48.2722015381 160.1698760986 222.1999969482
57.5298042297 195.6867523193 126.9100036621
42.0389480591 201.5081787109 202.3869934082
54.0133018494 191.1826934814 153.5879974365
51.4039993286 186.3622131348 181.9799957275
29.9840030670 209.0922088623 201.6100006104
57.5242996216 191.1540679932 175.4824066162
57.0916633606 199.7793579102 155.7904052734
45.7597885132 186.6657104492 185.3318023682
38.0222015381 159.1798706055 208.3899993896
49.2342987061 207.0740661621 192.8423919678
18.5039634705 202.1900024414 202.3338012695
56.7974205017 199.8298645020 134.6699981689
49.8497543335 196.1100006104 149.2100067139
53.9602928162 186.4298400879 145.6549987793
53.2516632080 203.0793609619 193.0304107666
38.6046638489 200.2623443604 202.2500000000
6.3067064285 189.3397369385 205.6399993896
39.6198043823 157.9867401123 219.7299957275
16.2246646881 180.8923492432 206.4900054932
50.1497535706 196.0899963379 183.5600128174
13.8463029861 200.8287048340 199.5850067139
58.2416877747 193.5673675537 171.9600067139
33.0472221375 205.5453491211 204.7600097656
44.8742980957 161.3540649414 217.4723968506
42.7267074585 162.9597320557 218.0099945068
21.0846652985 173.5423431396 209.3800048828
53.8538055420 190.0072021484 182.9011993408
51.6482543945 201.3473052979 195.2410125732
55.3538055420 191.2872009277 150.0612030029
12.8372220993 197.1353607178 207.6300048828
36.9839630127 158.3500061035 208.1938018799
42.7842979431 202.7640686035 194.7424011230
52.6708679199 191.8229675293 178.8300018311
48.0827903748 198.8589935303 194.5762023926
52.5052909851 186.8669281006 183.4940032959
31.7199916840 205.0452270508 199.0074005127
38.2667045593 165.3697357178 210.0500030518
54.9842987061 191.9640655518 179.4624023438
51.3398056030 193.9467468262 149.0699920654
34.3772201538 167.4153594971 208.4400024414
59.4667053223 197.1397399902 169.2500000000
12.3336477280 198.2878265381 202.6339874268
45.6033859253 190.6698608398 175.1926116943
50.4897537231 194.9600067139 181.6399993896
30.6186027527 165.0656127930 211.9875946045
42.2516899109 202.1373748779 202.1999969482
53.2425804138 199.8399963379 134.9980010986
42.8252906799 153.9769287109 211.8339996338
53.4946632385 161.2823486328 215.0599975586
10.6414022446 189.6900024414 202.4987945557
20.9207172394 207.5466461182 207.4260101318
53.0355873108 188.3359069824 150.8190002441
48.1797561646 185.8200073242 183.7400054932
39.7182807922 159.2233734131 203.5659942627
51.2616882324 189.2173767090 171.1300048828
20.1788234711 200.4240264893 211.5399932861
46.1136245728 187.3169860840 167.0695953369
48.2036476135 191.4078216553 172.6039886475
47.7831954956 160.4645843506 220.2279968262
48.1046638489 199.0123443604 188.3099975586
40.3182830811 200.0433807373 191.9960021973
17.2632770538 186.0980987549 201.8040008545
57.6789474487 202.5881805420 136.9669952393
57.1389503479 164.3981781006 217.8069915771
53.0197563171 194.9299926758 138.6300048828
7.2036228180 196.9569854736 205.1195983887
57.0599937439 199.3152313232 193.0273895264
22.2372207642 181.1653594971 202.6500091553
56.1425819397 195.7100067139 180.1280059814
53.3346633911 158.9023437500 218.5200042725
53.8333015442 194.4226837158 147.9279937744
40.2736244202 204.7869873047 196.2895965576
54.2047805786 194.1853179932 161.6410064697
22.1859569550 164.4387969971 212.1567993164
19.6622009277 176.1498718262 202.1499938965
52.7340774536 192.8228454590 148.5999908447
35.6667671204 166.8420104980 206.1446075439
55.2139625549 198.3899993896 192.6437988281
55.2639999390 187.6222076416 159.9799957275
46.5846633911 163.2423553467 215.6100006104
39.6349868774 206.1569213867 199.5653991699
49.7107162476 191.7066497803 173.6959991455
51.1007194519 164.3966522217 223.2960052490
53.8817634583 190.5668029785 163.1410064697
57.3216629028 198.6093597412 159.5803985596
54.6988220215 199.4140319824 187.1399993896
56.6927871704 198.1289978027 163.8761901855
51.5686149597 199.8717803955 160.1559906006
28.0382556915 204.0173034668 213.0709991455
53.9016647339 202.3993530273 184.0604095459
42.8549880981 165.0669250488 216.0253906250
30.6257648468 159.5759124756 212.8330078125
54.0159530640 194.0288085938 159.2968139648
9.8508663177 193.4029693604 204.0199890137
55.9308662415 194.1529693604 173.0800018311
54.6267051697 193.8297271729 175.9100036621
50.1016883850 201.5273742676 195.1000061035
38.7646636963 158.3623504639 221.6000061035
48.4416656494 165.0493621826 223.3404083252
16.1897525787 185.5700073242 201.8100128174
61.2438087463 198.1972045898 174.9911956787
31.1799926758 170.5352325439 207.4473876953
15.9021358490 188.3769378662 205.2931976318
54.0808677673 203.5529785156 137.4400024414
41.0752906799 159.9269256592 207.0839996338
53.2972221375 189.2253570557 175.9400024414
14.7304773331 198.6169433594 205.8173980713
51.3689346313 205.3358306885 200.0019989014
52.7440795898 186.2028503418 185.4599914551
40.3167076111 166.5697326660 205.5699920654
42.5421371460 161.5869293213 203.3531951904
31.1799926758 170.5352325439 207.4473876953
43.5988235474 158.7540283203 213.6199951172
19.7549877167 185.8269195557 202.2953948975
54.1697540283 197.0599975586 152.7600097656
45.7697906494 205.2757110596 193.6518096924
55.7527236938 202.3401031494 194.9689941406
52.5689353943 200.5658264160 154.5019989014
55.8714027405 197.9799957275 133.0088043213
58.9740028381 197.8321990967 124.4100036621
53.5849876404 202.0669250488 189.3954010010
21.6440029144 164.4122009277 212.3500061035
51.2497901917 185.7457122803 170.5118103027
15.4826440811 184.6867980957 209.7830047607
60.6789703369 200.7192687988 126.4990005493
12.9999971390 193.6008453369 209.4499969482
52.8534736633 191.5330505371 179.0959930420
52.0764656067 194.7512359619 189.0700073242
38.7197570801 205.5000000000 192.7000122070
58.6155853271 192.9259033203 157.6690063477
36.7807312012 159.7299957275 208.5726013184
35.6040802002 165.3228454590 212.3099975586
52.1997566223 191.4100036621 171.0100097656
22.9942970276 205.7740631104 206.8524017334
55.4239997864 200.2022094727 149.5200042725
51.5739631653 190.5099945068 135.6437988281
44.5446662903 161.9623565674 222.7200012207
14.7686042786 202.4256134033 205.4875946045
19.2474212646 184.8498535156 204.5200042725
11.6097545624 195.0200042725 200.5700073242
48.8340797424 166.5828552246 220.4299926758
23.8236465454 206.0978240967 207.3939971924
31.2540035248 164.8222045898 207.0599975586
54.8867683411 196.7320098877 185.3746032715
50.0732765198 166.4281005859 215.7339935303
55.8164672852 189.2112426758 172.4300079346
29.4042968750 168.1940765381 207.9223937988
18.2016639709 185.5793609619 208.1704101562
33.5766792297 165.8000030518 205.5720062256
50.0759544373 193.7187957764 183.7667999268
49.2888221741 200.6940307617 195.9400024414
56.1442985535 164.4640655518 216.3023986816
56.8840026855 195.7322082520 127.5200042725
55.5116882324 192.4773712158 152.0299987793
56.2886123657 200.4117736816 126.3460006714
54.1697540283 197.0599975586 152.7600097656
48.8097534180 197.6600036621 185.9400024414
45.3204765320 202.5969390869 200.2673950195
57.1679115295 191.1476135254 141.3069915771
14.3365926743 193.5316925049 203.8857879639
59.3404769897 196.0469360352 158.8073883057
14.7304773331 198.6169433594 205.8173980713
17.1438064575 184.6071929932 209.7211914062
59.4616889954 193.2473754883 181.4600067139
55.8698043823 194.2867431641 181.5099945068
56.7597541809 187.7599945068 173.0100097656
52.1499938965 194.5852355957 179.5273895264
24.5552902222 164.4269256592 214.3040008545
56.2542991638 200.2040710449 192.7823944092
20.0472202301 203.6753540039 198.8000030518
55.6338081360 194.9371948242 146.0312042236
32.5133018494 203.9826812744 208.9279937744
42.1589698792 163.7292633057 217.7989959717
53.8452911377 187.8869323730 181.9940032959
16.9463024139 201.3887023926 197.6250000000
17.2559566498 203.3388061523 210.1468048096
50.0372200012 188.5453491211 168.5100097656
62.5172195435 196.8753509521 130.2300109863
58.9297561646 196.0899963379 126.5599975586
54.2636260986 201.2969818115 153.5596008301
53.9108657837 166.2629699707 220.7200012207
45.0120658875 199.3380432129 194.6020050049
59.2689476013 194.1081848145 184.1170043945
60.0299987793 193.9308471680 173.7100067139
54.8116645813 193.6493530273 175.6903991699
44.7036247253 164.8169860840 218.9496002197
54.1816902161 199.0673675537 190.7899932861
19.1882553101 171.8773040771 209.5310058594
43.4679145813 157.9976196289 212.9969940186
54.9074211121 201.6898651123 154.0700073242
30.3247814178 199.8853149414 206.4709930420
53.8508682251 164.1029663086 216.3199920654
50.0267677307 195.1120147705 180.2946014404
9.7888212204 186.7140197754 208.5899963379
24.6916637421 177.2593536377 209.0803985596
24.9007339478 171.5599975586 208.6625976562
21.0527229309 173.2501068115 208.7189941406
53.9567070007 192.7697296143 178.2700042725
32.8740806580 205.1028442383 207.0000000000
8.2151441574 186.7299957275 201.0130004883
41.4502906799 158.8698272705 220.9349975586
35.5236511230 205.4378204346 197.8739929199
56.9016876221 201.1673736572 150.0800018311
17.3886032104 204.8956146240 213.7976074219
54.6499977112 198.5708465576 186.6500091553
51.9891242981 164.8458557129 223.2740020752
34.6082801819 202.5933837891 199.1559906006
60.3272209167 190.5353546143 176.1399993896
52.8586158752 202.9417724609 136.7859954834
52.1546669006 197.6723480225 153.3800048828
25.6916885376 164.2073669434 208.8800048828
46.8055877686 157.1559143066 219.8789978027
45.8016662598 205.6193542480 196.8904113770
19.3720626831 174.7680511475 206.1420135498
53.8616905212 197.5873718262 184.6699981689
45.3204765320 202.5969390869 200.2673950195
41.1789703369 205.2792663574 191.0489959717
25.9382839203 171.2433776855 207.3260040283
59.3289680481 194.6092681885 181.1689910889
55.6338157654 189.8084716797 150.2313995361
16.9440021515 196.4322052002 202.3099975586
14.2055854797 184.0059051514 209.5189971924
55.5621337891 199.9169311523 183.1531982422
50.2183876038 190.9079589844 171.8759918213
51.3751411438 199.2799987793 179.7129974365
44.2346649170 184.7723541260 168.2599945068
56.3497543335 195.6600036621 153.2500000000
29.8414020538 205.2899932861 201.2388000488
32.1774215698 205.8398590088 200.9600067139
58.8542976379 195.7540740967 181.5023956299
13.4059562683 181.8688049316 204.9868011475
38.7946662903 164.5323486328 205.2899932861
60.6055870056 194.2759094238 158.4989929199
51.5797538757 197.1199951172 192.9900054932
25.9746646881 206.2623443604 204.5500030518
50.7746658325 192.2023468018 184.5500030518
53.2425804138 199.8399963379 134.9980010986
32.7152900696 159.0669250488 212.5240020752
52.9336242676 193.2769775391 174.3295898438
34.9567680359 167.8820037842 208.3846130371
9.3625812531 186.8600006104 200.5680084229
54.5342979431 201.4040679932 181.7924041748
50.2183876038 190.9079589844 171.8759918213
38.6046638489 200.2623443604 202.2500000000
56.2397880554 193.3757019043 156.9018096924
52.9284629822 202.0462799072 187.3297882080
49.8374214172 206.7898559570 198.1500091553
25.6097888947 202.4157104492 211.4318084717
9.3636474609 196.5978240967 202.2939910889
55.3455886841 187.6059112549 151.5590057373
5.8897900581 194.2457122803 205.3018035889
51.8791236877 194.5658569336 147.5639953613
30.9427871704 169.9290008545 210.5161895752
57.9292144775 198.0575866699 194.1781921387
58.4892120361 190.5575866699 169.3881988525
42.3721389771 202.0269317627 194.1431884766
20.5726432800 178.2967987061 208.2530059814
26.6716651917 175.2893524170 209.1404113770
55.0016632080 192.9993591309 148.7004089355
56.8647804260 198.8953247070 150.9309997559
42.2108688354 161.4429779053 220.4899902344
51.9883880615 201.5779571533 186.1559906006
42.1589698792 163.7292633057 217.7989959717
56.2672195435 197.7353515625 181.1000061035
34.3772201538 167.4153594971 208.4400024414
53.6426467896 185.5368041992 172.7929992676
32.3272209167 206.6753540039 202.6600036621
22.6688232422 170.2740325928 210.2500000000
17.8039627075 172.6600036621 204.1038055420
5.2282562256 188.1072998047 205.9810028076
42.0872192383 204.5853576660 189.6600036621
21.6874217987 175.5698547363 203.9700012207
16.0827884674 204.7189941406 200.0261993408
53.4367065430 196.4097290039 153.7299957275
57.1352920532 193.4569244385 185.8840026855
7.9433865547 196.5698699951 210.4826049805
47.8999938965 191.1252288818 172.5074005127
51.2963027954 185.7187042236 142.0749969482
51.5067672729 197.9220123291 144.9146118164
51.8119316101 197.8889923096 152.8480072021
59.7292098999 194.0675811768 156.5182037354
38.4936256409 157.6969757080 211.6795959473
49.4814033508 195.8500061035 155.9888000488
37.7639999390 158.3822021484 205.8300018311
23.3725814819 164.9600067139 207.8280029297
26.2614021301 205.1699981689 206.0688018799
10.4108667374 190.7929687500 204.7799987793
53.5240020752 193.7221984863 139.1900024414
13.6667671204 188.5620117188 209.3946075439
7.2036228180 196.9569854736 205.1195983887
61.4316902161 193.1273651123 164.6699981689
53.8827896118 200.6190032959 190.5462036133
20.9207172394 207.5466461182 207.4260101318
48.8539619446 191.7599945068 176.8238067627
41.7688217163 199.9040222168 200.0999908447
58.8838081360 198.2572021484 174.4512023926
29.0567665100 171.0620117188 208.2145996094
48.8772201538 189.9853515625 170.6200103760
59.9040794373 191.6428527832 162.5199890137
53.9939994812 187.0922088623 161.1100006104
47.8533859253 189.6898651123 180.1726074219
24.9986038208 169.6356201172 211.4476013184
22.0472202301 184.0353546143 202.7799987793
55.1188240051 189.5940246582 182.4899902344
31.5542984009 205.4140777588 210.4324035645
53.3289680481 200.2592620850 180.1189880371
61.0882797241 193.6733856201 129.3059997559
54.8831939697 193.8045806885 146.1079864502
58.1389350891 196.1058349609 184.4120025635
39.8174209595 204.6298675537 196.4600067139
10.0452919006 185.8469238281 207.9640045166
53.8817634583 190.5668029785 163.1410064697
51.0734710693 200.2230529785 196.0460052490
61.2438087463 198.1972045898 174.9911956787
27.0440025330 205.8022003174 203.7100067139
49.9808654785 200.2329711914 152.5399932861
45.9655876160 185.0559082031 171.2590026855
47.8999938965 191.1252288818 172.5074005127
53.1636505127 192.6278228760 148.8339996338
38.6259536743 201.8588104248 192.4268035889
53.4036254883 196.2769775391 143.3096008301
14.4336223602 205.1069793701 198.1595916748
26.5727233887 168.9001007080 212.8289947510
19.3516654968 207.2693481445 211.7504119873
37.0799942017 167.3552246094 207.6174011230
38.4098052979 158.1767425537 204.8499908447
19.0616893768 185.2273712158 204.8999938965
47.4059562683 184.3888092041 171.6968078613
45.1136474609 204.7878265381 193.6139984131
60.2772216797 196.7653503418 126.8399963379
8.9682836533 185.6333770752 205.6959991455
44.4297904968 157.6057128906 219.1118011475
11.6097545624 195.0200042725 200.5700073242
49.5759544373 196.3388061523 188.0568084717
54.7174186707 198.1198577881 181.6600036621
38.0547828674 203.1953277588 195.7709960938
26.1174221039 206.5398559570 206.6900024414
22.7031955719 179.0745849609 205.9379882812
36.9152908325 202.0069274902 200.8639984131
49.6936492920 201.7278289795 189.1940002441
12.9286165237 203.5917663574 200.8759918213
62.9083900452 195.2579650879 128.9660034180
52.2579116821 188.0376129150 186.8069915771
18.0946655273 203.3823547363 214.2700042725
48.2167701721 196.8220062256 186.2246093750
50.7146644592 198.1123504639 192.4600067139
14.8067064285 187.4697265625 203.1499938965
17.5682563782 205.2973022461 214.8710021973
53.6982574463 189.5272979736 165.1710052490
6.5582561493 188.1172943115 207.7410125732
17.2559566498 203.3388061523 210.1468048096
55.6018714905 196.8275299072 194.0820007324
30.7886047363 208.9356231689 206.8775939941
55.8714027405 197.9799957275 133.0088043213
50.1016883850 201.5273742676 195.1000061035
56.1963005066 189.0587005615 138.4649963379
12.7840023041 185.8222045898 205.8399963379
26.9849872589 173.2869262695 212.4153900146
53.9702911377 195.5798339844 160.8950042725
54.8882827759 197.1533813477 193.2359924316
51.8507194519 191.7766571045 179.7560119629
53.5940017700 195.6422119141 192.6999969482
58.6667060852 198.3197326660 131.5800018311
41.5916633606 165.6793518066 205.9204101562
29.1006908417 168.9310302734 211.0502014160
43.3883895874 161.0079650879 209.4859924316
54.7808685303 200.9729766846 155.4700012207
26.3265914917 173.4816894531 211.1657867432
59.6440811157 199.6828460693 174.2399902344
17.9859561920 175.2088012695 205.4468078613
29.4797534943 210.3000030518 201.0500030518
43.0789489746 162.3981781006 219.0169982910
32.3272209167 206.6753540039 202.6600036621
59.9438056946 193.8972015381 167.2012023926
15.2231950760 190.9645843506 204.6380004883
54.4534721375 196.9230499268 184.3659973145
11.1908664703 184.7329711914 205.9199981689
11.8459558487 183.3088073730 204.2068023682
13.1697893143 186.0857086182 210.1618041992
28.1991271973 204.6858673096 206.1640014648
52.7388229370 184.8940277100 184.8999938965
60.1202926636 198.1598358154 126.8349990845
53.3688240051 198.2340240479 191.6299896240
50.8297538757 201.1999969482 151.3899993896
59.9279136658 198.7876129150 174.7169952393
50.0440025330 183.7922058105 166.9700012207
50.6282806396 198.1833801270 189.9759979248
11.6652917862 193.5169219971 208.6040039062
51.4792098999 162.2775878906 224.8582000732
38.1474189758 157.1498565674 212.5899963379
31.8988227844 201.6840209961 212.8000030518
17.6839637756 179.1399993896 205.1338043213
55.7572212219 203.8853607178 135.4800109863
48.2146644592 184.2123565674 172.4900054932
41.5439643860 163.3000030518 213.7238006592
18.1016883850 185.9073638916 206.6800079346
54.9649887085 196.6469268799 152.2753906250
55.2139625549 198.3899993896 192.6437988281
52.6508674622 199.4429779053 156.1299896240
17.6146659851 203.3323516846 205.5599975586
56.4172210693 198.9153594971 157.1500091553
49.9567680359 208.5720062256 195.2646026611
54.7763023376 161.0287017822 214.5249938965
22.7736225128 167.3669738770 211.2495880127
47.7146644592 185.2823486328 175.1999969482
18.9727230072 208.4001007080 211.4489898682
41.7689704895 165.7592620850 204.2189941406
18.2040786743 204.1428527832 199.5399932861
46.0420646667 158.3003997803 217.8769989014
26.9119281769 204.9089813232 212.2880096436
50.3674201965 194.1398620605 141.3500061035
57.7482566833 198.9472961426 174.3110046387
39.8279113770 164.0876159668 220.4869995117
18.4439640045 184.0599975586 199.9938049316
8.2408666611 196.8529663086 204.8199920654
18.0997524261 207.5899963379 207.7799987793
43.0618705750 199.9275207520 194.1519927979
22.6265926361 178.3816986084 207.4357910156
21.6682834625 170.7433776855 203.3659973145
51.9174194336 164.5798645020 223.4000091553
56.1289710999 189.4992675781 160.1689910889
31.9689712524 211.3292694092 201.4889984131
12.6382560730 203.0773010254 202.0210113525
49.1097908020 192.7057037354 188.3518066406
40.8679122925 202.1976165771 204.4169921875
63.1516876221 195.9573669434 131.0700073242
51.6734733582 197.8230590820 195.9860076904
21.7540779114 206.9228515625 209.8499908447
55.3740005493 189.3922119141 147.2500000000
52.8108673096 198.7829742432 162.4700012207
56.2020645142 189.5503997803 169.9069976807
49.9167671204 196.0420074463 144.2846069336
55.9840774536 197.3128509521 139.5499877930
54.1208686829 194.5629730225 161.7399902344
53.5263023376 185.9887084961 141.5850067139
42.3416633606 204.8893585205 199.1404113770
54.1697540283 197.0599975586 152.7600097656
47.0747833252 159.1053161621 217.1110076904
60.2288208008 193.4240264893 132.1100006104
30.7886047363 208.9356231689 206.8775939941
55.6482810974 198.3033752441 150.7359924316
49.3746643066 196.6823425293 181.7400054932
59.2099952698 195.9152374268 139.3073883057
55.5672225952 191.2553558350 136.5599975586
55.7755851746 192.9259033203 155.5890045166
54.9063034058 186.7687072754 160.5749969482
53.2752914429 192.7769317627 155.0039978027
9.3625812531 186.8600006104 200.5680084229
39.8451423645 163.2500000000 202.1330108643
62.6816902161 194.2373657227 172.3699951172
44.0308685303 163.6529693604 220.7899932861
46.5807342529 199.9799957275 191.2425994873
52.0052909851 197.5069274902 183.3840026855
52.7189712524 196.7592620850 157.1490020752
25.9908676147 169.2929687500 211.8399963379
55.5240783691 185.1628417969 175.7999877930
18.9142971039 203.1040649414 197.4723968506
55.8767051697 198.3497314453 182.5000000000
37.0814018250 162.6300048828 204.7388000488
15.5782833099 201.4333801270 197.7059936523
49.5286026001 198.2656250000 161.5375976562
20.7527866364 200.5189971924 207.3061981201
50.8286018372 192.5956115723 146.8475952148
43.0731964111 200.4545898438 197.1979980469
24.2767658234 205.3720092773 205.0746002197
54.3994026184 201.3525390625 153.3240051270
25.1736469269 168.6778259277 207.7039947510
27.9855842590 201.9659118652 212.1990051270
44.5139999390 200.9222106934 193.9600067139
51.2308654785 192.9329681396 148.3199920654
35.4989356995 164.5558319092 213.4120025635
56.8467063904 195.8797302246 143.1799926758
17.6514015198 180.6300048828 199.3388061523
26.7586154938 209.2417755127 203.7559967041
41.3736495972 161.5078277588 210.2139892578
31.8988227844 201.6840209961 212.8000030518
27.0340023041 172.1522064209 207.4700012207
56.6352920532 187.2969207764 163.7340087891
28.7340774536 167.4128417969 211.8600006104
55.8582801819 192.6333770752 159.2859954834
9.0816650391 197.3293609619 206.4804077148
51.7388229370 193.5440216064 157.5399932861
54.1672210693 188.8453521729 140.7300109863
44.7997550964 185.5200042725 166.8600006104
47.7782554626 207.2472991943 196.1710052490
53.5708656311 159.9929656982 219.3600006104
41.0367050171 165.2597351074 203.6699981689
56.2516899109 195.4973754883 147.6800079346
54.1959533691 192.7288055420 171.5668029785
19.8152904510 202.5969238281 213.3440093994
54.0451431274 162.7799987793 213.7129974365
48.4208679199 200.3729705811 187.4499969482
60.1540794373 190.0928497314 178.3799896240
41.7989692688 164.2292633057 202.5390014648
40.5374183655 204.9698638916 190.2200012207
60.8288230896 198.9040222168 126.6800003052
51.3188209534 185.4340209961 169.0000000000
55.6972198486 199.5753479004 133.9000091553
49.3397903442 183.0457153320 177.6118011475
26.4838066101 167.7371978760 215.4411926270
60.7116889954 191.1673736572 161.1199951172
33.3367080688 206.0697326660 201.8000030518
49.7321319580 203.1769409180 194.3432006836
30.8740768433 205.5828552246 210.4099884033
50.8847808838 192.9353179932 143.9010009766
23.5808677673 169.5629730225 210.0500030518
28.2883872986 207.2279663086 207.6459960938
53.8699951172 187.6952362061 168.9774017334
44.0097541809 202.1300048828 193.4000091553
56.6047821045 191.4353179932 165.8610076904
61.8688240051 193.4040222168 173.2099914551
55.8767051697 198.3497314453 182.5000000000
52.0839996338 195.9122009277 193.5500030518
39.1816635132 164.1393585205 210.3404083252
50.2838058472 189.3571929932 186.6611938477
15.8638153076 191.2484741211 203.0513916016
31.9036235809 166.7169799805 206.7595977783
52.1246643066 200.9223480225 137.7500000000
55.2986030579 195.3056182861 165.8276062012
58.8542976379 195.7540740967 181.5023956299
41.5674209595 162.7298583984 217.1699981689
30.2764682770 165.8312377930 209.9800109863
49.5859565735 192.6388092041 151.5468139648
49.7107162476 191.7066497803 173.6959991455
55.1238059998 192.3171997070 148.9011993408
32.7116889954 202.5173645020 211.9600067139
14.4739637375 204.3999938965 196.5738067627
60.0289497375 188.4681854248 175.6969909668
32.3797569275 204.7799987793 200.1200103760
27.1025810242 207.4400024414 202.3280029297
46.1263008118 184.1486968994 167.4349975586
46.1067695618 162.2120056152 217.4946136475
59.6082801819 193.4833831787 129.7460021973
38.4316902161 205.6173706055 201.8099975586
27.2116889954 171.9973754883 207.8899993896
58.1421356201 194.8469390869 158.8432006836
24.0486030579 167.9156188965 214.9875946045
50.2874183655 196.0198669434 182.4799957275
20.9899921417 201.1252288818 204.2373962402
50.7787475586 192.0859985352 181.2086029053
26.5207176208 174.7166442871 210.4260101318
11.0802917480 185.8598327637 207.1849975586
23.4363021851 162.9987030029 209.9550018311
52.2602920532 185.9098358154 144.1049957275
40.2274208069 155.3598632812 208.2900085449
25.9016895294 175.4573669434 209.1300048828
34.6716880798 208.0373687744 205.5800018311
38.6259536743 201.8588104248 192.4268035889
53.4289474487 187.3481750488 184.7769927979
55.8146667480 196.1923522949 128.3600006104
37.8019294739 158.7689819336 221.1580047607
57.0967063904 199.2497406006 156.5699920654
57.8792114258 194.9475860596 185.7581939697
58.6802902222 188.3498382568 162.4149932861
15.6483869553 188.2679595947 206.1959991455
55.0016632080 192.9993591309 148.7004089355
52.8197555542 188.1699981689 140.4500122070
56.1927223206 204.8101043701 137.7789916992
53.6467056274 202.9597320557 138.0299987793
53.5940017700 195.6422119141 192.6999969482
36.3786048889 163.7656250000 210.5576019287
60.5438156128 195.3384704590 156.7213897705
34.5659561157 161.7088012695 208.7667999268
11.9640016556 193.5522003174 208.4199981689
39.5740776062 202.0428466797 200.7799987793
61.2989501953 199.3681793213 125.6169967651
56.4038085938 202.1571960449 139.7312011719
28.4834728241 206.2330474854 214.1360015869
63.1516876221 195.9573669434 131.0700073242
20.4340038300 177.7722015381 200.8800048828
41.4474182129 204.8298645020 196.0599975586
59.6916656494 198.6593627930 132.4004058838
14.0516643524 189.9893493652 207.5004119873
55.1088218689 191.7940216064 184.5500030518
50.1974182129 191.8498535156 180.6100006104
53.6008682251 196.6729736328 143.0500030518
26.1174221039 206.5398559570 206.6900024414
26.3197536469 205.4799957275 205.8500061035
60.6240806580 193.6028442383 166.0699920654
52.7286033630 192.1156158447 176.5975952148
50.8047828674 182.4153289795 176.4609985352
55.8840789795 194.8228454590 172.9799957275
46.8127899170 158.9490051270 220.6461944580
47.0514030457 205.9799957275 192.3887939453
50.6999931335 192.6852264404 177.2073974609
35.7866821289 204.0599975586 196.7819976807
50.2838058472 189.3571929932 186.6611938477
54.5232772827 198.3881072998 192.6540069580
50.8014030457 184.2899932861 174.5088043213
30.5382823944 201.6833801270 203.8159942627
50.7267684937 203.9520111084 188.4046020508
20.2899932861 184.9852294922 200.3773956299
17.8282566071 203.5473022461 213.5510101318
36.5449867249 168.1969146729 209.5354003906
8.2908658981 188.1329650879 208.8699951172
43.7772216797 160.5053558350 211.9400024414
34.5659561157 161.7088012695 208.7667999268
31.9308662415 166.5529785156 212.5500030518
56.3792114258 202.2575836182 194.0581970215
40.7589340210 160.4358215332 223.0619964600
48.4339637756 187.5899963379 141.7138061523
54.9572219849 191.9053497314 179.1300048828
25.5314025879 169.0800018311 207.8188018799
31.1614036560 165.6000061035 206.3388061523
54.2063026428 188.7187042236 137.4149932861
23.0546646118 166.3323516846 208.7100067139
49.1847839355 193.7153167725 185.8410034180
43.1172218323 162.3453521729 216.6100006104
52.1546669006 197.6723480225 153.3800048828
51.2088241577 204.6540222168 199.2700042725
52.1797561646 194.9400024414 140.2200012207
60.8927879333 195.1589965820 135.9861907959
54.1697540283 197.0599975586 152.7600097656
51.5907173157 191.6566467285 177.8960113525
27.2416896820 174.6773681641 207.0000000000
11.1167068481 190.8797302246 205.6199951172
58.9297561646 196.0899963379 126.5599975586
17.5146656036 203.5023498535 207.3000030518
48.1355857849 186.2159118652 186.0989990234
56.7774200439 197.0098571777 180.8800048828
53.1608657837 188.6429748535 162.7899932861
58.2482566833 200.2373046875 129.3410034180
50.0046653748 192.3323516846 141.9100036621
14.7226448059 196.6668090820 204.9830017090
21.2908668518 167.0229644775 215.3799896240
56.7774200439 197.0098571777 180.8800048828
19.6791267395 176.1858673096 207.2340087891
38.5859565735 200.7888031006 193.3568115234
55.5167045593 196.6597290039 144.9900054932
54.3191261292 193.1658630371 172.2239990234
51.5752906799 184.8969268799 186.2340087891
53.5540008545 195.4522094727 194.4600067139
6.3640017509 186.4222106934 202.8500061035
51.7497558594 198.6799926758 179.4800109863
58.4699935913 192.3552246094 170.5973968506
55.6972198486 199.5753479004 133.9000091553
31.7140769958 166.4428558350 212.3499908447
13.8463029861 200.8287048340 199.5850067139
50.3959541321 191.4888000488 151.1567993164
53.3720664978 196.1580505371 136.0820007324
42.6225814819 156.8999938965 208.4880065918
47.9617614746 208.2868041992 194.1410064697
53.9772224426 197.5453491211 185.8000030518
43.9508666992 204.7929687500 196.7399902344
36.9163017273 161.0587005615 218.0550079346
8.4227247238 189.4900970459 206.9290008545
37.0867691040 206.3020172119 196.1546020508
50.2286148071 201.9717712402 151.6459960938
58.5631942749 198.5745849609 154.2179870605
48.7397880554 159.3957061768 224.0718078613
57.9682807922 192.2033843994 168.6860046387
11.6532764435 188.0081024170 201.0440063477
48.9625816345 186.0800018311 165.5079956055
52.0897560120 192.5099945068 143.0800018311
62.6816902161 194.2373657227 172.3699951172
13.7438068390 190.4571990967 207.4011993408
60.5438156128 195.3384704590 156.7213897705
23.0442981720 205.0640716553 205.5023956299
55.1497535706 195.2400054932 134.6800079346
29.5967655182 205.5720062256 199.7746124268
55.8714027405 197.9799957275 133.0088043213
58.8272209167 194.1653594971 180.6200103760
12.9807338715 198.2700042725 202.0626068115
54.4097557068 203.2100067139 135.2000122070
26.1419277191 206.1689910889 204.7080078125
14.9508666992 200.6029663086 206.2200012207
57.1352920532 193.4569244385 185.8840026855
51.5697555542 185.9700012207 182.9400024414
60.0942993164 196.5740661621 168.2424011230
10.4534730911 196.0130462646 209.9259948730
56.3116874695 189.3073730469 173.0500030518
53.6659545898 188.5288085938 164.9868011475
18.4014015198 202.5500030518 208.8688049316
11.7146644592 186.2823486328 206.6799926758
59.0888214111 189.7840270996 178.8799896240
15.9732770920 186.4380950928 201.6239929199
50.9497566223 191.9199981689 149.4500122070
52.3852920532 186.9069213867 178.1840057373
30.1632766724 207.3280944824 210.3840026855
49.9167671204 196.0420074463 144.2846069336
49.3767051697 203.4497375488 193.4799957275
38.2034721375 160.6230468750 222.5859985352
30.4367065430 211.5897369385 202.7299957275
51.5907173157 191.6566467285 177.8960113525
37.3614006042 162.8000030518 217.2888031006
15.8638153076 191.2484741211 203.0513916016
16.4908676147 181.7129669189 209.0599975586
53.5516891479 185.7273712158 184.0599975586
16.5174217224 203.3898620605 201.6999969482
56.8647804260 198.8953247070 150.9309997559
32.9321365356 203.2469329834 204.7231903076
31.1955852509 166.9859161377 212.0189971924
45.8947830200 156.9753265381 217.9609985352
59.4616661072 197.5693511963 170.5104064941
58.5772209167 197.5953521729 152.6500091553
36.1983909607 206.2679595947 200.0959930420
38.3967056274 164.5197296143 206.2899932861
54.9888229370 160.9040222168 222.5099945068
39.3567047119 203.0997314453 199.9400024414
54.2472190857 197.0353546143 145.9600067139
46.4739646912 198.5399932861 191.1238098145
33.3442993164 166.6940765381 206.7924041748
29.1967067719 208.4397277832 210.3499908447
53.3289680481 200.2592620850 180.1189880371
59.9040794373 191.6428527832 162.5199890137
34.8339614868 202.0899963379 201.1138000488
49.4346656799 193.0823516846 150.8199920654
52.0139999390 160.1022033691 221.5800018311
13.2667064667 196.5497283936 208.0500030518
58.8838081360 198.2572021484 174.4512023926
13.8907175064 192.9566497803 205.3660125732
23.3040771484 205.4328460693 209.9199981689
39.7374191284 165.7998657227 206.2200012207
45.1746635437 200.2423553467 196.4499969482
17.1767063141 204.0597381592 204.6100006104
47.4259567261 186.7488098145 176.1368103027
54.1797561646 163.7599945068 214.0800018311
51.2967681885 191.9620056152 136.7946014404
5.8859558105 186.1488037109 205.2468109131
36.7340011597 162.1822052002 217.5700073242
45.9746665955 184.7723541260 171.8600006104
50.9446640015 160.5623474121 222.4199981689
46.7734718323 205.4430541992 198.1860046387
53.1902923584 181.6698303223 176.9649963379
45.3127899170 201.1690063477 199.6661987305
20.8640022278 203.4421997070 204.5599975586
52.1286048889 199.2556152344 196.0276031494
43.4440002441 157.8022003174 216.6300048828
28.4388217926 165.0240325928 209.9400024414
50.2408676147 193.4229736328 142.7500000000
37.8019294739 158.7689819336 221.1580047607
33.4738082886 167.0171966553 211.4812011719
25.9382839203 171.2433776855 207.3260040283
60.1346664429 193.7323455811 172.6499938965
22.6265926361 178.3816986084 207.4357910156
49.2797546387 189.4600067139 170.0100097656
17.2108669281 182.6929779053 201.3600006104
53.0802917480 188.1298370361 147.0350036621
53.9016647339 202.3993530273 184.0604095459
27.5286159515 207.9817657471 211.3359985352
50.0046653748 193.8723449707 156.9799957275
11.6282835007 191.4633789062 202.1159973145
32.3840789795 210.8428497314 203.8399963379
42.0989494324 203.9481811523 192.2669982910
45.9916877747 157.0773773193 210.2500000000
42.6889495850 164.4281768799 205.4369964600
48.7840003967 184.8222045898 174.3600006104
48.2167701721 196.8220062256 186.2246093750
52.1246643066 200.9223480225 137.7500000000
50.3336257935 197.1869812012 184.2395935059
26.3740768433 205.1528472900 210.9700012207
11.1308660507 195.1029663086 210.0999908447
30.0151424408 210.3500061035 201.0830078125
40.2736244202 204.7869873047 196.2895965576
7.8367061615 197.0397338867 207.9100036621
49.6936492920 201.7278289795 189.1940002441
29.1582565308 161.3473052979 212.7410125732
52.5992126465 193.3975830078 187.9682006836
45.6033859253 190.6698608398 175.1926116943
56.1442985535 164.4640655518 216.3023986816
42.0616874695 163.7273712158 203.1100006104
36.0274200439 164.4498596191 217.8500061035
11.8297891617 184.4557037354 208.7518005371
46.5846633911 163.2423553467 215.6100006104
49.5208663940 196.4529724121 151.4499969482
49.6814002991 186.6399993896 183.0588073730
18.2459564209 177.8388061523 202.8168029785
32.3272209167 206.6753540039 202.6600036621
33.8640785217 208.5128479004 206.9799957275
49.2020645142 197.2380523682 185.9020080566
50.6808662415 198.4129791260 189.7500000000
53.1636505127 192.6278228760 148.8339996338
13.2459554672 201.2888031006 200.0268096924
12.3336477280 198.2878265381 202.6339874268
32.3797569275 204.7799987793 200.1200103760
38.2034721375 160.6230468750 222.5859985352
24.0814018250 168.5899963379 207.7187957764
48.1846656799 199.2823486328 186.6100006104
51.9174194336 164.5798645020 223.4000091553
55.2816658020 196.6493530273 144.6704101562
40.7072219849 165.9553527832 204.1699981689
49.2888221741 200.6940307617 195.9400024414
39.9327888489 204.7089996338 200.7162017822
29.4646644592 201.8223571777 205.3099975586
41.8391265869 202.9958648682 200.3840026855
32.6567077637 206.1597290039 206.1600036621
17.4672203064 186.8253479004 205.8400115967
27.1136226654 207.8869781494 209.0495910645
58.3422012329 194.5098724365 131.9599914551
38.1872215271 205.9153594971 199.1699981689
39.9327888489 204.7089996338 200.7162017822
26.1091270447 206.7958679199 210.1940002441
36.6872215271 163.5053558350 205.4600067139
24.2314014435 174.2799987793 205.6988067627
41.2027244568 166.6501007080 206.2489929199
17.5672206879 203.4453582764 203.2100067139
55.4467048645 164.5297393799 223.2700042725
40.3640022278 158.3122100830 215.8899993896
15.3097543716 198.7700042725 201.0299987793
57.7242965698 198.7840728760 153.5223999023
59.6388244629 197.9640197754 125.8099975586
14.0446643829 201.2923431396 204.1499938965
53.5616645813 166.1093597412 221.3404083252
54.0872192383 189.7253570557 179.0400085449
51.2140808105 205.9628448486 199.8300018311
48.4939651489 195.3699951172 185.0738067627
48.3352928162 183.8569335938 168.8840026855
49.6814002991 186.6399993896 183.0588073730
30.0597534180 205.5099945068 200.9700012207
33.5540809631 205.0128479004 202.6399993896
52.8586158752 202.9417724609 136.7859954834
18.2720623016 176.7480468750 203.2420043945
57.5908660889 191.2029724121 179.1599884033
58.1072196960 188.4353485107 173.2900085449
32.0492134094 169.2775878906 208.5981903076
55.0452919006 191.5069274902 142.3040008545
63.5516891479 195.6873626709 171.8500061035
52.8849868774 192.2769165039 137.9453887939
55.8698043823 194.2867431641 181.5099945068
47.8559532166 196.5688018799 159.5268096924
62.0740013123 194.7221984863 171.2900085449
59.2716903687 196.8273773193 136.5700073242
52.2419319153 199.8689880371 137.7380065918
27.2416896820 174.6773681641 207.0000000000
55.2116661072 200.9693603516 155.9504089355
58.8838081360 198.2572021484 174.4512023926
29.6351432800 160.8500061035 209.4930114746
60.0792160034 194.6575927734 140.4581909180
