192.9738006592 178.3672027588 179.3211975098
231.5692138672 161.9775848389 153.3282012939
209.5974273682 168.5198669434 182.8500061035
187.5746612549 172.1923522949 174.7500000000
230.3872222900 171.5653533936 143.0700073242
161.0008697510 192.6629791260 182.2299957275
179.9043121338 188.9640655518 199.1923980713
186.5240020752 179.8922119141 173.7100067139
160.5617675781 184.8368072510 189.7410125732
226.8434753418 161.5230560303 166.3959960938
164.9216918945 187.7573699951 187.8300018311
217.5052947998 163.9769287109 184.3139953613
185.9813995361 179.1100006104 176.6287994385
209.3067169189 190.7997283936 212.8699951172
235.1414031982 166.9199981689 145.1488037109
181.3897552490 183.0000000000 173.4800109863
218.7392120361 164.4775848389 176.4781951904
163.6446685791 184.2223510742 193.6600036621
219.0816955566 158.9573669434 180.9700012207
210.8736267090 175.8369750977 202.0195922852
225.2939605713 165.6000061035 158.6838073730
235.0966796875 165.6900024414 146.2120056152
225.9039916992 156.7022094727 160.4400024414
217.7443084717 178.5040740967 203.1623992920
172.3052825928 184.8569335938 205.0740051270
166.7892150879 180.3075866699 189.0281982422
228.1242980957 168.1240692139 143.7624053955
213.7072296143 159.6053466797 177.7200012207
219.3738250732 163.0784759521 176.7413940430
211.6655731201 169.0059051514 192.4889984131
195.6467132568 191.0997314453 207.4599914551
165.3455810547 191.2759094238 187.7389984131
173.2821960449 187.1798706055 175.6299896240
215.4043121338 174.3140716553 199.7823944092
184.2008666992 186.1429748535 172.3799896240
212.3597564697 158.9299926758 177.4400024414
157.2997589111 191.4700012207 186.0700073242
213.4638061523 184.6271972656 216.1412048340
185.4867095947 187.0897369385 171.8199920654
217.0198059082 157.6867523193 179.1300048828
227.3051452637 162.6100006104 139.1730041504
170.6437988281 188.4571990967 205.2111968994
172.0867156982 193.6197357178 180.8800048828
210.5146636963 173.5223541260 196.0200042725
226.6291351318 171.5358581543 148.1139984131
187.8586120605 190.4756164551 211.2875976562
233.1355743408 167.2959136963 148.1990051270
211.6588287354 180.7540283203 211.0500030518
180.0674285889 185.4198608398 208.0500030518
204.7874298096 189.7898559570 211.3399963379
226.9667663574 167.5420074463 148.2046051025
218.9016876221 159.1473693848 179.1999969482
233.0518646240 172.3275299072 145.3519897461
227.2274169922 171.1598663330 143.8500061035
220.3616943359 178.7873687744 211.7700042725
230.4182739258 167.2233734131 150.0760040283
228.6872253418 167.8653564453 154.0299987793
223.9891357422 164.5758666992 152.2640075684
224.8636474609 167.1178283691 154.8539886475
216.5452880859 158.8269348145 169.4540100098
216.8238067627 167.2572021484 187.6511993408
230.2616882324 161.6573638916 164.3500061035
226.9759674072 169.3787994385 144.9868011475
173.5639953613 186.5821990967 177.5899963379
215.5916595459 166.3193511963 179.9703979492
230.6667175293 167.0597381592 157.5299987793
166.5964660645 181.7012481689 198.9000091553
165.8839569092 188.7200012207 182.7738037109
213.4564666748 170.8412475586 199.9900054932
218.3040008545 171.3222045898 190.1600036621
207.1882629395 173.7472991943 203.8010101318
209.5188293457 188.4340209961 213.1499938965
174.3459625244 181.7388000488 178.5968017578
165.3527832031 193.0690002441 188.5061950684
216.2088165283 164.3340301514 184.3199920654
197.4119262695 186.3389892578 204.1980133057
209.4121398926 188.1269378662 212.8831939697
235.5208740234 165.2229766846 150.5800018311
180.1821441650 183.5169372559 180.0331878662
178.7688293457 182.8140258789 202.5699920654
182.8782653809 184.3672943115 172.6510009766
193.3591308594 177.7858581543 179.1640014648
207.3717651367 174.7868041992 201.7710113525
183.8402862549 180.5598297119 209.6750030518
180.8989562988 184.3581848145 180.7169952393
187.9672241211 184.2653503418 177.0800018311
159.2089385986 190.9158325195 189.0919952393
176.9246673584 184.2023468018 175.9100036621
166.2572326660 192.8453521729 179.5200042725
209.3355865479 183.0459136963 207.9689941406
213.3746643066 157.6423492432 171.0299987793
214.2016601562 167.7293548584 174.4804077148
228.7321319580 161.7769317627 150.6031951904
199.3132781982 193.1981048584 206.9640045166
219.4152832031 177.1669311523 209.8939971924
208.3288269043 184.6440277100 215.4899902344
218.3582611084 180.8872985840 211.9710083008
172.1013946533 189.8300018311 176.4488067627
228.3916931152 162.6273651123 155.1300048828
167.5351409912 194.9299926758 178.6029968262
230.6999969482 163.2352294922 152.1773986816
193.1097564697 194.3999938965 207.3500061035
180.3059692383 181.7488098145 208.2168121338
211.8320617676 171.2280426025 196.4920043945
213.1867675781 184.6720123291 206.6746063232
170.6437988281 188.4571990967 205.2111968994
213.3586120605 160.7656250000 168.7075958252
159.7308654785 190.5729675293 189.0000000000
216.7627868652 160.3990020752 172.6661987305
212.1913909912 160.6900024414 177.7187957764
166.1316833496 186.6273651123 190.1100006104
181.9382781982 181.9733734131 174.1660003662
214.8967132568 159.6797332764 171.3099975586
172.4618682861 193.1875305176 180.7220001221
163.3562927246 181.0787048340 197.8249969482
227.1446685791 168.5623474121 147.8199920654
191.1197509766 174.2100067139 171.7900085449
227.0716552734 166.4893493652 151.1103973389
172.4092102051 190.4375915527 203.5981903076
218.1664733887 163.2112426758 184.1100006104
182.4717559814 183.8968048096 172.4210052490
209.9946594238 165.4523468018 175.9299926758
212.9208679199 160.4329681396 168.4799957275
232.5616912842 168.9773712158 156.1300048828
178.7902832031 182.9998321533 202.1750030518
188.0718688965 185.0575256348 207.6719970703
220.3616943359 178.7873687744 211.7700042725
161.6136169434 198.4969787598 180.3195953369
172.4400024414 186.7508544922 200.1100006104
220.2755737305 163.6759033203 183.0189971924
219.1366729736 161.7200012207 162.7220001221
185.6949920654 192.3169250488 209.9153900146
204.6359558105 183.9488067627 209.5268096924
217.8492584229 164.0091857910 164.8242034912
172.3040771484 186.2128448486 206.0299987793
199.4233093262 188.5626831055 210.0480041504
209.8886260986 166.2217712402 173.7859954834
224.8013916016 160.9299926758 158.1488037109
160.7874298096 185.3298645020 190.1600036621
234.0627746582 171.3190002441 148.2061920166
169.4167633057 192.2220153809 203.2145996094
178.7740783691 186.2928466797 207.1100006104
217.8492584229 164.0091857910 164.8242034912
222.1486206055 163.8917694092 148.6259918213
210.9686126709 174.6956176758 208.4076080322
173.7946624756 183.7023468018 178.5200042725
212.0402832031 170.0998382568 205.1750030518
215.3767089844 187.1397399902 215.5699920654
236.2339935303 164.3222045898 144.8600006104
181.4946594238 180.4723510742 209.0800018311
213.2692565918 180.6291961670 204.8842010498
216.8416595459 166.0593566895 180.8504028320
175.5340728760 184.6828460693 179.6399993896
169.2536315918 192.0869750977 201.9496002197
218.1488189697 174.5940246582 206.2399902344
217.9234008789 164.3598632812 166.7926025391
185.8772277832 186.4753570557 170.4199981689
178.4592132568 182.3375854492 181.6282043457
211.6667175293 175.0097351074 200.0099945068
209.6451416016 166.8300018311 182.2129974365
230.3572235107 165.8853607178 142.6699981689
168.4172210693 184.8353576660 196.9900054932
209.3247833252 176.1453247070 192.0010070801
224.7946624756 173.6323547363 145.8099975586
178.7688293457 182.8140258789 202.5699920654
170.7964782715 183.2612457275 203.1200103760
206.3540039062 183.1222076416 207.9100036621
231.7540740967 169.4528503418 157.5299987793
210.5859680176 172.9288024902 207.0468139648
192.4672241211 174.8853607178 172.0700073242
210.8508605957 167.7129669189 175.6799926758
210.7482757568 182.0033874512 208.8959960938
212.9221954346 168.8998718262 189.4199981689
240.6632843018 166.4181060791 146.8840026855
211.3925781250 163.7700042725 172.6080017090
173.8218688965 188.1675262451 198.6819915771
234.2508697510 167.7129669189 147.8499908447
231.0788269043 163.2240295410 158.4700012207
198.0446624756 184.7623443604 204.1999969482
228.7782592773 169.9073028564 154.0310058594
230.4567108154 166.2497406006 161.3300018311
208.2867126465 187.0597381592 211.2899932861
172.8213958740 191.2700042725 172.2187957764
230.9772338867 174.5753479004 142.0500030518
220.6402893066 153.6598358154 168.2250061035
231.1527252197 167.1600952148 158.5389862061
234.3620605469 164.7180480957 148.0320129395
228.6886291504 172.5317687988 152.2959899902
191.6018676758 179.5675201416 179.6119995117
223.1399993896 155.2608489990 166.1500091553
215.6643066406 171.5340728760 188.4624023438
226.9763031006 161.1087036133 156.9850006104
211.5320587158 169.4980468750 190.5120086670
239.9994049072 167.4625396729 149.2640075684
224.5059661865 157.7088012695 161.4768066406
211.7238006592 170.7971954346 206.2812042236
210.6884613037 185.9062805176 206.5397949219
226.4643096924 165.4440765381 139.6524047852
180.8936309814 184.6769866943 207.3096008301
181.9382781982 181.9733734131 174.1660003662
213.4647827148 166.5853271484 181.2109985352
216.0555725098 156.6559143066 179.5489959717
223.8157653809 157.1859130859 149.9230041504
175.6089630127 193.1192626953 172.0989990234
201.8416595459 191.1093597412 208.2504119873
208.8540039062 188.3022003174 211.7500000000
227.8372344971 166.1453552246 152.7799987793
229.5004730225 165.1969451904 150.0874023438
221.9452819824 153.6469268799 166.3240051270
208.3172302246 190.4353485107 210.4400024414
215.2116851807 172.5773773193 203.3099975586
188.8940734863 191.2628479004 205.5699920654
228.0797882080 161.2857055664 153.7118072510
218.9316864014 158.4973754883 166.6699981689
161.2246551514 190.6523437500 183.4900054932
207.0086059570 171.5456237793 205.2776031494
228.1322021484 162.6798706055 155.8099975586
187.4308624268 183.1629791260 180.0899963379
165.7514038086 184.1000061035 196.4888000488
189.8239898682 176.7622070312 176.0400085449
213.5389556885 169.4581756592 203.1470031738
218.8716888428 177.4773712158 204.1800079346
171.8052825928 187.7369232178 201.1340026855
238.0438079834 167.2171936035 151.4512023926
206.3386077881 188.2156219482 215.6775970459
161.2246551514 190.6523437500 183.4900054932
213.1867675781 184.6720123291 206.6746063232
205.2846679688 183.5823516846 208.7500000000
171.6389312744 192.9258270264 182.4920043945
219.3013916016 170.1100006104 189.9288024902
164.2708740234 194.0629730225 184.0199890137
206.3682708740 183.2033843994 208.1660003662
184.6543121338 189.5040740967 206.9123992920
227.3897857666 157.5157012939 160.1018066406
216.0021972656 161.0598754883 176.7399902344
225.4291229248 163.6558685303 162.1040039062
163.2997894287 179.6157073975 189.4118041992
230.9255828857 165.0659027100 146.1889953613
172.5567169189 189.5297393799 203.1799926758
201.9767150879 190.7997283936 208.8999938965
220.7321319580 178.5169372559 208.5331878662
202.4743041992 190.1140747070 205.9824066162
211.2759552002 159.4788055420 179.9868011475
236.1388244629 160.8840332031 150.0699920654
160.8946685791 183.4723510742 198.3000030518
166.5640716553 186.0928497314 195.7500000000
231.7488250732 168.1440277100 156.9700012207
233.1447753906 169.3453216553 145.5209960938
196.7347869873 184.9053192139 208.2510070801
240.1540679932 164.2728424072 152.9799957275
158.2313995361 188.0700073242 184.1387939453
189.8316955566 189.7873687744 207.1100006104
187.1963043213 189.1486968994 203.5050048828
209.8886260986 166.2217712402 173.7859954834
219.3031921387 168.2745819092 185.7279968262
208.7738037109 188.0372009277 216.1311950684
186.1219177246 179.3689880371 180.2980041504
160.9125823975 183.8899993896 198.0879974365
168.9621429443 183.7069396973 198.3031921387
182.2140655518 183.8728485107 211.0299987793
231.5892181396 163.6775817871 148.6381988525
213.4282531738 158.0372924805 171.8209991455
166.4592132568 192.4175872803 186.5881958008
188.6439971924 171.7322082520 173.9100036621
214.0849914551 170.0069274902 182.7453918457
215.0397491455 165.4100036621 182.3600006104
238.8672332764 167.6853485107 148.8400115967
161.6136169434 198.4969787598 180.3195953369
210.3762969971 165.0787048340 183.0249938965
229.3716888428 162.6073760986 149.6199951172
221.5319213867 160.8189849854 149.5780029297
204.5034790039 188.6630554199 214.1260070801
164.0643005371 196.4340667725 179.3524017334
167.7016906738 186.0373687744 198.7700042725
225.3137969971 160.8571929932 152.5811920166
179.2449951172 192.6869201660 179.3253936768
223.0602874756 154.4098358154 166.6349945068
237.9643096924 168.9240722656 146.7124023438
161.2574310303 185.2798614502 197.7400054932
213.2189483643 171.3081817627 203.9570007324
228.0797882080 161.2857055664 153.7118072510
235.8233032227 168.8326873779 153.0180053711
217.6538085938 176.6871948242 207.8211975098
233.5738067627 170.2071990967 152.1112060547
171.7167663574 192.1920166016 173.1746063232
219.8667144775 183.8197326660 209.8499908447
200.9052886963 186.4069213867 208.9540100098
155.3617553711 190.7368011475 186.7910003662
199.1817626953 190.1468048096 203.6110076904
176.5808715820 186.3829650879 178.0599975586
216.5037994385 163.4971923828 183.2411956787
218.3040008545 171.3222045898 190.1600036621
215.5888214111 184.7740325928 215.8499908447
165.3046569824 183.2723541260 200.8600006104
198.2808685303 185.8529663086 205.0399932861
182.4714050293 188.4100036621 206.4588012695
211.9817657471 159.5968017578 166.1110076904
211.5982666016 174.1172943115 209.3610076904
180.1427307129 188.9300994873 204.3989868164
209.5240783691 189.7428436279 213.7099914551
200.5188293457 186.2040252686 206.8399963379
184.2008666992 186.1429748535 172.3799896240
229.0962982178 172.2987060547 141.9349975586
232.5616912842 168.9773712158 156.1300048828
178.3907165527 190.4466552734 204.8960113525
208.6016845703 187.3373718262 209.9799957275
217.0316619873 182.2593536377 210.1004028320
214.8967132568 159.6797332764 171.3099975586
233.8840789795 168.4228515625 153.5299987793
221.9334716797 162.6730499268 151.0059967041
213.0474243164 161.1498565674 167.0800018311
228.4340667725 162.2228546143 142.9899902344
189.3262939453 171.3986968994 172.9349975586
165.7208709717 182.8029785156 200.9599914551
228.6652832031 162.9369201660 146.9140014648
171.3139953613 186.3321990967 198.5299987793
188.3017578125 174.6867980957 173.3410034180
225.0386047363 166.9556121826 158.0876007080
170.4697570801 189.8300018311 178.4000091553
167.0440673828 184.2528533936 201.9799957275
194.5916900635 174.0773773193 174.8500061035
185.0683898926 188.8879547119 206.0059967041
224.7997589111 163.6000061035 147.4500122070
180.2192535400 188.0191955566 173.9042053223
180.5772247314 189.2253570557 177.9100036621
185.7982788086 179.7333831787 169.5959930420
239.3849945068 170.2369232178 146.3553924561
160.8551483154 183.3000030518 188.5230102539
227.2082824707 161.6733856201 139.6459960938
213.0882720947 171.0133819580 201.4059906006
191.1889495850 194.0081787109 206.8869934082
230.4627838135 162.6289978027 155.2462005615
213.2574310303 188.3298645020 214.5200042725
224.9408721924 160.5529785156 164.0199890137
186.3236236572 194.4469757080 206.0895996094
216.9979095459 172.7676086426 208.2469940186
239.6002807617 161.8698272705 152.7850036621
230.0816955566 160.3873748779 165.6000061035
236.9888153076 165.8040313721 150.9499969482
216.5647888184 173.1053161621 199.1210021973
192.8327789307 181.2489929199 178.6961975098
180.5399932861 183.3908538818 181.1199951172
230.9579162598 165.0176086426 161.7669982910
184.8667144775 187.2797393799 175.9299926758
192.7317657471 195.9568023682 208.9910125732
168.6518707275 183.8075256348 191.1119995117
217.5974273682 173.5898590088 190.4400024414
185.5446624756 192.5723571777 203.5000000000
215.3367156982 166.5297393799 179.3199920654
178.4317626953 189.7268066406 201.0910034180
224.7459564209 162.2987976074 154.6968078613
234.2492065430 168.4375915527 147.0482025146
213.0063018799 156.3087005615 165.7050018311
218.9617614746 183.4367980957 208.3310089111
182.5183868408 185.7379608154 173.0659942627
229.5439910889 169.6822052002 143.3500061035
213.7816619873 169.5193481445 183.6903991699
209.6972351074 190.1853485107 211.4700012207
223.2621307373 154.9969329834 164.9631958008
205.9882812500 184.5333862305 207.4960021973
234.2508697510 167.7129669189 147.8499908447
193.4872283936 177.5653533936 174.1399993896
231.0572357178 166.4453582764 156.1300048828
229.3616638184 176.6293487549 144.7704010010
213.1472320557 170.9953613281 202.2600097656
239.1397552490 166.2700042725 147.0600128174
177.9888153076 191.9040222168 174.6499938965
194.1546630859 187.4523468018 209.4700012207
174.9939575195 186.7299957275 200.9138031006
176.3988189697 186.8440246582 176.8000030518
171.0889434814 193.9958343506 183.1020050049
176.3183898926 188.5279541016 203.6860046387
227.7067108154 162.3997344971 165.0899963379
207.1882629395 173.7472991943 203.8010101318
211.6640014648 176.9721984863 191.5599975586
218.1689453125 172.0781707764 206.2169952393
177.2762908936 181.5787048340 176.9149932861
223.4546661377 158.3323516846 162.6000061035
219.5497589111 182.0099945068 206.6800079346
170.7964782715 183.2612457275 203.1200103760
185.5959625244 180.4188079834 175.0068054199
233.3189544678 168.5181732178 154.3869934082
224.5291290283 165.5058593750 145.9640045166
213.0474243164 161.1498565674 167.0800018311
229.0962982178 172.2987060547 141.9349975586
163.5521392822 188.9269409180 185.9031982422
227.3897857666 157.5157012939 160.1018066406
216.4546661377 154.4423522949 163.6999969482
206.9346618652 183.4223480225 210.4199981689
174.6282653809 183.2572937012 181.1009979248
184.7533111572 183.0526885986 177.0780029297
216.2088165283 164.3340301514 184.3199920654
177.0346679688 183.1423492432 202.0099945068
165.3788299561 183.8940277100 194.2200012207
181.5989532471 187.8381805420 201.4969940186
217.7207183838 166.5066528320 181.2860107422
217.1316680908 163.7893524170 168.7804107666
215.4972229004 173.0653533936 192.9199981689
209.2346649170 166.7123565674 183.4100036621
187.2874298096 182.5698547363 180.2799987793
185.3464660645 187.2712402344 211.6399993896
212.3162994385 164.4887084961 172.4949951172
184.7533111572 183.0526885986 177.0780029297
176.3183898926 188.5279541016 203.6860046387
174.1234741211 193.3730468750 177.1660003662
210.5897827148 160.2057037354 179.4618072510
180.4016571045 189.5793609619 177.6704101562
170.7964782715 183.2612457275 203.1200103760
229.2688293457 159.5540313721 166.4400024414
230.1408691406 172.5329742432 155.1499938965
166.7533874512 186.2098693848 202.2226104736
169.2916564941 195.8393554688 181.4804077148
189.8239898682 176.7622070312 176.0400085449
185.1086120605 182.0756225586 179.9676055908
164.4849853516 190.6869201660 191.0153961182
214.2146606445 176.7623443604 208.5699920654
219.1316680908 173.7693481445 193.3303985596
229.0002899170 161.0498352051 142.0149993896
218.1740722656 161.6128540039 169.3699951172
212.6191253662 164.2658691406 181.2740020752
222.2655792236 168.5159149170 192.7790069580
187.5767059326 184.8797302246 178.4799957275
220.3807067871 163.3966522217 164.9060058594
214.1282806396 171.5433807373 204.5459899902
175.3282775879 190.8633880615 172.9759979248
187.9374237061 173.9998626709 174.1900024414
195.1940002441 188.6022033691 206.3399963379
186.1186065674 193.2856140137 208.3576049805
214.9172210693 173.9953613281 190.7799987793
219.1526489258 162.6968078613 182.9629974365
210.7508697510 174.6129760742 196.8600006104
217.3667144775 173.7597351074 192.2700042725
214.8899993896 178.1452331543 191.5973968506
191.1197509766 174.2100067139 171.7900085449
181.8383941650 189.3579559326 207.1759948730
208.6508636475 184.6429748535 213.7200012207
209.9146575928 168.8923492432 202.6100006104
206.7674255371 190.8198547363 211.0000000000
215.1874237061 164.2298583984 166.0800018311
176.4362945557 191.0587005615 172.3950042725
187.0567169189 186.5997314453 172.0399932861
163.7613983154 186.2799987793 189.1287994385
199.0279235840 193.5276184082 209.8269958496
214.8688201904 171.2540283203 201.4400024414
209.0159606934 182.7488098145 210.2568054199
179.7202911377 183.1498413086 181.9349975586
218.7918701172 172.9175262451 205.2619934082
238.9716644287 165.0693511963 151.2804107666
231.5692138672 161.9775848389 153.3282012939
222.7794036865 159.2825317383 165.6740112305
213.8352813721 170.9569244385 196.1439971924
180.5227813721 186.5489959717 210.6761932373
159.9386138916 190.9156188965 188.8576049805
193.4872283936 177.5653533936 174.1399993896
162.5579223633 183.6376190186 192.1770019531
188.5033874512 175.0198669434 179.0526123047
228.1943054199 166.6940765381 140.2523956299
220.5113983154 159.3800048828 160.2788085938
217.8465881348 165.3616943359 177.5757904053
166.5747833252 187.0653228760 183.5410003662
223.2049865723 164.6469268799 163.4053955078
224.0072326660 163.7653503418 148.0299987793
240.1540679932 164.2728424072 152.9799957275
229.0079193115 162.9476165771 142.8269958496
209.7321929932 182.1898651123 208.2099914551
212.2059631348 161.5787963867 181.1968078613
224.6546630859 156.5723571777 149.7299957275
162.9694061279 185.7925415039 199.7040100098
214.6689758301 160.4492645264 177.8489990234
218.7151489258 155.5700073242 161.4029998779
216.2133026123 179.5926818848 211.5679931641
210.5859680176 172.9288024902 207.0468139648
218.6338195801 161.0684661865 170.6513977051
228.6859588623 167.9687957764 151.4368133545
167.5739898682 182.9522094727 197.2700042725
210.1789398193 176.2658233643 197.4420013428
236.1951446533 162.7299957275 146.4029998779
197.2246551514 186.9523468018 204.4600067139
172.3040771484 186.2128448486 206.0299987793
230.2589721680 166.1092681885 140.1889953613
181.1399993896 184.0308532715 205.3899993896
238.7649841309 170.5869293213 143.9053955078
230.8227844238 167.6990051270 155.4061889648
218.2464752197 167.1912384033 186.8200073242
178.6067047119 189.9797363281 200.6699981689
186.4174194336 184.6498565674 177.6399993896
229.9047851562 165.7253265381 152.7209930420
219.5221405029 166.8669281006 185.0831909180
203.1555786133 187.9059143066 204.4689941406
163.6688232422 184.1440277100 192.8699951172
175.2933959961 183.1398620605 183.1626129150
225.1951446533 163.3500061035 139.0830078125
230.7827758789 167.9889984131 149.2962036133
190.7733917236 181.3998565674 178.3126068115
165.0626373291 189.7667999268 187.4329986572
180.7794036865 188.0525360107 204.9140014648
205.9882812500 184.5333862305 207.4960021973
212.7586059570 158.0456237793 170.7675933838
218.7782592773 182.3972930908 210.3610076904
166.8997497559 194.8200073242 178.7300109863
229.6604766846 163.6769409180 154.7773895264
216.5439910889 159.8922119141 173.5299987793
196.5052947998 187.4869232178 210.2539978027
171.3832855225 194.7481079102 179.2940063477
216.6067047119 183.2197265625 208.5699920654
209.9439544678 185.7100067139 205.9138031006
163.4916534424 198.8693542480 181.6804046631
209.2349853516 189.7469177246 215.4353942871
221.8189544678 154.8681793213 167.0070037842
182.4108734131 189.8329772949 209.5399932861
224.9886016846 164.9556121826 152.0175933838
212.3959655762 172.2888031006 205.9067993164
162.5249938965 199.3969268799 181.4353942871
176.7543029785 190.0140686035 174.8224029541
210.3939514160 172.8200073242 195.7037963867
236.0833892822 169.7598571777 152.1426086426
210.2551422119 166.6100006104 173.0429992676
156.1640014648 188.5522003174 185.9000091553
199.9636230469 190.7369842529 206.8896026611
212.1646575928 181.0423431396 211.1699981689
194.1546630859 187.4523468018 209.4700012207
211.8536224365 175.8469848633 199.9695892334
216.6908721924 155.5329742432 164.5399932861
228.9174194336 170.0798645020 150.1399993896
181.9008636475 180.8429718018 174.7399902344
225.8639984131 173.1722106934 144.9700012207
208.9186096191 177.9656219482 195.1876068115
224.5059661865 157.7088012695 161.4768066406
240.5627288818 166.3000946045 149.9189910889
163.6897583008 198.2500000000 180.0299987793
185.7888183594 186.3740234375 209.9499969482
188.8108673096 189.7929687500 211.5899963379
176.5955810547 185.2559051514 203.5989990234
165.3489532471 181.8181762695 200.9270019531
216.2633056641 173.6726837158 203.5780029297
212.3139953613 161.6122131348 174.5599975586
158.4740753174 191.7028503418 188.5899963379
223.8157653809 157.1859130859 149.9230041504
172.4038085938 191.1271972656 202.4311981201
181.8134765625 181.5930480957 174.6660003662
213.5086059570 164.7856140137 180.8775939941
185.0840759277 186.2228546143 176.7699890137
172.7916870117 187.2973632812 199.0899963379
238.7649841309 170.5869293213 143.9053955078
186.0199890137 182.2552337646 207.9073944092
171.8920593262 187.7780456543 176.7220001221
203.4321441650 185.7869262695 203.2231903076
224.1008605957 162.9529724121 153.3099975586
162.6059570312 180.5487976074 189.7568054199
210.6382751465 168.4633789062 203.1060028076
224.7420654297 158.6180419922 160.1820068359
214.7721405029 183.8569335938 213.8731994629
199.3572235107 191.8353576660 207.4100036621
229.9943084717 175.6340637207 142.5023956299
210.1789398193 176.2658233643 197.4420013428
166.3259582520 187.8688049316 182.3868103027
213.4046630859 160.9823455811 175.9100036621
213.5220642090 167.2380523682 190.7520141602
228.4608612061 171.9629669189 149.5399932861
160.6674194336 192.4698638916 186.5500030518
195.1940002441 188.6022033691 206.3399963379
227.6040649414 159.1728515625 165.1299896240
186.6455841064 177.1259155273 179.3489990234
220.8436431885 162.0178222656 161.3839874268
231.0788269043 163.2240295410 158.4700012207
230.3189697266 175.0292663574 141.5289916992
229.1765899658 166.7716979980 148.8358001709
181.9888153076 182.6140289307 176.8199920654
214.6689758301 160.4492645264 177.8489990234
228.6559600830 167.2588043213 153.7868041992
215.9540710449 177.7428436279 209.6899871826
238.7774200439 165.0998535156 151.3000030518
213.1189422607 166.1758270264 187.1119995117
159.4546661377 187.0823516846 188.7299957275
200.1572265625 190.8353576660 204.4000091553
209.9834747314 177.1630554199 197.2460021973
173.1546630859 188.1723480225 174.8699951172
196.1227264404 197.5401000977 209.6189880371
210.9372253418 186.4853515625 209.9900054932
218.4149932861 163.4169158936 171.9753875732
218.0208740234 155.8929748535 168.5599975586
172.1013946533 189.8300018311 176.4488067627
195.8340759277 196.8428497314 210.1799926758
179.2699890137 191.4152374268 174.9373931885
210.6608734131 175.0829772949 207.8199920654
172.6133117676 188.5026855469 182.9179992676
224.5247802734 162.1653289795 158.4309997559
182.4157562256 179.3159027100 172.2929992676
208.4146575928 183.5523529053 212.8800048828
192.5732879639 175.4481048584 172.3739929199
229.6927337646 167.0001068115 142.2189941406
229.2182769775 161.5833740234 158.6259918213
232.6446685791 166.1123504639 151.4299926758
194.7572326660 191.2153472900 207.4900054932
177.7214050293 187.8699951172 198.7388000488
185.3136291504 183.2369842529 177.6996002197
214.1282806396 171.5433807373 204.5459899902
224.7832794189 163.2380981445 147.6739959717
181.0821380615 188.4869384766 206.1631927490
186.9132995605 184.9926910400 177.2680053711
176.9540710449 187.4628448486 208.0199890137
215.5967712402 176.2120056152 199.5046081543
162.9089355469 184.2858276367 202.3719940186
181.2672271729 188.9253540039 175.6399993896
213.4682769775 163.6833801270 172.6660003662
217.6872253418 181.0753479004 205.4199981689
205.0997619629 188.2899932861 208.4400024414
170.6437988281 188.4571990967 205.2111968994
190.8988189697 176.2940216064 179.3899993896
173.2120513916 187.0204010010 180.0169982910
214.3886108398 167.4356231689 187.1976013184
211.7340698242 166.4328460693 177.0499877930
177.4216613770 185.1993560791 181.3904113770
229.6521301270 163.0969390869 144.7431945801
163.5521392822 188.9269409180 185.9031982422
225.0167694092 167.0520172119 159.8346099854
186.5382843018 190.0233764648 203.7460021973
207.0188293457 183.2540283203 209.3099975586
229.9592132568 165.7575836182 148.5881958008
178.5682830811 183.6733856201 200.0459899902
224.1194000244 164.2825317383 150.0540008545
208.7774200439 185.3598632812 212.3200073242
213.2879180908 166.5776214600 175.3369903564
213.1347808838 176.5253143311 204.5410003662
228.3186035156 171.2556152344 149.7575988770
192.4531860352 179.1445922852 175.3779907227
217.6464691162 173.9312438965 203.3899993896
165.0804748535 187.0169372559 198.3573913574
217.0197601318 155.1900024414 162.3000030518
221.4138031006 160.7971954346 166.4911956787
169.1133117676 183.7126922607 202.0180053711
215.4033966064 171.4898681641 186.9726104736
192.0643005371 179.3240661621 174.6723937988
216.8540039062 162.1422119141 178.8800048828
179.9343109131 186.7240753174 199.5923919678
234.5806884766 169.9810333252 151.7902069092
201.0120544434 185.8980407715 207.6720123291
204.2420654297 184.0780487061 210.6620025635
194.4417572021 197.2068023682 208.4010009766
213.8666839600 176.2400054932 202.9420013428
229.1765899658 166.7716979980 148.8358001709
167.8046569824 185.5923461914 202.9499969482
231.5692138672 161.9775848389 153.3282012939
216.4916534424 165.5093536377 172.9204101562
228.7782592773 169.9073028564 154.0310058594
167.6531829834 182.7845916748 197.8079986572
161.9346618652 184.4723510742 192.3099975586
189.8072357178 183.7853546143 175.6600036621
230.3189697266 175.0292663574 141.5289916992
212.3546600342 162.3023529053 181.9900054932
211.6488189697 168.5640258789 203.1699981689
213.2627258301 178.3200988770 195.4589996338
229.9097595215 164.3000030518 156.5100097656
218.5021362305 163.5769348145 179.9431915283
214.2132873535 187.9580993652 211.5240020752
200.6908721924 189.8529663086 209.4599914551
180.4751434326 183.5299987793 206.9830017090
180.1392059326 190.1575927734 176.0881958008
211.8713989258 177.0899963379 191.5688018799
169.4889678955 195.9092559814 179.0089874268
239.2626342773 166.3068084717 145.5229949951
212.5546569824 176.8723449707 207.9299926758
221.9316864014 171.8073730469 192.3899993896
197.1267089844 192.3697357178 211.8499908447
231.8489379883 171.5358276367 156.1620025635
218.8721313477 162.7969360352 173.3531951904
212.9163055420 172.3287048340 204.6349945068
208.3963012695 171.4987030029 201.3650054932
187.8892059326 190.1275939941 211.5581970215
166.6767120361 187.5697326660 199.3300018311
171.3832855225 194.7481079102 179.2940063477
164.1702880859 180.6098327637 202.1450042725
181.6816864014 185.3573760986 205.1000061035
164.3074188232 197.5698547363 182.9100036621
214.5538024902 166.0171966553 175.8412017822
210.3813934326 165.7200012207 171.9188079834
165.5408630371 184.3629760742 201.6999969482
210.5859680176 172.9288024902 207.0468139648
220.4043121338 170.2540740967 190.2124023438
207.6651458740 173.2500000000 200.5530090332
215.1233062744 174.7726898193 195.7980041504
182.4920654297 181.7780456543 175.6220092773
218.0040740967 173.7228546143 206.3399963379
177.2467041016 190.9597320557 206.3199920654
186.4936218262 195.8669738770 204.1895904541
202.1940765381 189.7428436279 209.7399902344
209.9838104248 172.5971984863 205.2211914062
199.5897521973 185.5299987793 200.8100128174
177.7808685303 187.5129699707 179.8099975586
220.7752838135 153.3169250488 167.0440063477
187.0889739990 185.2892608643 207.0289916992
215.9816589355 172.5193481445 191.8904113770
171.2574310303 190.6798553467 177.7599945068
208.4247894287 182.8653259277 206.0509948730
178.7636566162 187.7078247070 174.2139892578
187.5421905518 181.3198699951 173.1499938965
228.0616607666 165.2893524170 151.3404083252
167.5221405029 196.0869293213 181.1431884766
165.6038055420 185.2671966553 201.0111999512
210.2325897217 164.4199981689 172.3580017090
239.4043121338 164.5640716553 146.7823944092
190.2402801514 172.7798309326 176.5449981689
211.0467071533 168.5197296143 185.3699951172
171.9640045166 188.4122009277 177.4799957275
219.9202880859 166.3398284912 192.1949920654
160.9986267090 185.4017791748 198.2760009766
184.5297546387 185.8000030518 170.1399993896
229.6988220215 161.8840332031 141.7899932861
216.6682586670 173.0072937012 193.2210083008
181.4039916992 185.5922088623 205.9700012207
180.9243011475 186.8940734863 200.5923919678
173.8320617676 186.6780395508 205.1420135498
163.5521392822 188.9269409180 185.9031982422
227.1007080078 164.8866577148 161.3760070801
180.0597839355 186.0857086182 173.4318084717
159.7308654785 190.5729675293 189.0000000000
221.1240692139 172.2828521729 193.7899932861
168.2046661377 187.3823547363 200.5299987793
228.0797882080 161.2857055664 153.7118072510
229.4672241211 167.6753540039 155.6000061035
209.4121398926 188.1269378662 212.8831939697
206.8339996338 185.5722045898 207.2200012207
163.4874267578 199.3098602295 180.8699951172
185.1086120605 182.0756225586 179.9676055908
215.0238037109 163.1671905518 183.0111999512
218.8116912842 173.2473754883 204.9400024414
206.8339996338 185.5722045898 207.2200012207
167.2086029053 194.3056182861 182.3876037598
188.6943054199 182.7240753174 173.1923980713
163.9446563721 195.7623443604 183.4700012207
178.7902832031 182.9998321533 202.1750030518
189.6397552490 190.9499969482 206.7100067139
223.2049865723 164.6469268799 163.4053955078
216.1740722656 172.5528564453 210.1100006104
176.8586120605 186.2756195068 178.0776062012
186.3294067383 187.6625366211 208.6240081787
213.3799896240 161.9408569336 175.9400024414
189.6697540283 172.5299987793 172.7000122070
168.2086029053 188.6356201172 204.7575988770
216.2564697266 171.9712371826 202.8500061035
171.8708648682 188.5629730225 205.3899993896
171.0866851807 188.1999969482 179.6419982910
220.0438079834 179.6271972656 212.9011993408
215.0713958740 162.0899963379 164.6087951660
213.8397521973 162.2899932861 177.2799987793
161.8367614746 187.8720092773 196.5846099854
190.0321350098 193.7569274902 204.6431884766
235.5208740234 165.2229766846 150.5800018311
195.8408660889 191.4229736328 212.4099884033
226.4897613525 165.4700012207 152.5000000000
177.1552886963 181.2069244385 179.5039978027
181.9521331787 185.4069366455 201.9531860352
201.0120544434 185.8980407715 207.6720123291
215.5888214111 184.7740325928 215.8499908447
212.2849884033 184.4869232178 208.2353973389
232.7821350098 168.0769348145 153.3331909180
189.2992095947 184.9075927734 173.1381988525
167.1921386719 185.4669342041 193.9031982422
239.2927246094 165.3000946045 152.3789978027
198.0043029785 196.4740753174 206.7823944092
227.3808746338 169.6529693604 148.6599884033
183.2500000000 187.7352294922 174.3674011230
191.5867156982 192.2697296143 209.8199920654
213.2733917236 180.8698577881 206.2926025391
188.6767578125 176.0020141602 177.1346130371
184.7667694092 180.0520172119 177.8146057129
229.7388153076 163.9640197754 155.7399902344
167.2700042725 182.3908538818 192.5400085449
181.9218597412 184.8075256348 179.6919860840
186.1186065674 193.2856140137 208.3576049805
214.5538024902 166.0171966553 175.8412017822
167.3716888428 185.6173706055 194.3500061035
221.4842987061 171.2040710449 190.3824005127
222.0607299805 161.4400024414 160.8825988770
232.5740661621 171.0328521729 152.9599914551
181.1267700195 188.2620086670 175.1346130371
162.8182525635 197.7472991943 182.7410125732
213.0806884766 179.5610351562 206.9701995850
172.9255828857 190.0259094238 200.6389923096
178.5265808105 192.1316986084 178.3358001709
181.4119262695 179.7389831543 173.2380065918
183.8479156494 182.4576110840 210.4869995117
204.6608734131 189.0729675293 212.7399902344
213.6446685791 160.0923461914 169.1300048828
170.3697509766 188.6900024414 196.7000122070
230.1789550781 162.2581787109 140.7969970703
191.3265838623 182.8616943359 176.8157958984
187.7297515869 180.9499969482 173.3800048828
217.9559631348 156.8988037109 164.6768035889
215.5452880859 176.4369201660 209.1540069580
220.3527374268 173.2501068115 192.9089965820
184.3600006104 179.1808471680 174.1900024414
209.8083953857 186.6579589844 207.8059997559
226.3220672607 170.1180419922 147.0220031738
173.2872314453 189.4553527832 197.8300018311
223.4240722656 158.1528472900 166.3399963379
163.7837982178 195.7171936035 182.9812011719
189.9007263184 180.9400024414 174.3126068115
228.7908630371 169.3629760742 151.5399932861
175.8888244629 180.9640197754 180.6299896240
214.3572235107 175.4753570557 198.9400024414
193.1016845703 173.9673767090 172.9100036621
213.4813995361 170.4400024414 188.0088043213
216.1740722656 172.5528564453 210.1100006104
215.5039978027 171.1122131348 208.1500091553
165.5899963379 193.6752319336 185.4373931885
216.9672241211 166.6553497314 181.2100067139
215.1440734863 173.7828521729 210.8199920654
163.2816925049 189.3573760986 185.1100006104
216.5647888184 173.1053161621 199.1210021973
216.6789550781 172.3681793213 208.7870025635
238.9465789795 169.8316955566 145.1057891846
191.6372222900 178.1553497314 174.4800109863
231.8489379883 171.5358276367 156.1620025635
215.0316619873 172.5293579102 190.7304077148
167.9519195557 187.6789855957 201.0380096436
217.8465881348 165.3616943359 177.5757904053
213.2189483643 171.3081817627 203.9570007324
227.5682525635 166.7872924805 160.2610015869
179.4127349854 186.5801086426 181.5289916992
218.9318695068 157.8675231934 166.7319946289
163.5107116699 193.1466522217 185.8059997559
211.2308654785 172.3729705811 195.5899963379
212.6191253662 164.2658691406 181.2740020752
235.8914031982 166.3999938965 143.8887939453
216.0942993164 160.1040649414 177.7624053955
199.9916839600 190.9173736572 208.2500000000
177.5436248779 190.5969848633 205.7095947266
190.5555725098 173.0759124756 178.6690063477
166.5588226318 184.7840270996 195.1900024414
215.3152923584 177.5669250488 210.1439971924
228.0363006592 160.8587036133 139.9850006104
197.1267089844 192.3697357178 211.8499908447
230.9916839600 164.9673767090 143.5099945068
215.5516815186 173.0773773193 191.6199951172
183.5636444092 190.0478210449 210.1839904785
166.5334014893 191.5898590088 180.2026062012
239.2492065430 168.9575805664 150.6082000732
189.4738006592 182.6071929932 179.0811920166
211.8862915039 165.0587005615 181.7850036621
189.5788269043 176.1540222168 180.3000030518
185.6552886963 179.7569274902 172.6040039062
185.9817657471 194.6268005371 203.6310119629
217.0486145020 172.2356109619 194.2375946045
180.3304748535 187.9969329834 210.4573974609
175.7740783691 189.7128448486 180.0899963379
211.3925781250 163.7700042725 172.6080017090
199.3132781982 193.1981048584 206.9640045166
163.8437957764 197.1571960449 183.0411987305
234.2999877930 171.9252319336 145.1373901367
155.4208679199 188.5529785156 188.3199920654
206.3147888184 182.9353179932 212.2109985352
239.5016937256 166.7673645020 149.6800079346
228.1188201904 158.9440307617 151.9400024414
231.1021423340 170.1969299316 144.5331878662
223.8647766113 156.2253265381 147.1909942627
214.4297485352 177.8399963379 202.0400085449
213.7136230469 165.9469757080 178.6095886230
197.6772308350 190.7053527832 206.6500091553
217.5184631348 170.7962799072 184.9297943115
198.0327758789 196.5989990234 209.3961944580
158.0162963867 186.3787078857 186.0149993896
230.4567108154 166.2497406006 161.3300018311
159.8457641602 181.4859161377 202.1329956055
240.5627288818 166.3000946045 149.9189910889
228.9716949463 159.1173706055 149.5599975586
201.5539550781 189.3800048828 201.7837982178
217.8492584229 164.0091857910 164.8242034912
179.3320617676 185.8503875732 207.5370025635
212.6839904785 170.8022003174 201.6200103760
194.8067169189 192.1897277832 211.7899932861
157.2125854492 190.5200042725 184.8079986572
227.4840698242 165.6028442383 151.9700012207
191.5397796631 186.6657104492 208.1918029785
224.5291290283 165.5058593750 145.9640045166
209.7146606445 186.1423492432 212.9799957275
207.4652862549 184.0669250488 214.3040008545
190.7686157227 176.1717681885 174.3860015869
192.2700042725 172.4708557129 175.2299957275
196.5052947998 187.4869232178 210.2539978027
208.7652893066 185.9169311523 215.2239990234
160.3208618164 185.0429687500 201.3600006104
229.8252868652 157.2169342041 162.1940002441
231.2118682861 164.8175201416 142.6319885254
210.0774230957 187.9498596191 212.4199981689
216.0021972656 161.0598754883 176.7399902344
165.0704650879 191.7169342041 188.2673950195
163.5166778564 191.1300048828 180.1719970703
221.0989532471 167.5481719971 190.9769897461
208.0067138672 191.9297332764 213.3899993896
164.9216918945 187.7573699951 187.8300018311
179.6557617188 182.4459075928 209.0130004883
223.2049865723 164.6469268799 163.4053955078
186.6989440918 185.8658294678 210.0520019531
226.6291351318 171.5358581543 148.1139984131
216.9972229004 182.6053466797 207.1699981689
207.4652862549 184.0669250488 214.3040008545
228.7482757568 157.0033874512 159.9259948730
218.1507263184 162.4299926758 163.5726013184
212.9159698486 171.5388031006 206.8968048096
216.1316833496 172.1473693848 193.7599945068
230.2716674805 176.5493621826 145.8504028320
213.2146606445 161.0623474121 174.1399993896
187.7297515869 180.9499969482 173.3800048828
233.5738067627 170.2071990967 152.1112060547
190.3688201904 192.5140228271 209.6699981689
222.5159606934 157.4687957764 149.2168121338
231.0572357178 166.4453582764 156.1300048828
186.5021362305 187.4169311523 209.4431915283
155.4574279785 190.8198547363 186.1800079346
167.7689514160 196.0281829834 182.3769989014
207.4452819824 183.4169311523 210.4340057373
165.9655761719 189.0059051514 186.7989959717
204.5034790039 188.6630554199 214.1260070801
224.7459564209 162.2987976074 154.6968078613
177.3467712402 189.8920135498 208.6946105957
210.3102874756 168.5398406982 205.1250000000
205.8497619629 184.3300018311 207.3500061035
210.9774169922 168.4298553467 174.2799987793
224.7755737305 156.4059143066 149.1089935303
230.2674255371 173.2498626709 153.7500000000
229.4694061279 167.4225311279 143.5839996338
228.4340667725 162.2228546143 142.9899902344
179.8236541748 189.8578186035 207.9039916992
166.3889770508 196.2292633057 179.4789886475
217.9707183838 170.2666473389 186.4560089111
184.7259674072 180.3088073730 178.6068115234
191.3265838623 182.8616943359 176.8157958984
206.3682708740 183.2033843994 208.1660003662
184.9302825928 178.8398284912 173.1049957275
207.6474304199 177.4898529053 195.4300079346
228.1197509766 173.2400054932 141.3800048828
222.6597595215 163.0899963379 147.7500000000
166.2572326660 192.8453521729 179.5200042725
168.7697601318 188.1300048828 199.1300048828
216.2243041992 165.3240661621 177.7023925781
195.0240783691 191.1328430176 212.6299896240
198.0043029785 196.4740753174 206.7823944092
179.9867095947 190.3397369385 206.0699920654
211.8767089844 159.8297271729 168.2400054932
217.9716949463 163.7373657227 171.4499969482
213.0439605713 177.2200012207 191.2138061523
226.6946563721 161.2423553467 141.8699951172
213.4463043213 157.7187042236 178.2550048828
227.4840698242 165.6028442383 151.9700012207
218.1521301270 163.0269317627 172.0131988525
232.6389465332 164.9381713867 157.7269897461
216.2382812500 167.1333770752 187.7059936523
210.6608734131 175.0829772949 207.8199920654
212.5546569824 176.8723449707 207.9299926758
172.4933929443 189.9998626709 183.6325988770
202.1938018799 189.3972015381 209.6112060547
211.8917694092 175.6168060303 205.0410003662
232.7821350098 168.0769348145 153.3331909180
160.6608734131 184.6129760742 191.5599975586
174.3386230469 194.5917663574 174.7859954834
216.0262908936 170.6786956787 205.4049987793
180.0538177490 189.8484802246 177.5014038086
217.3349914551 166.5769195557 177.2453918457
179.2255859375 186.9659118652 210.2290039062
235.8914031982 166.3999938965 143.8887939453
163.4138031006 183.5171966553 203.3412017822
177.7214050293 187.8699951172 198.7388000488
215.8319244385 166.3789825439 191.4580078125
185.7982635498 193.5872955322 205.6610107422
214.0140686035 179.3928527832 210.7599945068
207.3943023682 188.4240722656 208.2924041748
217.4743041992 165.0640716553 178.5823974609
226.9159698486 168.9288024902 147.4168090820
172.0942993164 190.5740661621 198.4123992920
172.0516662598 192.8393554688 201.0704040527
222.0959625244 158.8088073730 149.5368041992
224.0314025879 160.9799957275 159.4288024902
215.8052825928 157.2669219971 180.4840087891
214.1652832031 171.2269287109 203.6739959717
189.7027282715 196.2301025391 207.6989898682
198.3226470947 185.5268096924 209.0330047607
164.4839935303 188.7822113037 182.8300018311
224.1536560059 165.5078277588 150.4440002441
160.3717651367 184.1068115234 201.3209991455
230.1849975586 165.7769165039 149.4053955078
174.3862915039 190.3887023926 172.5050048828
180.2443084717 187.9840698242 174.2324066162
184.7117614746 186.7868041992 170.4110107422
225.4797515869 167.3300018311 155.5400085449
189.9907073975 182.8666534424 177.7560119629
213.2583923340 173.3379669189 190.7160034180
169.9417572021 192.7068023682 201.0410003662
183.8667144775 185.3597412109 177.3899993896
194.2540740967 193.7928466797 211.3499908447
175.2239990234 180.8321990967 179.2299957275
213.9607086182 185.0366516113 210.1860046387
214.5267028809 174.6097412109 192.1799926758
211.0016632080 179.4993591309 194.2804107666
211.4107360840 170.8500061035 189.8626098633
194.1752929688 174.8269348145 177.1540069580
189.8816833496 187.9573669434 208.5599975586
184.7533111572 183.0526885986 177.0780029297
185.3136291504 183.2369842529 177.6996002197
188.0718688965 185.0575256348 207.6719970703
224.6546630859 156.5723571777 149.7299957275
223.8104705811 161.7869415283 164.6373901367
185.9074249268 194.3798675537 202.9400024414
216.6908721924 155.5329742432 164.5399932861
232.1664733887 166.6512451172 151.9499969482
211.7238006592 170.7971954346 206.2812042236
228.0679168701 159.6076202393 152.4669952393
219.1604766846 164.6469421387 183.7973937988
179.3320617676 185.8503875732 207.5370025635
177.7317657471 186.2468109131 180.3110046387
161.4125823975 193.2599945068 178.9479980469
195.0307159424 179.0166473389 178.4360046387
218.3943023682 168.1140747070 182.1824035645
177.1466827393 188.7700042725 202.7120056152
171.8952941895 184.0169219971 203.7940063477
220.1789703369 168.8792572021 189.7589874268
185.3137969971 182.6571960449 210.7911987305
158.2313995361 188.0700073242 184.1387939453
177.3936309814 189.5869750977 200.0995941162
216.5838012695 160.0271911621 182.4512023926
214.4683837891 184.2379608154 208.3659973145
208.3392181396 184.2575836182 212.9781951904
160.7646636963 191.5723571777 181.3899993896
176.3094024658 194.9825286865 176.2140045166
187.8949890137 187.0069274902 173.9053955078
179.9982604980 184.0272979736 210.2310028076
189.9907073975 182.8666534424 177.7560119629
218.1740722656 161.6128540039 169.3699951172
172.4038085938 191.1271972656 202.4311981201
212.3197479248 174.2899932861 191.1900024414
163.2407073975 190.2066497803 193.1160125732
226.1322021484 158.0198669434 159.0899963379
219.2082824707 177.8733825684 207.1060028076
174.2857666016 181.6759033203 179.8829956055
229.0197601318 171.4499969482 151.0800018311
224.0249938965 162.4169158936 164.4753875732
218.1499938965 157.9108581543 181.5100097656
231.8916931152 164.0573730469 157.6300048828
218.4979095459 171.0776214600 194.6969909668
168.4016876221 184.4173736572 191.8899993896
230.7359619141 167.1188049316 150.5167999268
221.7089538574 180.0381774902 210.3470001221
188.5951385498 173.1499938965 172.1230010986
210.3316955566 189.2673645020 212.3099975586
224.7459564209 162.2987976074 154.6968078613
215.2263031006 157.1087036133 165.6349945068
185.9443054199 186.0340728760 173.7523956299
215.3927764893 166.6390075684 175.2661895752
211.6655731201 169.0059051514 192.4889984131
225.4085998535 167.5856170654 146.9376068115
160.8046569824 181.9823455811 191.3000030518
157.8397827148 185.9657135010 185.8318023682
211.1597595215 178.1799926758 191.0000000000
165.1488189697 188.9140319824 184.2299957275
183.2298126221 178.9567413330 171.8099975586
184.5297546387 185.8000030518 170.1399993896
231.2943115234 166.8040771484 157.4723968506
214.0120544434 161.2680511475 171.8420104980
218.2251434326 167.8999938965 189.3529968262
181.1399993896 184.0308532715 205.3899993896
161.9640045166 183.0122070312 197.4600067139
209.5074310303 165.0298614502 174.3500061035
231.1189727783 160.4792633057 160.2389984131
171.0866851807 188.1999969482 179.6419982910
189.8621368408 192.3369293213 206.5431976318
187.9263000488 176.6186981201 177.5350036621
