204.8477175007 126.0414180583 242.4166458784
229.3631794539 88.9158617740 229.5664018843
223.8175765979 90.2673774502 220.6354926680
217.9517519879 102.8782379448 195.0453067228
213.8499935469 144.3708136454 226.9356465949
213.4397345126 115.2858984520 210.6426474302
210.9422469267 130.7231846038 214.3767262106
228.2317699396 86.7940001589 247.5475807123
226.2757147465 103.5082125735 205.1404677825
209.8071571840 132.2070885395 216.9155565922
212.4191892274 108.1527669209 197.8057201044
213.6636317024 113.8604196637 208.1347394846
203.7122295700 116.9121334571 244.8148203642
209.7975709011 63.2554034060 259.5825227173
217.0209131104 64.7836262118 246.5431090214
208.4403699632 134.1305312690 216.6946737760
213.6690260584 107.5156444471 202.1163993880
218.8113026806 99.3142517420 200.3389195198
229.6748221989 85.9166062640 241.8308445455
216.8685272614 62.5910011342 248.5394573935
221.3609015972 72.4131174868 256.6383723420
227.0384869237 86.2589449394 245.8813428455
219.7483525298 63.4875416269 261.5831224041
218.1670332014 111.2190058196 246.4330664308
214.3399636490 143.9826322013 226.8225529035
220.1576437024 64.7105322450 257.8018541684
210.4305712333 138.1741793266 226.0339916218
215.0937317188 112.5651042562 245.5561619213
219.2983949982 72.3386526742 248.0435001752
201.4633626478 132.1200229880 243.3862308351
213.2670154218 143.2176350479 225.0457703965
216.2709012339 107.1857330003 242.1082107422
210.4291560941 128.1773212381 213.7186098975
219.5630841605 68.5546458681 258.5357192323
202.2236070798 121.3045275021 244.3817399952
202.1864971642 122.4751807498 240.3496706627
209.1392815836 113.9577118100 248.4485136681
213.2873942163 55.0650042552 252.4841703858
210.2781158285 144.1684345811 239.5531326827
219.3145152107 63.4091928354 265.1597698273
227.0905617607 99.0775487923 212.5460013871
205.9249722631 123.1651978014 209.3545468122
222.8145461580 65.9517151342 249.7923784808
214.1037062139 104.8505780840 196.1179688563
227.0903373820 74.0419998024 244.4965658678
205.1483300692 127.4542718500 211.6998499411
227.4115460993 97.9777117197 204.5554299748
223.1124757883 56.5041618813 248.9076999954
227.8293376709 69.7927538984 241.2794660478
218.7532339143 58.5879239976 250.4308247762
224.5433924590 95.1861636483 212.7753034968
210.4022866460 110.7229705657 237.3789042123
208.6792037353 123.2040031913 239.0610908867
222.3434101844 67.9710144207 243.1461854202
203.6237900136 117.6295691953 241.0978897856
204.6798490072 122.6154774439 206.3962046886
210.7237658789 137.8489726915 234.2981234173
221.6980584771 91.1957162796 220.0307349268
206.2087041453 127.1257933519 214.7973828285
225.3308356650 88.8484575518 232.6760519872
208.0771482333 132.6951886523 220.2731949467
222.8217595666 71.0646076272 252.4289023791
215.0661258786 59.9639299230 254.1960521579
231.3050714222 85.4479017224 248.4244852217
217.2428118081 96.9782778421 200.9094251305
204.2451644397 118.6929014169 244.9159297475
212.7152334069 63.1404925516 258.8594765167
223.6294573840 92.0660543722 228.5277036997
211.3775392998 107.2339872064 199.6262033759
232.6415174450 75.5226420655 245.7493835995
215.6006854963 108.8653766522 206.0291159358
215.9845111081 60.1908583324 253.6735387900
212.6938232341 108.2275241941 242.2036376807
219.4110869772 65.9962759358 247.7641846169
206.4326067254 64.3343445876 255.7907817184
227.3464301613 99.3226196964 211.7665006701
217.2857521014 55.2440482074 253.0077690405
198.6382935678 123.9400760005 243.4749078065
213.0191724458 120.8178772752 207.7393910722
210.8112733721 135.6134205720 222.4730272623
204.0503533960 125.8011842556 243.4842616533
198.7842853002 133.5153745831 237.8435008362
209.8902057296 135.4918627193 219.0366432790
225.6898556425 71.9790634559 242.0494796116
224.9670043677 105.6309229380 211.7947881378
218.5971278708 97.3790230238 220.2567867686
227.5427020020 96.1172688132 206.1331164782
209.1629671653 124.6274098889 244.4793529877
228.7880161180 74.7598873044 246.8963299955
218.1711845397 95.7398917010 202.5561909085
214.6389493996 140.0458332397 222.9431584282
209.9766328164 116.1076141624 243.5023644166
216.9991826087 63.4276804169 247.9514193983
217.3130701372 68.4259175360 259.4492847711
227.0384869237 86.2589449394 245.8813428455
209.7975709011 63.2554034060 259.5825227173
204.2217465094 141.1517512673 239.4130703494
228.9875802742 70.1467923023 247.9320005802
232.6361348292 81.3838812944 249.4763999779
217.5049679691 108.9311821026 203.3740881550
208.6393581016 128.7006485951 241.2410054883
207.9986101696 117.8225834478 241.2476905366
228.8506986228 89.6346535392 228.4838974694
214.6170014931 133.8272669642 221.7224069912
211.4128184156 142.0049051872 232.6753526951
210.0907654275 129.7426462547 219.2778698313
225.9641248140 87.3172300659 230.0676964763
225.0879124768 83.2485514735 242.1837535492
222.8319637662 93.9902381931 218.7111706708
226.1221066287 95.9965960867 231.1678831036
209.4204601551 116.5529966493 237.6043191194
213.5525170379 129.7848252379 209.0182242085
225.3142177897 89.1030675793 240.4093696694
207.9986101696 117.8225834478 241.2476905366
209.8902057296 135.4918627193 219.0366432790
197.8190853134 128.5434447617 242.2230777963
231.3127026431 92.8499556784 235.9551054067
201.7752214899 122.5809826546 240.5318960231
214.6389493996 140.0458332397 222.9431584282
228.8402949512 70.7846367800 241.0450722559
213.2677206237 66.9628737139 247.3352837213
211.4469024398 143.7215456389 224.4081724223
196.5144620244 134.7578947018 239.4442614211
213.8913557808 112.2541082474 242.0395278855
209.7484092801 118.4375792163 238.8001032358
203.9755720998 142.2184054213 234.0368316139
223.5881557662 100.9878711695 204.1957883645
222.3698559956 90.7984751109 216.8477507589
220.6199558853 62.5271378442 262.5655288862
227.3703958964 82.3207727542 241.8661726941
227.9722018484 91.9023073456 232.5155935411
227.3483280836 87.2860048628 217.6232253147
206.7107522018 115.8216557319 238.4885361197
224.4796254722 78.8214835590 244.5821980198
227.4813839402 99.2556944400 209.2237077820
199.0999480838 125.7522670554 246.2073941477
215.9789388238 113.1528660305 245.1130327769
211.0751527834 118.8303635704 209.8536046957
206.8872278033 128.3585866611 210.0587860337
221.3291366225 93.8458251394 220.5824188414
230.1276072339 86.2871080938 229.0767923373
222.3080785175 99.9237461502 216.4827966025
222.0362771927 92.0695325044 218.4329094250
217.5698426126 94.4718177864 218.7477094493
215.1989329874 109.3537267801 246.0561499118
210.2134237169 131.6379626515 213.7091329372
217.2955637773 108.5871102990 199.4801103638
229.3741136409 102.3027373381 213.1814528344
210.5570936313 109.8482279856 200.9300045376
223.8621199607 84.1418539505 245.1780453784
198.7817102160 124.5285448412 246.2754441264
203.2579206876 114.1630670392 243.9684505626
207.6644046486 141.8959410661 237.1660987016
207.4180746131 116.8559013444 204.0359483589
226.9179390934 97.4470773760 211.8103497211
218.1638528611 106.8818672412 202.9518681871
209.1141944363 124.2379900555 238.6924692559
226.4888321672 95.2623917474 206.5370038217
219.6050703132 56.8000379124 249.6193711516
222.9384783746 64.1939132793 251.2830229550
228.7097611664 76.5460395112 244.1373690516
225.7054747055 96.5194836915 216.9943293572
213.8458565651 133.8890078241 211.8089463921
203.0320557276 145.7140822275 237.5393849223
212.6938232341 108.2275241941 242.2036376807
211.0145500150 143.8954085876 235.5847323963
216.3640468350 114.4179391913 240.2904836505
214.6883023045 63.0812397863 262.9152431751
227.0568406249 76.7644002902 249.7482275529
226.0377908739 85.8042601536 233.6451262040
205.4374414493 137.3590557626 240.9360687643
222.9403936171 75.7519201182 244.5712420705
219.5433767777 69.5109051064 258.2582289106
220.8740968623 56.2372419227 247.8890747112
219.0229144577 62.9493389970 261.3277181333
218.1524970632 105.4494629882 204.6731887255
230.5199302804 92.0582883466 233.4546205511
226.9406345674 68.9660943325 258.4372955021
211.0446941687 146.3302714608 228.1322566862
230.7437054215 88.4947203518 235.8631482359
230.9781818908 78.5498308526 250.4128475143
221.7568613796 100.3948710303 200.0378919601
226.7471492427 103.5461540098 207.8916609410
228.2613727174 82.3033113925 240.7018816281
216.5806646638 66.6659626383 252.4020819542
213.2239478605 140.9632737188 229.4129791319
220.8664852811 100.7868605187 215.7247890884
220.4220025171 57.4921197122 255.6047222363
212.1939418704 116.1489320494 211.2457911088
212.6532576380 139.8888471208 219.0080335459
215.2892038257 61.0893300944 262.3860151316
214.8145554054 131.2583013291 216.9864797844
212.2544633741 54.8048723008 254.8025291646
217.9998765763 66.0537579137 248.1587582412
226.8565129856 88.8315298317 224.7497330132
207.7222631487 132.4024697598 220.5185432348
206.6665304897 116.5890760518 239.7179633951
219.1250308377 65.8137593782 251.4183342202
226.7212415274 87.0044434096 225.9297699426
211.4440465147 110.6925253643 208.8477694421
210.7510845708 143.1420295687 234.4298315069
209.3424269803 128.7991190076 239.1910193852
217.4927285030 65.2140874252 265.9370629727
216.0251314943 63.9564520203 253.5549891143
210.0942558585 112.5195600993 238.4221493485
203.8812225836 140.3461179323 237.2771267173
210.8103461863 131.7290789192 216.4618729497
215.6006854963 108.8653766522 206.0291159358
231.0347579086 87.5963110010 243.5235305249
218.7992449884 97.7876914916 199.4405806681
196.6644384389 135.9412562873 243.0362153576
221.6559896311 66.6133198027 250.2186311350
230.1320582100 85.1798195994 239.1973758275
213.2682267800 118.9049318225 206.1837795342
197.0134608636 131.9534675997 240.9383407203
217.4527089778 99.2426701580 201.6015204792
214.1407157874 104.7063179623 205.7037551924
193.5003329461 140.4655688802 240.5389797196
212.8860076777 109.0316427840 196.3668788846
233.2924454442 77.5802252808 244.4769330599
210.4288722382 131.9741224150 211.2632292537
219.5336572242 70.0925445308 254.0223913027
227.0953436246 101.4076277085 208.4309101511
192.8990772550 141.3203013880 240.9640886210
200.4671354846 125.0101105217 244.2724249543
223.6993454380 99.7136988450 218.1257184901
215.2602003171 60.1507792436 248.6289156458
223.3723014154 91.3782987076 240.0918133686
204.3772359508 148.0127657989 242.1748313326
209.3088817777 114.7366529242 207.0732309630
220.1427418317 104.1392823406 201.4610737083
213.0191724458 120.8178772752 207.7393910722
222.0160970481 100.0855917165 212.9760979535
231.8283120111 81.5420820658 248.3480214100
214.1998922065 66.1511823575 252.9108406288
209.3934808588 119.4914704479 244.9564316198
209.7116965770 67.4067678293 257.7990377480
218.5739135841 101.2944580194 217.7363809787
229.1041805164 73.3361092564 247.6891225847
218.0892431013 54.9282520274 249.9330021988
193.6426985388 139.6517435431 242.1087265653
213.9574696533 128.7083364899 210.6100681519
211.2123339757 126.7258697249 207.1393880250
213.0160088667 134.9565468611 219.8930899674
215.2663197037 144.2437788429 227.2502367312
225.2267636167 97.0830380041 208.7488254947
228.6495040322 89.6176841536 239.3372216304
202.1614533502 147.0447001579 238.0941176445
226.3818477173 69.8627327846 258.4019513989
206.9380669932 138.8953058693 220.8685829002
208.6502116031 119.6032698378 244.8526185193
227.3875875344 90.9719442023 232.4102353587
204.8778025244 117.6438284143 240.5528259793
209.6997458636 137.0662885939 224.7427967543
212.2544633741 54.8048723008 254.8025291646
217.3526122190 127.4620568035 213.4578545334
203.0075875517 130.0469970069 244.9247739362
213.1409964725 109.8355352050 210.4303479406
221.7909993340 71.2259838102 253.7245980166
213.3107604970 142.7641240112 238.5593061353
229.9436170917 101.7706704999 212.5930424394
227.8782681094 72.7273228837 248.5170634046
218.2615517496 102.8732353848 197.3517632104
208.3817369420 115.5684710084 206.5315272781
206.7766200552 62.8690119414 257.8569702347
220.8664852811 100.7868605187 215.7247890884
204.3387475222 137.2441913919 241.8412371820
229.6589832555 89.0295974027 237.9075673466
227.7723129307 94.6288746619 222.9235259920
212.2124169374 66.5068446089 253.1057094806
200.9192953806 144.3368460301 238.9218920135
211.0751527834 118.8303635704 209.8536046957
228.7970554636 71.8462105758 242.9169866699
214.3725624706 116.4135672805 240.1286888767
224.8393886929 77.0429919181 247.9329641870
223.1544856034 66.5597270502 246.5302893905
207.0963187553 62.1771902967 258.7723256556
217.0221873665 65.2003658925 254.8711132285
208.2721455254 120.2767542089 242.5906922111
230.7437054215 88.4947203518 235.8631482359
217.9136566342 67.4699355128 250.5036076227
223.0051776412 99.8346925721 202.3059121661
219.5758626394 56.9904030238 249.6635657928
227.7714329965 93.6402534810 226.6063461084
206.6645931532 145.8320793928 238.8566455604
208.5290314362 113.6848278203 209.2017827875
219.9450680804 100.9674619833 215.7293804198
202.1498800459 128.2454855730 246.0195157039
203.4269611281 119.7937161515 204.1899104022
214.5543721571 105.2769239175 201.4958495541
226.3673419312 83.1513054497 238.9670607138
232.6345272591 81.7475732033 244.1806805280
200.9669666072 129.9096770724 244.5426882928
204.2442579983 120.2084747195 203.9796616146
199.2227230975 122.8098991331 242.8883437756
224.8949642181 103.9111954931 206.5954975127
204.0505599348 131.6156302605 238.9341719804
223.9798542307 72.5787706463 249.2075596514
210.1952910110 118.0327893255 247.3676904265
218.1033865953 108.4289095276 200.6084889317
214.2119854911 108.2973566334 244.6789384932
214.9812922771 62.4008744916 260.5366487001
224.7221151065 68.2265720645 247.5008021748
218.4706496338 62.8319583644 251.4821980581
208.8726510958 119.8401180369 208.2816026730
209.1881740596 132.3878539400 223.1291334483
208.0095115460 117.5332644051 240.4411671432
227.4813839402 99.2556944400 209.2237077820
219.9723297622 68.6218472373 258.4386641722
210.7480818135 131.9202983754 215.1200865523
206.2477434117 116.0211035071 239.7799044752
212.1330079814 136.3485217068 215.2211561215
221.6396516382 96.4580018552 211.9467820781
213.2302015162 147.2149715586 226.1744912735
201.8638229842 121.0079425467 242.2103474283
226.1667884270 88.0284944708 240.0582788402
218.6678911652 96.9619299438 204.6031704509
212.2304624613 110.3097371178 204.4967585708
210.2249956626 141.3170721575 219.7345344982
215.3000014217 112.3988183802 238.7850432435
204.6857108009 129.9218838571 241.7089277853
226.6203124017 92.5810978206 225.7348055449
224.6948638007 91.3999049279 236.0267267072
206.9315408826 126.3436806785 239.4559312031
219.4288860569 63.0360599850 259.3435838404
204.2217465094 141.1517512673 239.4130703494
219.6898997164 72.9828486734 246.4644030609
208.7522334855 126.0942329464 214.9043674763
217.3609744064 108.4482679411 204.3808536731
217.9489527271 64.3068147906 255.0830271489
213.6043737235 131.7437602761 222.7830075608
219.6113293691 70.1595351239 256.2704401745
216.2221742474 108.0288920312 200.4931038150
224.1233775985 89.3570665249 236.9594535414
222.6682421147 100.5551879752 208.2481508572
212.9481746989 66.6631169398 253.1523498521
211.4921881509 109.7475998866 241.0454906121
224.9643956950 95.7461656932 208.3497323583
209.5533928894 143.9782656057 228.2472648106
231.5452829140 80.4189877369 250.3233459003
227.4442596854 78.2219586532 243.4918750342
213.8533012252 141.2606052640 224.4122923083
222.6923563123 91.8602055082 224.4822925721
211.1133586801 109.8747506472 241.7677306956
229.4641144667 86.9481263987 233.7011848307
210.5864307058 130.5391305398 221.8778125690
214.9086320807 61.4444879008 249.4251149089
214.2019030650 113.6710624528 207.2959570898
216.8682404636 111.5770791389 203.9506226596
203.3628233401 120.9064833003 205.9725693861
222.5187735839 99.2867989972 209.4902175549
217.0221873665 65.2003658925 254.8711132285
212.2707025556 142.9513864302 223.5457329940
222.9384783746 64.1939132793 251.2830229550
224.5670804146 85.4359569783 238.2529000775
215.4412954108 67.6412607926 249.5303585981
213.5363613586 141.0666871137 228.9487499756
210.2326468875 144.5863937456 235.4660475419
207.0407983042 112.6638352387 240.4996342402
207.0963187553 62.1771902967 258.7723256556
230.0492238810 92.2539775821 232.4980911498
229.8925513243 100.8583731612 212.1452367994
218.4284465169 97.3654932788 215.8356629535
221.5451960046 67.0391976696 248.4134513480
228.4266482961 85.8941885151 231.7729694161
213.6558514427 102.8737716590 198.5509839108
210.8910052846 114.8990987581 204.7520730283
215.7191976503 132.4029161452 215.9367062913
200.7737202678 122.3108200572 241.8849083605
218.4921563593 97.1975670788 220.1426715700
195.7670996786 133.7068840402 241.5628841399
216.8273632189 54.5897490457 254.3271059308
223.2592310199 102.3184186124 205.3354214303
224.0702588771 87.7076597612 217.2073198570
209.0389338528 119.2559126501 203.2231881940
214.5531483726 65.6520716652 246.0841100416
227.3575880865 83.1646169024 237.7378579562
226.7185085910 100.4764845440 209.3694201759
226.4838726700 103.4754108520 214.1405371097
210.8567675320 127.5993739563 207.4095875926
209.3363254532 142.8744278771 226.6554259245
197.0134608636 131.9534675997 240.9383407203
216.7322052285 145.6820205968 226.9103609807
213.4750968572 130.7505336336 216.6945782585
195.1119142223 140.0410018488 239.4956032478
224.8363374987 88.3122812944 236.2038872378
223.9185938640 90.7968496762 241.2898642491
213.0421707288 144.5290144167 225.8072680271
226.7471492427 103.5461540098 207.8916609410
224.9157446979 88.2467432877 220.1197211608
224.5565982923 104.0024357910 214.6590212679
221.9804977827 95.4831208441 215.8156505426
208.7564755344 119.3217274680 243.7045323482
225.9928165929 96.4381409554 205.6409853964
208.3111934154 135.7386222207 215.6961297089
203.2621831548 126.7319475717 212.9552488506
211.1158499776 113.5877193893 203.9905753978
226.5425190935 103.4384712766 209.8286647199
212.6123874796 112.5480073405 214.0381839700
204.2810916465 125.6249026439 240.1177648980
234.7637077396 78.4499612797 245.2358493876
214.2246316066 126.3832733789 213.0436030731
223.0840152591 93.1340003081 219.6034574495
200.4913388118 131.2234572412 243.4465593024
216.8688168666 105.9575897484 206.8914740956
202.5684830836 122.7479613616 244.7122540384
208.6497565613 113.7049586723 244.2193799785
219.1099206229 67.0126467998 253.4321951244
196.1344055528 136.3077843639 240.3158092303
211.9844386185 144.2952196723 226.1573547612
225.2848002430 90.9928592474 241.2999630369
218.8543066484 54.7710307281 253.6186368803
217.8673944788 111.7445772710 242.5076368117
224.9800901149 95.1343340430 228.2792911714
202.6108569326 130.2951184119 244.0513170436
229.2114990663 89.1034847933 219.5731424000
210.9694912544 147.6348752253 230.2222877993
203.4292004727 115.7890391281 246.7901448545
219.7756509477 61.8590012486 262.2912957565
223.0034895974 92.9999772323 218.0364374546
213.4832970867 131.3342312601 215.9540499907
210.7278817146 129.9815669280 220.5823997110
212.0022354760 138.1854046833 219.1268396131
204.2217465094 141.1517512673 239.4130703494
222.2544451228 71.4204802364 244.9185704168
203.9449740179 121.1411067855 245.3803142859
203.3949038621 145.9323175719 237.5788851736
223.9798003490 88.9907282223 216.1192659017
209.8912872390 141.8588557478 225.0836824443
223.6132340099 67.5315723237 252.3815122926
218.0390232374 67.3846065764 248.4796594241
213.7385523035 107.8438228783 199.0186134991
214.5497800417 108.0573630346 205.6925577286
192.8523381060 140.2166196042 241.1463955260
209.7484092801 118.4375792163 238.8001032358
229.5755196676 90.1901419017 230.3930265795
226.0832751210 95.1550724943 206.7290393518
214.5497800417 108.0573630346 205.6925577286
198.1816975120 136.9054194223 239.7948752641
207.3447301144 112.7510511575 243.3899670557
196.9931265702 140.4410193452 239.6109883645
214.8480060141 132.2374636341 220.9815385315
208.7701161065 124.3175331944 210.8911283189
222.9403936171 75.7519201182 244.5712420705
228.1119610581 99.3874078000 203.2447828909
204.9633423710 125.7805328753 242.3297970320
212.3670577448 127.8330952984 211.2544989506
228.7461217133 89.1352867150 237.6323105694
217.0248559171 110.9008399656 246.2157454052
209.8607257310 143.4415129643 220.9681564356
226.6585818509 96.7045098566 209.8585819546
210.2068223489 140.2437469693 219.1048581595
203.3903047001 131.8604108052 242.4920557661
222.1991098372 97.2955967293 197.4590711970
225.5057666662 83.5698816437 247.1088986444
228.7952607375 89.2056938866 236.1757748889
208.1510386343 146.4420512667 230.7689192673
205.5118772354 123.4332513477 211.8432226655
219.1681630549 59.7826692183 251.4456105745
210.0681016708 120.5815512379 203.4396220183
219.2148526698 68.9014791677 252.9131034540
210.2349637446 125.6260479596 242.3092488613
212.5619002187 129.3914132597 219.3958627600
214.2019030650 113.6710624528 207.2959570898
217.9517519879 102.8782379448 195.0453067228
216.0238869199 103.2504060237 203.1152884946
217.1157724362 63.5232188395 249.2046733108
205.2494180433 112.3320014537 242.6345467970
209.8643346738 140.3202664268 231.8837228489
219.6971108573 56.9056953764 248.4602418773
203.7155626723 116.9576094397 206.3337878190
214.1569230575 67.0297393389 254.9007987153
202.7083043344 118.6201136145 242.9535937032
208.4191737458 123.6986411658 207.0573090348
218.9857481073 101.3708769642 205.4667356876
214.8934910629 113.6531893290 241.6782930746
211.0850328927 117.8443212365 241.3902240360
221.6495148072 66.9015869144 249.2532237172
212.4423859341 139.5351742014 233.8996348629
206.9605836801 121.5178016813 239.4595794410
206.8872278033 128.3585866611 210.0587860337
224.8363374987 88.3122812944 236.2038872378
209.8487710119 140.3218231039 231.3794788714
224.0803292592 87.3709749575 219.3241864651
225.2887170394 75.6874963031 248.0981978427
214.1677908612 63.8078706263 248.8194514171
202.3567827286 120.9106760648 242.8905683741
194.8536017237 141.3835308956 240.1347832572
220.4253575251 101.6913057304 205.2819679691
207.5128313733 137.6933269939 222.5779622261
199.4570443216 124.7565200267 239.9267727297
210.0235177207 119.3343279527 246.7708641330
217.8141126138 130.4134304332 211.8799974905
212.6594297327 112.2955591041 200.6021385684
228.6392672668 86.3459248721 244.1185387721
207.6325397528 138.5862667121 227.3759635835
219.1540703604 61.0888960905 262.9054046366
208.2903464212 111.5853111669 239.1681545680
209.0739439328 113.5833959305 244.0456622759
230.5894436380 80.5132437717 247.4039031944
224.0993571849 99.9285454065 203.2825273251
222.7852296858 89.4719011336 216.9243516204
210.9048485941 116.8789098847 245.0092931866
213.7515866771 105.5718625824 203.8072296849
213.2266853009 67.4740800850 256.6205603952
207.2914025005 136.3217422843 225.1110387563
229.9971794530 76.0948935276 243.6135922388
196.8964439450 140.4151282484 240.1177640007
209.4020821252 111.8870980041 242.4338694219
215.2732817365 66.7094006254 251.8978471777
210.7457459832 127.1863108753 241.8239932072
222.1563036428 97.3593553540 213.0950598586
215.7972653057 107.8823732792 244.4073817463
223.9351320203 93.9394461010 224.5297853198
228.1119610581 99.3874078000 203.2447828909
228.9332449559 99.2122300716 205.6240317137
199.5886338858 139.4439304139 237.8213044602
225.7794824122 88.0043130080 230.3668038121
227.0993446516 100.6910956127 202.6507450624
203.5808653335 141.1564014168 240.1035977433
224.5433924590 95.1861636483 212.7753034968
227.9361711746 98.4357215559 204.2948911408
213.3177889578 55.0023726139 253.8673115230
212.1705950764 110.1172531766 242.4070653473
214.5531483726 65.6520716652 246.0841100416
222.7264042954 93.6113330462 220.9791284672
209.7403984077 142.2961771511 224.6410445669
226.0377908739 85.8042601536 233.6451262040
227.5188005751 99.8781911944 210.1403374109
220.1327062939 70.7338629690 245.2364206081
205.6988295052 124.6395235505 238.2450111378
230.2562072466 80.4013019274 244.9562423877
200.1412461791 141.4734519655 238.3819772426
224.1201367480 98.8593899016 218.0462933582
227.9722018484 91.9023073456 232.5155935411
216.1916205552 57.1640677909 256.9753524916
231.0904535328 87.1089104333 235.5203584058
209.5138453978 115.2041822618 205.7990979619
208.4983877330 135.2189945994 216.2321127373
218.1810206409 112.2224353729 240.4167579152
210.8597282923 141.3137059856 231.1450850795
223.2824856033 100.5774354343 202.1772887603
220.2137546488 62.6953400515 264.7776342614
209.0389338528 119.2559126501 203.2231881940
217.3273748282 61.4922032689 259.4614005903
222.4612450783 93.4815363927 219.8499895251
210.4329706104 131.1424731537 210.2153199542
200.1649701510 136.5597076881 242.7193534692
215.6921633211 56.5963878550 249.0763149838
209.1122305111 114.0936506259 237.8788385459
227.3323933278 92.8257430617 232.1098087598
215.6505607771 113.9405122009 238.4844208079
209.9472718150 115.1544711889 245.8057785999
204.2841108763 126.9188978699 213.9714918371
224.0370914831 92.9459998315 217.1983646019
212.3893331277 134.1000369507 211.6849255756
202.1908508442 127.7607517103 239.9990311622
226.0103325731 89.9503779627 240.8337004820
206.9480769470 115.5545402071 206.5800173817
195.5318383652 140.4886527940 239.6559716252
211.1880412139 59.5044865907 254.9489062364
205.0274166341 149.5599828421 240.2795873228
218.4525053637 110.1047652085 202.1274932991
217.5449716355 55.8685928946 250.4028716837
225.3715647225 66.6937178857 254.5793589014
212.5920986964 62.1436292260 257.1034021194
226.5477291829 68.7805544622 261.0834398030
220.7474867815 98.5636657798 209.6640704816
225.6486898003 90.0676293911 234.0512992660
209.2098074234 116.7820478798 208.1184767199
222.8499454510 89.1145048158 225.7328773684
204.3215468766 117.8629529467 203.9543963817
206.5474701968 146.1623918864 241.9891211183
221.0250887097 68.3768871876 243.3862224002
215.7684087738 149.7768108311 228.2418874733
218.0892431013 54.9282520274 249.9330021988
224.5682843773 65.0713592705 256.3526492057
209.2393110200 111.3493990752 211.4277067370
223.7989556389 81.1995612112 245.4016826625
213.6130313578 133.8390224219 215.2300103845
227.3416111372 99.5142418130 212.5569188474
209.1312539982 121.3848696837 204.1598763424
202.2133758264 146.7974271831 242.2450390001
218.9676231152 67.7971032550 252.9932701627
213.3479679026 122.7462846656 210.0335883821
217.3130701372 68.4259175360 259.4492847711
215.6796381621 107.4465875917 199.3560615763
217.9781396297 109.8555921469 199.5394964822
214.0255164588 110.7449663490 243.3361260082
217.8551943171 109.3642669299 243.0353213303
213.2682267800 118.9049318225 206.1837795342
216.4925416013 109.1070242228 197.7529994323
212.1510270102 149.3284380200 227.8067170117
229.9220431427 68.5913337069 245.2663807358
217.2337611960 60.9657048057 260.2069664745
213.7984258142 107.0465700952 199.2406764595
229.8863476592 86.9058478549 236.2104917156
202.2401242043 140.7799773236 236.0051737306
200.5150020384 139.3277751473 243.9555995743
227.7456135414 87.6652430395 219.9130181504
210.1884391802 109.6194332826 198.0505063346
205.9172370066 140.4665513869 237.5125557693
217.3009337049 133.8020103418 214.7086258297
222.9403936171 75.7519201182 244.5712420705
214.4988825744 127.8573143952 210.3278830641
212.1765083106 67.6797416616 255.1536662087
217.6650715610 98.3381496625 202.8769399445
217.9781396297 109.8555921469 199.5394964822
229.4682227444 68.7792555546 247.7378450653
224.9765917177 80.3578987766 246.8355652931
228.1045946095 101.2156608662 207.5605214443
223.9640722220 93.6259494465 217.9787413546
206.8341225438 63.8608118828 254.5197741273
229.0858517001 88.5881175472 239.5360734420
209.0739439328 113.5833959305 244.0456622759
214.7527571677 62.5138279826 249.4398456331
208.1094059129 124.7999102467 207.5639618861
225.8784532719 70.8469924204 259.4247167719
219.4110869772 65.9962759358 247.7641846169
212.8349558390 127.9426507667 210.5262902877
202.2577178301 148.9411046282 241.5700735915
196.5399281214 136.5086404298 239.1402824503
217.5281213992 108.4595039495 203.1793008425
204.4609210595 139.2230294817 237.7230424352
213.4332878626 112.9006925594 199.5303173472
222.8217595666 71.0646076272 252.4289023791
209.9981433134 136.4030799484 213.8248880424
230.4213013219 102.7948844605 210.8864154972
215.7516848077 108.9277385605 206.2640156306
221.9876941450 91.2781449352 238.2380194642
226.9315179401 68.6216387130 258.9933832249
212.1943310938 66.4046554460 248.3482771724
214.9481720321 63.1226839059 259.2838710855
219.7483525298 63.4875416269 261.5831224041
209.8798599051 133.8114803636 213.6493396653
195.5047882033 136.7879454774 242.1723939286
223.7944661338 89.1915432584 224.3485644595
211.0570898245 118.1812848545 240.6280752700
208.2903464212 111.5853111669 239.1681545680
217.0743010010 108.6474257972 205.6507651720
210.9470305706 115.9384679825 245.8651813546
219.0630543008 102.5297538838 218.1048867856
208.7127198273 64.0410705469 260.1771077061
220.0771529151 70.6179698608 259.1745677599
198.7622719007 136.6707810004 243.0916141776
208.8004353237 140.8939621903 225.9306283668
226.0643653767 87.3590868355 234.1258100319
210.3852665090 121.3991289027 203.6148125362
203.7155626723 116.9576094397 206.3337878190
208.9127187371 133.0483740762 215.1000959383
228.5958537232 87.6608952087 245.6204432528
225.9016238991 83.4034068331 239.5100049346
218.3011150900 95.9884999913 220.0030862559
220.3313306549 64.6407202243 263.4729986025
233.4449575673 89.5729334611 236.6733452977
218.9676231152 67.7971032550 252.9932701627
226.7451122485 83.3804706637 239.1325516428
221.3451457274 64.9714159399 246.1726882087
227.1025712311 91.0127556112 224.6961404263
224.8949642181 103.9111954931 206.5954975127
223.2592310199 102.3184186124 205.3354214303
202.8077030906 132.0922807433 237.9368336985
211.4120494434 113.5165269285 204.1985451182
223.6452071085 101.8225829805 208.4925156664
217.1157724362 63.5232188395 249.2046733108
209.8544319482 145.5202293768 236.5567889801
195.9943101710 127.5944661634 243.9451767420
228.6023862904 97.7237127741 208.0053461030
201.4603030232 122.8659770391 240.7358202748
224.7649939477 86.2561745787 233.7981884225
213.2856728913 134.9723259923 212.5633528832
216.1916205552 57.1640677909 256.9753524916
214.2511576870 147.0283800125 225.3331348606
209.1881740596 132.3878539400 223.1291334483
228.8568147917 92.6592113798 221.6921996550
205.8405440566 127.7283115194 212.5026473747
221.6640183378 102.1457199422 201.6048418581
212.1239538531 108.1277945513 203.7670595607
226.5926297920 86.4843421834 232.9595063671
214.4946631281 66.9700915685 256.3733552433
206.3457683305 137.7239828967 224.7195151015
204.9065615740 138.8722219555 221.7515909946
224.6687848075 71.4524113678 258.9301517435
225.3814262739 73.3019140527 248.8116983411
234.5622169486 88.1256183220 233.9540890680
227.5443821589 98.8896269445 210.0745370576
203.9754928569 125.0049730502 208.5672129436
214.8619265375 116.6316789397 207.1471490471
203.5337807326 139.1871606932 241.8627483177
218.5437630707 70.3573877536 255.5806721922
213.0406456143 149.1967901321 228.0745792673
218.1633287872 64.3861165005 254.2663743364
199.3991926602 126.4288503658 247.0946294152
202.3490860112 121.3943527421 244.0888848774
202.5617302092 115.7891638182 246.2175669364
218.2442004597 71.0562534377 250.0607086562
208.5096396943 113.1633846103 238.8073340619
221.8970167425 95.3208523179 221.4129503462
204.9675832507 140.8196181729 222.5726119812
205.8451747032 118.9330717921 240.6685372332
207.4544050242 121.8655554054 204.3215092258
210.4656140725 127.3023187265 243.3495818666
216.0832887618 102.4173797420 200.6217674863
221.1167740393 94.7503456349 219.3069993760
216.9066780965 99.1469332988 217.3857671356
223.9986670265 96.5556983648 223.5082509262
216.1788150480 108.4436114888 239.9980200496
212.1640068532 124.5197541712 209.9544096029
207.9986101696 117.8225834478 241.2476905366
208.0095115460 117.5332644051 240.4411671432
214.6526469087 125.6761161982 212.1775943397
226.9406345674 68.9660943325 258.4372955021
226.0454572172 75.4069452888 244.0203244098
204.3274917973 126.7257758553 214.6819977117
231.8283120111 81.5420820658 248.3480214100
218.0842206083 63.5019914686 251.0449215113
228.6131661633 102.0544573234 208.7386508370
224.8790939388 66.9770950023 253.9486184723
228.4865088545 86.7209674851 227.8048393505
213.6130313578 133.8390224219 215.2300103845
205.6346917172 125.7522906993 240.0276701217
198.0719274226 141.0183030431 245.2345635938
212.5344707312 108.4134021782 237.4198812923
224.6876882908 87.1262968689 228.5928083868
209.4103433460 134.3938265343 219.5439696554
214.1304968175 139.3157678132 221.7426610060
226.1040456841 88.1934738913 220.9750507135
217.7472161816 129.1686938876 211.0271579710
204.4086260732 145.4268078478 243.1341852919
207.9077840881 133.3029507948 221.5701543462
232.4786178825 88.3014512568 231.1751098349
216.3593529978 101.2414965189 202.2798250577
217.4512833190 108.5869618892 200.3585617943
200.3523065537 142.3575042654 243.7386691923
196.0695130853 126.2898623989 241.8551456289
203.4074963876 114.0702696862 241.8906512619
216.1296037258 134.0314032923 213.0724731613
208.5096396943 113.1633846103 238.8073340619
227.3703958964 82.3207727542 241.8661726941
206.9380669932 138.8953058693 220.8685829002
221.0883905913 96.4351447781 221.0715434545
204.9853181538 144.0841038430 232.7364243441
228.1880496576 71.0004551929 249.1532581738
222.2525543459 95.8975888037 203.4089442425
209.8106880808 128.4712556447 242.8771581567
213.1477002169 66.4905466136 251.6662262118
225.4014256493 75.1970812287 243.9187704819
234.2930520846 86.3494368851 232.0207674043
222.1435283229 65.5678441686 246.7646831824
225.3165402432 91.6694018414 216.5772774337
210.3470555846 138.4027494099 233.5292211433
217.1981718936 64.3654549230 252.7147650666
221.1416577686 94.8720917379 199.0319563978
216.2397588237 111.7460307585 246.9515505891
212.5096477555 106.8696984598 198.8937740597
222.8217595666 71.0646076272 252.4289023791
230.5785173327 83.4129453694 247.4734946199
204.2455956665 115.7623475765 242.9904164905
224.1027612687 87.3736624114 236.2488953297
226.5053284725 97.1062805191 221.5647811586
215.6101188237 68.1057450205 257.7045186561
212.3125813622 145.0965200257 237.4436144950
206.8884005494 146.2312935924 242.3272063685
217.2679701827 97.7424857921 220.6143600667
203.8139126432 139.0711528421 240.3371596584
210.4286307906 117.0761028122 247.6028049196
203.4292004727 115.7890391281 246.7901448545
219.4455541486 66.2759314444 246.3830600126
228.2727169543 87.0488820410 241.2473506799
226.8780234522 89.7987119395 222.3037319335
214.8145554054 131.2583013291 216.9864797844
213.0645155811 146.2668290371 231.2456052843
225.2318042770 92.4180738442 239.6171604228
226.2823118816 66.9401907544 245.6720035480
203.3903047001 131.8604108052 242.4920557661
207.3980241497 124.1555756260 210.5878237561
214.3916722036 114.5407746869 241.4249777000
202.8083996136 127.1536819334 246.1105659351
227.5268462785 73.1465012723 243.3942920038
212.3691840773 63.8786544386 249.9223977207
208.1959083476 128.1022922992 211.8867580679
211.4440465147 110.6925253643 208.8477694421
222.4426248895 102.9172905506 203.8559554589
230.1276072339 86.2871080938 229.0767923373
226.0576947240 99.7723158982 204.4712283338
207.7909643621 65.9356719134 259.4608187751
217.1436144623 133.3884554342 213.4925936388
208.1496849911 119.3390143998 245.1523933840
227.5084842526 66.0881336451 244.9652437066
231.3344372066 86.6724475351 231.1402303303
220.5858361583 94.0165804108 200.0029622409
225.9504966880 83.3206660711 238.3510031968
213.9988732130 111.2256393672 242.8301145230
201.0590281307 127.2805920154 246.8664616264
219.2983949982 72.3386526742 248.0435001752
221.9755126707 55.9460563433 248.7427348746
213.9676164542 133.1867806921 217.4964005016
223.7203559877 90.1515871569 227.8673513501
201.5894669522 128.7926335315 246.0258159103
228.3316184757 81.0205931408 246.2013709963
221.9439410596 98.2638758495 211.8196403933
224.0370914831 92.9459998315 217.1983646019
223.9640722220 93.6259494465 217.9787413546
224.6876882908 87.1262968689 228.5928083868
206.2624095580 126.2496913351 245.5456562055
224.9849835439 94.0399263809 228.8042722758
213.6882605959 135.9538415539 219.1964379681
224.6609335142 69.7026174456 249.9012516875
209.4248240694 144.7445945170 234.3376689740
212.4423859341 139.5351742014 233.8996348629
211.3169324350 137.9036303831 216.3680568117
211.0477795118 115.6409677354 205.4321670557
210.8368544895 130.7607064190 214.6265278622
223.1976352798 89.5051019451 224.1080605531
220.3724000201 104.5469934318 201.8277014196
210.9520584856 138.3910662599 217.6599454265
210.2273082998 128.6306750523 242.8602092423
211.4686990854 137.1678298107 212.4370786183
224.9233939713 70.5480465902 241.4477236338
195.4157545460 142.9196921998 242.8064734937
211.5245840910 111.0138369540 238.0618107826
214.3233883558 143.7535625403 231.1742669500
225.0479220881 83.4450286983 247.4084930161
226.1970352506 99.2547923905 215.1587232704
207.8088306553 114.2414986336 244.5941220657
208.4440296062 121.1453050839 207.3322938805
207.6162193234 125.8567331935 215.6362612421
211.2819960902 67.2433282516 255.6619667440
213.0140579588 104.2280220318 197.0109888775
225.4245488801 93.5052493492 225.4125073122
212.0541920486 113.6307491051 213.3211445774
203.9015823367 117.2276802227 240.9242279741
213.8426475262 106.2791497753 198.0112491840
220.8824057642 98.1737273282 210.4136640452
205.0097469158 132.6113238422 241.8880978851
214.1154380397 131.8304289912 211.5900927729
226.2977942470 84.4734406874 229.6844220211
200.2912974352 130.9875822869 241.4962306812
226.1992102865 100.0991378269 215.0720993938
193.9212742179 141.5977944364 243.9667963778
208.2171140571 111.0719060268 208.4249989802
227.5440142485 90.1670579878 231.2760346739
218.5498931768 104.7299339728 203.7446658179
209.8643346738 140.3202664268 231.8837228489
231.3534602680 87.3429420956 242.3435332757
207.0807250920 114.0705667121 238.7618466403
224.0818898484 88.3732735066 228.9715552225
223.4361759216 65.4356480171 257.0850785219
229.0263218908 73.4315309785 247.3857026198
229.8831534605 85.4524282529 239.2658136843
212.3461206286 66.9324563330 249.1007570413
217.8673944788 111.7445772710 242.5076368117
200.9669666072 129.9096770724 244.5426882928
227.1568370205 94.0861914591 226.4819934199
219.5758626394 56.9904030238 249.6635657928
205.1759275124 130.7265536135 241.3902035488
211.1651767165 108.1385077019 198.3507839105
219.2874144797 103.0869980876 199.4145701518
229.5755196676 90.1901419017 230.3930265795
197.2639802594 136.5439295027 239.2078041093
226.6069156034 84.5179063462 234.5420839577
223.1889735298 57.7658012717 254.4870307371
223.3869434120 89.6300925183 240.9278538277
222.9893656124 95.7057808653 206.4112102584
232.7139703855 76.0752619210 244.6619758864
222.6547420488 94.8545429557 222.9708062176
222.8145461580 65.9517151342 249.7923784808
221.2218005403 91.0954556459 225.8701019961
217.7434551296 102.0196527093 196.7264056050
213.8458565651 133.8890078241 211.8089463921
224.2266934854 85.6158605565 237.7395398039
229.4902208321 71.1841759879 248.4819202155
223.0610836750 91.8363632031 237.2250260131
203.9754928569 125.0049730502 208.5672129436
214.2385521320 67.4554401711 250.8192802894
210.7278817146 129.9815669280 220.5823997110
214.0461338805 116.4668938224 240.7153813966
227.9361711746 98.4357215559 204.2948911408
230.5634152405 84.5339522353 242.0642234274
223.2465505699 67.4904294155 259.3123194110
216.3148114054 102.0112168670 204.8626194448
203.2026080706 119.2896950049 205.8001448861
203.4545034899 116.1293881266 246.9552606248
222.4048300157 66.5778599009 248.0449178335
218.2653111189 97.2357076084 203.5444034104
227.0275877070 104.3346142311 214.3311131963
215.6101188237 68.1057450205 257.7045186561
198.2341167557 133.2712413304 237.8918591641
215.9616625251 104.2083600008 205.2138744755
216.3194103274 65.2228435282 253.5155983699
221.1894062495 58.8278761747 248.7740563989
227.5099944915 105.3784683476 214.4623364234
203.4074963876 114.0702696862 241.8906512619
199.8298632566 126.3823309021 240.3710903610
226.1423755898 97.7181357611 214.7619968657
205.5695648617 143.6722142559 232.8766873150
202.4451114000 124.0981531486 239.0577245421
203.7077573141 114.9700903206 247.6129556040
215.9443249400 114.0682915643 242.3739932152
217.2521794706 69.9254000916 249.6534271341
218.3448491778 56.5752518264 256.3960791471
210.4656140725 127.3023187265 243.3495818666
212.6967393926 127.5573099076 214.2191814166
216.5280906755 108.9902640119 245.6985766138
224.9905121321 93.5709149820 217.6814445900
217.7432737419 107.6028257768 203.8634607793
216.4925416013 109.1070242228 197.7529994323
225.4122354023 74.5007032756 248.8883046487
227.8606573246 78.3686648450 243.6356801082
219.0837489976 101.8853869489 204.8113575898
225.2866139529 89.6158778717 233.9054792627
225.5431982482 87.9439370562 233.9514714526
218.3966572081 61.9993409965 260.9841068182
230.4124445053 88.9339168995 230.2251966590
218.7346604515 100.7626414219 216.6514049749
216.5671154651 107.3348869561 204.9271977777
217.9699430698 62.2998155546 249.3931175569
212.4068686743 137.3711837300 222.3240286345
213.9361675521 114.4574676449 208.5802930459
218.5498931768 104.7299339728 203.7446658179
216.3753232842 111.7669602421 239.7409014535
223.8671190026 89.7655947847 220.1023992720
206.6645931532 145.8320793928 238.8566455604
219.5746886630 101.7180072237 216.7707538724
207.7729231182 115.0711409319 237.3468231182
216.1259230181 66.7515324234 261.4346973462
213.7515866771 105.5718625824 203.8072296849
204.3810260365 126.5859659620 241.3184705752
217.0808424957 108.5642757923 205.9064423325
205.5162708372 126.0471470762 243.3538978907
210.6587334017 138.2990599245 223.3089303438
229.5834122992 72.9190074101 247.8934220392
225.3160065147 66.8941360206 258.3679025750
223.2824856033 100.5774354343 202.1772887603
229.6589832555 89.0295974027 237.9075673466
222.5674666749 101.7223208377 211.4995771604
211.4128184156 142.0049051872 232.6753526951
206.9380669932 138.8953058693 220.8685829002
225.7759731499 82.5126926559 248.2300601224
201.3156968116 136.8278592671 237.7401110838
229.6257802716 70.1533889357 247.2786547906
201.9741345810 123.3797012453 239.0742511973
226.3541892578 84.4565173641 235.5455000927
222.8783229485 96.2816654227 215.3556299861
222.2904120986 91.0846050565 236.9137657169
225.5792416577 66.0632421521 256.1182554138
224.9157446979 88.2467432877 220.1197211608
223.1930758390 98.9729735365 199.3827817389
210.2565970564 139.6858178711 232.4411671879
232.5671852329 84.0162605576 246.9180404171
209.2342615577 124.3429637905 212.9477810415
212.2834984965 137.7707883925 225.4559771689
209.6268997972 144.9971920437 235.8242884868
214.1272220551 111.5845649415 238.3041008218
218.4113068699 98.6338707592 204.5571782610
219.3145152107 63.4091928354 265.1597698273
221.0064724876 64.1656515873 256.7792013762
228.8242598942 103.2170856134 209.6486047444
211.5860402028 111.7373408363 201.6151320195
218.9676231152 67.7971032550 252.9932701627
209.3805440243 113.4934430147 205.0815532126
219.0229144577 62.9493389970 261.3277181333
215.8332670079 103.7048724071 203.7324904162
215.9915748858 102.1251656546 202.0784313598
200.7076680521 142.4992427265 236.3704697071
232.7757674998 88.7819341268 231.0780040683
221.1416577686 94.8720917379 199.0319563978
218.3383321086 62.4840861506 259.2270067984
210.4282607499 114.6288062118 242.9430121231
209.8106880808 128.4712556447 242.8771581567
201.7157140719 133.9068462402 238.3174123891
211.3074917433 141.3134882219 239.7444814068
222.2469964629 103.2988985396 203.4947180566
217.5698426126 94.4718177864 218.7477094493
225.7027870361 103.7529947217 207.7238760806
208.0771482333 132.6951886523 220.2731949467
198.7842853002 133.5153745831 237.8435008362
219.6502222348 101.7030352820 200.6592514651
208.9541296472 124.4589716416 214.4733697008
228.6512429551 83.9399703084 247.9919787781
213.1749641336 125.5116370528 209.7200158110
230.4328443592 88.8283330251 246.9652556450
221.3451457274 64.9714159399 246.1726882087
206.9281942869 141.4584342685 237.2781619774
200.3568984930 129.8384755683 247.1307586239
218.2347962310 60.0322881745 251.4670408112
213.4474568737 109.4541926167 206.6083892804
206.9480769470 115.5545402071 206.5800173817
216.5393382087 66.1823421711 265.8938929290
213.4554913528 138.5874411585 237.7699567628
224.5565982923 104.0024357910 214.6590212679
209.4344682366 136.9493364193 224.1442156482
209.2309246527 116.4788256362 243.1520019232
200.8386433791 142.9167644552 239.5360924806
229.6438173860 93.1452567940 228.0575688297
220.4439405150 100.4422003871 200.0160152012
213.6530500080 113.5824645733 241.5501552611
212.4213235430 65.6278525684 247.0107259281
210.3654932710 144.2000664649 226.8718597489
209.2658356785 116.9529461129 208.8274070214
198.6944143790 135.7949578258 244.1071628933
207.9324683287 126.9829958517 238.8945231880
204.6139145598 125.6007997030 241.6923817890
209.8689677828 68.3684587274 257.3695774388
215.2892038257 61.0893300944 262.3860151316
217.3017106850 61.9868637774 253.8630029706
206.1758143801 146.9899251518 241.7621143165
229.4254817835 84.6956817707 235.1709302787
214.4727007508 129.5495123237 210.1465579009
210.4022866460 110.7229705657 237.3789042123
230.4703084129 70.2991713907 243.6200246586
222.8262101006 100.2111929083 213.2320166262
196.6979405144 125.3506372565 246.2844323535
212.1234732610 137.5382304999 222.6489386746
213.3479413719 149.4153824987 228.7386634444
215.0478701289 106.4555477100 207.3813548124
210.1512582582 116.8345279481 242.1874181253
225.7333318954 80.0773477625 242.7576918602
204.2045807268 130.0324779435 243.3792577872
228.9875910823 92.0575568513 222.1979733409
222.9015965005 69.8892940638 260.3022227189
228.3218572679 72.2290009569 242.0812882909
216.0115244623 66.6940971531 261.1996685019
226.1059288258 68.7519181608 255.0775325296
224.6716344607 87.6137884835 227.1267748438
210.8368544895 130.7607064190 214.6265278622
222.3492768947 56.9650947733 255.0862380780
202.9825330151 142.6277549179 241.7523659088
215.9921471394 64.1253001608 253.4930488370
214.6263681020 146.9171677991 230.2192257279
202.5043560422 149.2397250406 241.0808309732
224.6119351209 102.7881011642 208.5708220030
226.3673419312 83.1513054497 238.9670607138
205.6679057507 141.1567406285 220.9211184240
225.2318042770 92.4180738442 239.6171604228
233.7223562348 90.4654734383 235.6327557667
225.4849428027 96.6264259954 208.3778075173
225.4245488801 93.5052493492 225.4125073122
229.7676882769 83.7812308118 240.3526284907
223.4105711874 104.8215092886 213.2636326003
222.9586360395 100.6833484409 209.0167587162
219.3956663213 66.8111911888 245.3853543401
219.5018735512 66.6267038676 248.5414009491
209.4304284037 117.4440553004 242.3574469965
226.4481149704 66.5298472739 257.6354732589
222.8886751877 59.6186316512 252.3087989485
216.8682404636 111.5770791389 203.9506226596
212.7194205095 113.9317072746 203.3903785946
222.1991098372 97.2955967293 197.4590711970
222.7268284121 67.8421232911 250.6418391210
207.7909643621 65.9356719134 259.4608187751
217.8146499586 110.7770146097 243.3300337015
222.3456362519 95.2170265009 199.2217308568
229.2338022191 85.3332491816 228.3598615327
215.5839979122 149.1273552113 226.7564098925
211.9044941825 139.0865202344 238.7733921780
207.3402227942 115.9312090012 248.8565162739
214.4617197662 107.9026746978 243.4143188927
201.0156988396 140.7026531930 235.3272245709
222.2244714806 73.6291132980 246.0007366846
212.5951684727 124.9624280338 207.7182673458
206.8213895043 67.7204382781 257.1826693120
211.5315231672 130.9370330007 208.5080769302
202.6414045086 123.7044519428 245.1954855935
207.0079901043 125.0910958262 206.7103017227
231.9604743787 86.6564308692 236.1881265130
215.6145147506 62.5767419152 249.0845211997
229.1675995824 93.3424497215 230.6510805627
209.9766328164 116.1076141624 243.5023644166
207.7569546245 113.5677461436 249.0875801044
207.0963187553 62.1771902967 258.7723256556
220.2750697717 69.1594141623 253.0375236065
218.1524970632 105.4494629882 204.6731887255
201.6072386889 122.6798833621 242.1643552384
205.5776575247 147.8936266041 241.9577354827
233.8947089231 86.4765251025 233.1783108171
215.9859043887 142.5670881942 228.3432506176
