182.8157653809 42.2059020996 257.1629943848
227.2367095947 24.4597263336 271.2700195312
142.7864685059 42.1612358093 221.2500000000
161.4989471436 57.5281829834 232.5569915771
181.9021301270 46.3669357300 261.2232055664
226.6516876221 39.6673660278 264.2500000000
219.2646636963 29.2923469543 266.0200195312
214.2636260986 14.1669826508 219.8795928955
207.2367706299 26.0220165253 219.4146118164
151.4347839355 46.9153213501 223.0110015869
142.4419250488 47.0189895630 220.1780090332
216.4852905273 10.7069234848 221.6940002441
221.0016632080 22.5793571472 232.4904022217
204.7172241211 45.2153549194 257.2200012207
214.7338104248 35.3272056580 271.0212097168
166.3392181396 51.6375961304 240.4682006836
205.9388275146 11.3540267944 224.0099945068
201.0689392090 26.4758319855 212.2019958496
140.5836181641 43.3269844055 216.2495880127
225.8427886963 34.6289939880 263.9361877441
224.9297485352 14.6599998474 247.2500000000
203.1246643066 20.2023468018 221.5299987793
223.4789581299 17.2381839752 229.1369934082
222.3574218750 18.0398654938 256.4599914551
164.3416900635 52.2473678589 249.5800018311
147.2118682861 46.6275253296 220.0019989014
217.1813964844 17.1399993896 229.1788024902
217.0113983154 14.7399997711 237.5688018799
197.5267028809 44.9097251892 260.1500244141
156.2007141113 56.0566444397 234.0660095215
204.1859588623 38.0588035583 260.9868164062
163.2543029785 56.1640739441 242.0724029541
147.6921386719 46.3169364929 217.6931915283
206.7597503662 16.2000007629 219.1300048828
211.5774230957 17.2598667145 225.0400085449
141.5746612549 36.4523468018 215.5399932861
161.8884582520 53.9262771606 233.1797943115
210.5772247314 16.2853546143 218.6699981689
227.5921325684 18.3069362640 255.4531860352
223.3116912842 16.6273689270 229.7500000000
181.9021301270 46.3669357300 261.2232055664
179.3939971924 44.4722061157 257.4499816895
195.5486145020 43.9056091309 260.2775878906
205.2207183838 26.6866455078 209.5360107422
218.5343017578 15.1540756226 226.6623992920
146.1121978760 39.2698707581 222.8000030518
212.3589324951 34.3858337402 266.4219970703
223.3546600342 13.8123474121 264.1700134277
213.3114013672 10.7799997330 226.2288055420
164.6083831787 56.3479614258 244.3159942627
210.9499969482 37.4352340698 260.3074035645
144.5774230957 51.3998641968 218.5099945068
213.1119232178 10.5089883804 221.9580078125
215.2888183594 12.4740266800 232.2599945068
223.3736267090 21.0669822693 256.2196044922
150.5502929688 43.9598388672 232.4649963379
228.6431884766 23.1145782471 265.5679931641
212.2067108154 41.9097251892 264.4600219727
189.1602935791 41.9898376465 258.8750000000
146.5508728027 51.5129661560 235.0599975586
165.8921356201 53.7769355774 248.2731933594
156.2117614746 54.3268051147 243.7710113525
205.2207183838 26.6866455078 209.5360107422
224.6784667969 27.5562782288 262.9497985840
199.4002838135 42.4098396301 257.1250000000
211.4127807617 33.7989921570 268.9361877441
195.3046569824 23.7823467255 215.9199981689
216.2982788086 35.0433769226 265.5759887695
196.1382598877 44.7073059082 259.2109985352
222.0807342529 17.3999996185 250.8825988770
180.6839904785 47.9922065735 255.2100067139
211.3137969971 34.9272041321 268.6911926270
205.5836486816 41.1078262329 258.9640197754
207.9433898926 15.0898685455 228.7026062012
143.8651428223 49.9099998474 216.4530029297
225.0067138672 39.6497268677 269.3100280762
166.9839935303 49.9822044373 252.5400085449
191.1152954102 43.0069236755 260.9540100098
204.8707122803 42.0066452026 262.9859924316
159.6839904785 51.6722068787 237.9000091553
219.8782653809 30.9073066711 267.7909851074
202.6059570312 18.1388015747 220.1168060303
200.0646667480 23.2923469543 211.2100067139
222.4216613770 22.3293571472 232.3603973389
220.2646636963 13.4423465729 256.2500000000
203.7088165283 42.7440261841 260.3200073242
193.1639556885 44.7900009155 255.8537902832
199.0637969971 24.3472042084 218.4212036133
156.6513977051 53.1399993896 239.0688018799
223.5284576416 21.4162788391 256.5498046875
215.2886047363 16.4356117249 242.9376068115
202.8034667969 23.6830482483 220.6860046387
195.0317687988 43.6468048096 254.2810058594
191.2040710449 47.9928398132 261.0000000000
199.9766845703 38.9799995422 258.0419921875
151.9167175293 49.0897254944 232.9900054932
155.1436309814 56.3069839478 231.6396026611
162.0621948242 51.7998695374 251.3699951172
227.1916961670 19.2173671722 254.9100036621
213.7318572998 33.5775260925 264.0419921875
145.6440734863 46.1728401184 231.0800018311
216.5940704346 15.8128423691 231.8600006104
168.5188293457 51.3340263367 256.1799926758
208.8114013672 36.8899993896 264.9487915039
208.8816680908 18.4493579865 221.5803985596
209.5143127441 17.4540767670 219.3123931885
222.7232818604 16.1881046295 255.1339874268
209.9386138916 40.1756095886 265.8275756836
185.0486145020 47.2617721558 259.3959960938
207.7897491455 20.7000007629 215.1200103760
229.5872344971 15.5553550720 260.4799804688
197.1697540283 25.6499996185 214.2700042725
143.5602874756 41.0398368835 231.7949981689
203.0716552734 22.3993568420 216.4403991699
178.8897552490 45.6800003052 256.8899841309
210.1427764893 38.0589942932 269.5061950684
205.3127746582 25.2089939117 215.5861968994
216.5940704346 15.8128423691 231.8600006104
144.3152923584 41.4369239807 230.9540100098
183.7755737305 47.6359176636 260.3790283203
224.9340667725 34.8128433228 265.8200073242
164.1588287354 52.7440261841 245.0800018311
222.6382751465 13.0733747482 256.3760070801
157.8572235107 61.8853530884 232.1699981689
225.2099914551 33.2252349854 259.5874023438
222.0391235352 16.0258598328 250.7140045166
200.9059600830 22.5188007355 209.8668060303
220.5104675293 36.7769355774 268.6274108887
221.6482543945 11.2473058701 250.8110046387
214.4336242676 40.9069824219 263.9996032715
210.2491302490 39.8358612061 266.9140014648
163.9016876221 55.6973648071 243.0599975586
145.6721343994 39.4669380188 215.9231872559
143.3646545410 42.7323455811 222.1000061035
223.3736267090 21.0669822693 256.2196044922
156.1474304199 57.3098640442 229.0000000000
157.3914031982 55.2400016785 238.5688018799
225.9940643311 37.1228408813 269.5599975586
157.3914031982 55.2400016785 238.5688018799
178.5791320801 51.1858634949 259.9339904785
188.4064636230 46.6512336731 256.0599975586
222.7232818604 16.1881046295 255.1339874268
227.9332733154 18.5981044769 258.3540039062
223.3346557617 27.4723453522 267.1900024414
217.3633117676 39.6026954651 268.5280151367
220.6087493896 14.0359954834 248.4385986328
161.8197479248 55.3499984741 235.5500030518
228.6431884766 23.1145782471 265.5679931641
205.2172241211 21.1853561401 216.1399993896
210.4902801514 41.6198387146 263.7950134277
221.2387542725 16.2859954834 252.9685974121
192.8140716553 40.9428405762 260.5200195312
206.5474243164 42.4298629761 261.1499938965
200.1588287354 37.3340263367 262.0100097656
214.2839965820 13.0622072220 225.6100006104
160.0567169189 56.8197250366 237.0099945068
185.6851501465 42.9399986267 254.6029968262
223.0474243164 23.5198650360 266.3399963379
217.4519195557 12.3389883041 240.9680023193
209.4019165039 32.7189903259 264.5180053711
159.9282836914 48.2933769226 244.9459991455
224.1255798340 8.8659172058 254.8190002441
195.3108673096 26.2329692841 210.1599884033
223.8007202148 19.5466461182 245.1060028076
225.8867034912 15.9497261047 248.9299926758
222.4036254883 40.3569831848 263.5096130371
222.0617675781 11.9568052292 251.0410003662
168.6051483154 54.8100013733 250.0630035400
156.4017639160 55.9568023682 240.7310028076
192.8359680176 38.5588035583 257.6068115234
155.3626403809 47.2868003845 230.9329986572
216.3116607666 41.2793540955 265.3603820801
141.1759643555 41.8188018799 228.6868133545
181.0716857910 47.9173660278 262.8099975586
141.0457611084 41.5158996582 230.9830017090
223.8366851807 27.7000007629 262.4719848633
194.4872283936 43.0753555298 256.1900024414
206.3838195801 17.8784770966 215.8513946533
155.6608734131 50.4329681396 244.6900024414
191.8220672607 38.9180488586 257.8320007324
196.8651428223 24.7700004578 207.6230010986
209.6546630859 32.3323478699 264.2100219727
200.9059600830 22.5188007355 209.8668060303
140.2182769775 37.6733779907 214.9559936523
148.1547851562 42.5353202820 229.5410003662
171.0574188232 47.3098640442 254.0800018311
189.1321411133 49.2569389343 253.7332000732
163.2672271729 56.6153526306 242.2200012207
226.6440734863 27.9828433990 267.6300048828
171.6865844727 54.2416915894 255.3757934570
228.0640716553 13.7328424454 254.2500000000
211.2767028809 14.2397260666 220.8300018311
225.8867034912 15.9497261047 248.9299926758
199.6589660645 44.9492645264 254.6889801025
229.5872344971 15.5553550720 260.4799804688
166.6043090820 58.2440757751 249.2924041748
215.5826416016 36.8167991638 263.4330139160
204.6322021484 23.4398689270 208.0800018311
157.2367706299 57.8920135498 240.3046112061
216.2338104248 37.0572052002 271.2511901855
157.1797485352 54.8600006104 243.0600128174
142.2504730225 42.6869354248 221.3773956299
143.2834777832 47.6230506897 221.9060058594
178.8816680908 52.6193542480 257.6403808594
171.6865844727 54.2416915894 255.3757934570
220.4214019775 35.1899986267 261.2587890625
190.1052856445 51.0069236755 258.2640075684
147.0617675781 52.3068046570 234.0110015869
199.5540771484 41.4728431702 261.7200012207
196.3374176025 28.4098663330 208.8699951172
170.6786041260 51.0856094360 257.8075866699
227.1867065430 19.3697261810 259.5800170898
148.3421325684 44.5369377136 219.3131866455
215.6889343262 12.9758319855 224.8919982910
193.9755859375 42.7159156799 260.8790283203
171.6597595215 49.4500007629 254.8499908447
149.5552825928 43.6169242859 231.7539978027
214.2286071777 39.7456092834 266.2675781250
146.0238037109 41.7872047424 226.3811950684
224.2672271729 11.8253545761 247.6399993896
210.6043090820 16.9040756226 221.3023986816
212.6697845459 36.0857162476 262.0818176270
214.3759613037 8.5388011932 227.5368041992
206.6086120605 17.0656108856 224.0276031494
227.2688293457 28.6340255737 268.2000122070
191.3192138672 52.8375930786 258.0781860352
197.1852874756 40.1669235229 258.2839965820
226.8518676758 37.0675239563 268.0319824219
210.0916900635 39.3373680115 259.3499755859
142.7864685059 42.1612358093 221.2500000000
158.2692108154 51.8075942993 234.2182006836
212.9091339111 16.1558609009 231.1040039062
154.9057617188 51.4258995056 241.7630004883
227.9016876221 19.9473686218 260.5599975586
214.4540710449 33.7528419495 271.4000244141
203.7546539307 13.9923467636 223.2100067139
197.8872222900 28.0253562927 208.3099975586
172.2408599854 56.8829689026 254.1399993896
208.3182525635 43.6773071289 264.2009887695
202.3382720947 18.3533744812 214.6259918213
185.3092041016 47.6075935364 256.9782104492
195.0106964111 41.0810241699 262.9501953125
215.7616882324 14.0273685455 226.1699981689
177.0686187744 49.3917732239 258.7960205078
208.1167602539 16.0720157623 226.7846069336
183.3417663574 44.8268051147 256.3509826660
210.2282714844 32.5933761597 265.5159912109
161.3972320557 55.2853546143 231.4800109863
173.3774261475 47.7198638916 254.1000061035
200.4936218262 24.9069824219 213.5795898438
150.3679199219 48.1976203918 233.4769897461
147.4536285400 49.4669837952 229.8595886230
216.8940734863 13.5328426361 232.0800018311
176.3988189697 48.5140266418 258.6000061035
214.9997558594 12.6999998093 217.4600067139
210.5172271729 41.1753540039 262.2899780273
150.1062927246 49.2786979675 234.0249938965
211.6689453125 42.8281822205 262.5769958496
165.3931884766 55.2745780945 248.0879974365
165.2988281250 52.8840255737 249.1299896240
141.7817687988 42.0368041992 210.3710021973
197.3439483643 20.8500003815 213.3738098145
220.0288238525 14.5540266037 233.2899932861
225.4382781982 14.4933757782 260.5260009766
224.0839996338 14.7722063065 244.7400054932
156.4833068848 54.6826972961 235.1580047607
216.5667114258 18.9797267914 241.0399932861
147.3551483154 50.7700004578 232.7929992676
156.1946563721 47.8723449707 244.5800018311
223.0863037109 8.6687002182 250.6349945068
158.9486083984 55.1156120300 246.8975982666
209.7339935303 14.4022064209 218.9499969482
190.6627349854 53.8001022339 257.1589965820
225.3382720947 12.9833745956 257.0960083008
226.1252899170 13.2869234085 264.4739990234
217.4855804443 7.5759172440 227.3589935303
151.0482788086 49.9633750916 233.7460021973
221.5508728027 20.6829700470 262.5000000000
148.5746612549 43.7023468018 224.9600067139
206.9959564209 13.3288011551 223.8568115234
191.9807281494 44.5299987793 256.6425781250
153.3883819580 54.0179595947 228.6060028076
216.2879180908 38.2776184082 270.4869995117
217.9589691162 18.4892654419 236.7989959717
203.9240722656 26.0228443146 211.4099884033
216.8397521973 16.8799991608 229.1699981689
222.2967681885 40.5720138550 262.5245971680
163.9907073975 55.4966430664 239.7060089111
161.3421325684 54.8769378662 230.8931884766
221.3146667480 19.5923461914 261.6600036621
221.6086120605 18.8656101227 262.7175903320
223.1988220215 14.1140260696 246.2599945068
191.5488281250 43.7140274048 261.2700195312
179.1640014648 43.2822074890 258.7799987793
158.5786132812 50.8056106567 247.6676025391
165.3931884766 55.2745780945 248.0879974365
225.6940765381 20.5628433228 258.3500061035
168.1220550537 50.7380485535 254.6020050049
142.0108642578 45.6329689026 225.8399963379
187.5979156494 53.8576202393 258.3469848633
162.3088226318 51.7540283203 245.6199951172
226.9116821289 14.4173679352 248.3699951172
187.5979156494 53.8576202393 258.3469848633
155.2708740234 53.3929672241 243.3000030518
146.9043121338 44.6940727234 223.9924011230
145.0294036865 50.4825363159 220.6540069580
146.6516876221 45.4173660278 226.0399932861
140.3819274902 41.3689880371 226.7480010986
211.0097503662 34.5200004578 262.0899963379
222.3264770508 14.1912345886 240.5500030518
154.3720550537 47.0903892517 228.8470001221
206.0402832031 22.4398384094 220.4850006104
184.1866760254 50.5999984741 252.8820037842
225.6940765381 20.5628433228 258.3500061035
227.3238220215 20.4784774780 263.5014038086
174.0839996338 48.4422073364 254.7200012207
159.9408721924 50.0029678345 247.5199890137
194.2274169922 41.4498634338 254.1800079346
140.6959686279 38.0788040161 211.6068115234
225.8843078613 20.4440765381 255.3123931885
197.5586242676 28.3117713928 209.8860015869
217.2617645264 21.1968059540 231.0709991455
146.0589599609 44.8881835938 227.9869995117
214.5659637451 35.7888031006 266.9367980957
225.2333068848 26.1426963806 267.1480102539
206.5136260986 25.5869827271 218.4496002197
225.5883941650 23.1479625702 262.5260009766
218.6016845703 12.8673677444 227.5899963379
167.1986083984 54.4256095886 255.6876068115
219.4289398193 10.2858324051 230.8619995117
219.4991302490 19.3558597565 245.7340087891
226.2152862549 26.7769241333 267.5039978027
169.5113983154 54.6300010681 248.8887939453
212.3097534180 15.0299997330 220.7400054932
147.0089569092 47.6081809998 217.4169921875
191.3367156982 46.0797271729 260.9900207520
218.2936248779 21.5669822693 230.2495880127
221.9697570801 21.9599990845 267.8399963379
157.6889648438 58.9192619324 229.2089996338
227.2616882324 16.0973682404 254.1300048828
168.6840667725 59.1028404236 254.3399963379
166.4859619141 51.2588043213 254.7068023682
228.7016906738 13.5173683167 249.6300048828
224.7839965820 20.0522079468 265.4700012207
210.1688232422 21.8540267944 219.4799957275
210.2491302490 39.8358612061 266.9140014648
227.7189331055 13.1758317947 254.8020019531
212.1617584229 35.8968048096 269.4409790039
144.0289764404 41.4792633057 209.5589904785
191.3367156982 46.0797271729 260.9900207520
221.3063049316 26.7386989594 266.3549804688
158.5786132812 50.8056106567 247.6676025391
162.7767028809 56.6397247314 237.2299957275
221.6482543945 11.2473058701 250.8110046387
140.7834777832 43.2230491638 228.1759948730
158.4759674072 53.4588012695 236.8068084717
196.2520599365 38.7703895569 260.4469909668
156.3074188232 62.2698631287 232.7299957275
201.9736480713 25.9278240204 211.3839874268
144.8043060303 45.5940742493 223.6224060059
222.5739593506 39.1199989319 261.3738098145
150.7439575195 48.5699996948 222.2438049316
142.2504730225 42.6869354248 221.3773956299
215.0908660889 15.9229698181 231.5800018311
148.2086181641 54.1917724609 230.1360015869
224.0547790527 30.6453227997 259.9709777832
227.1867065430 19.3697261810 259.5800170898
227.2616882324 16.0973682404 254.1300048828
155.8008728027 55.9829673767 233.3699951172
222.7788238525 16.6540260315 261.6900024414
225.2099914551 33.2252349854 259.5874023438
140.7327880859 42.9389915466 221.1161956787
204.4646606445 37.5323448181 260.8400268555
210.8300018311 11.0108461380 221.8300018311
190.7339935303 48.5522041321 254.8800048828
219.1251373291 19.1800003052 227.9730072021
221.3538055420 20.8672046661 233.8511962891
214.2286071777 39.7456092834 266.2675781250
223.5146636963 29.3823451996 262.6600036621
214.4540710449 33.7528419495 271.4000244141
222.6846618652 21.7123451233 266.9000244141
174.9272308350 47.3353538513 253.5400085449
223.5616912842 27.7173671722 267.6799926758
161.6174163818 56.4098625183 236.3899993896
195.5486145020 43.9056091309 260.2775878906
155.4231872559 48.7445793152 228.3979949951
167.1582794189 50.2933769226 252.1959991455
223.7157592773 16.1559028625 260.7630004883
169.3038024902 52.8472061157 256.5212097168
177.0036315918 52.2469825745 256.2796020508
222.1139984131 16.5222072601 260.2899780273
204.6322021484 23.4398689270 208.0800018311
186.6452941895 41.9469223022 258.2940063477
222.6274261475 18.9098663330 254.8500061035
223.1388244629 35.5840263367 267.3400268555
226.3447875977 19.0153236389 263.5809936523
165.2988281250 52.8840255737 249.1299896240
159.4143066406 51.4440727234 243.2523956299
222.3066864014 15.7600002289 251.2019958496
144.4508666992 50.6829681396 219.9099884033
199.7272338867 41.9153556824 259.4799804688
188.3340759277 47.9228401184 260.9000244141
200.5672302246 25.7553558350 216.3300018311
219.9349975586 22.1769256592 243.4653930664
223.8474273682 39.4198646545 268.4700012207
223.2582550049 14.4773054123 260.0709838867
142.2852935791 38.4369239807 218.2740020752
212.3867034912 39.1097259521 267.2400207520
170.7413940430 56.2500000000 249.9188079834
227.0421447754 12.6069355011 242.4731903076
221.1083831787 19.3379611969 240.2760009766
211.4888153076 11.8740262985 221.1100006104
206.4238281250 23.6784782410 212.4514007568
226.9542999268 30.8540763855 262.7624206543
214.2967071533 40.7197265625 268.7000122070
225.2333068848 26.1426963806 267.1480102539
163.6736297607 60.7169837952 251.3896026611
226.2152862549 26.7769241333 267.5039978027
150.4108734131 55.0929679871 231.5899963379
151.6188201904 46.1940269470 230.2200012207
150.4667663574 50.0220146179 223.3946075439
148.9446563721 47.3823471069 226.1199951172
222.1416625977 19.1293582916 240.3603973389
149.4182739258 49.5233764648 231.6360015869
224.2183837891 16.4579620361 248.1660003662
166.6092071533 54.0575942993 241.1681976318
224.1352844238 14.2869243622 247.0839996338
202.2146606445 22.2123451233 219.5099945068
150.9640655518 45.3728408813 228.5999908447
219.7557678223 27.4059028625 267.5729980469
226.4488220215 15.2640266418 254.9700012207
210.0916900635 39.3373680115 259.3499755859
214.3367614746 17.1720161438 220.7646026611
224.9527740479 20.1789951324 265.4961853027
221.6097564697 17.7299995422 259.7299804688
222.4736175537 12.2969827652 249.7395935059
183.3659667969 48.3188018799 255.6567993164
189.1839599609 48.1500015259 254.3837890625
200.5672302246 25.7553558350 216.3300018311
156.2447814941 50.4853210449 233.4510040283
169.0067138672 57.4597244263 253.7099914551
162.7433929443 58.0398674011 248.1526031494
212.7786102295 11.3356113434 229.8576049805
159.3597564697 55.2700004578 229.1800079346
208.1489715576 44.2892646790 256.7690124512
205.5033111572 25.3126945496 210.6280059814
222.3692626953 28.1291999817 263.7842102051
213.8486022949 15.5256118774 231.5675964355
200.7986145020 43.7017745972 257.6459960938
224.2367095947 25.7997264862 267.7799987793
224.6936492920 22.5078239441 261.7140197754
176.4020538330 48.5680503845 256.2120056152
217.1813964844 17.1399993896 229.1788024902
174.6743011475 52.1840744019 255.2523956299
209.9386138916 40.1756095886 265.8275756836
199.5886077881 40.4456100464 263.4175720215
221.8859558105 9.3688011169 250.6468048096
155.6421356201 51.8669357300 230.2131958008
207.9616851807 19.4273681641 217.1999969482
220.2033996582 31.8298702240 265.8226013184
206.3131866455 17.6445770264 217.5379943848
210.7489624023 44.1592636108 261.3590087891
198.1267089844 26.9397258759 215.9499969482
207.7455749512 9.1659173965 223.9989929199
156.3259582520 50.5588035583 245.0768127441
191.0746612549 39.9623451233 259.4000244141
198.5086059570 39.8656120300 262.4475708008
184.1082611084 45.6073074341 260.7309875488
163.1672210693 56.0253524780 235.8300018311
220.8043060303 20.9440765381 229.3423919678
170.1040649414 54.5428428650 255.9199981689
228.1531829834 17.5245780945 256.0879821777
226.9888153076 28.1140270233 264.4000244141
160.6797485352 54.2099990845 249.3400115967
172.9243011475 57.3440742493 250.3724060059
227.7416839600 23.6773681641 263.6499938965
210.7489624023 44.1592636108 261.3590087891
191.2359619141 39.6888046265 258.8768005371
221.7216644287 19.7193565369 245.7304077148
220.6787414551 19.2959957123 258.2185974121
157.7489624023 61.4992637634 231.1490020752
188.3267669678 54.6220130920 257.6945800781
187.6946563721 43.8623466492 261.5900268555
146.7459564209 44.1488037109 230.8468017578
216.4852905273 10.7069234848 221.6940002441
194.2274169922 41.4498634338 254.1800079346
145.3467102051 51.1997261047 217.7200012207
139.6746673584 38.0723457336 215.6600036621
223.0667572021 21.3120174408 263.1945800781
189.2543029785 53.4640731812 253.4624023438
176.7986145020 51.0856094360 258.5475769043
151.3639984131 41.8722076416 223.7799987793
156.7682647705 59.9973068237 235.1610107422
195.5634002686 42.4598693848 262.8425903320
144.1139984131 41.1222076416 218.8500061035
211.8192138672 36.1775932312 261.4581909180
199.6572265625 28.0053558350 210.3200073242
152.3316650391 55.8893547058 231.6304016113
226.4892120361 22.0275936127 271.0682067871
148.2046661377 51.8623466492 229.9499969482
202.9572296143 27.3953552246 207.5100097656
224.8414001465 25.4400005341 263.1588134766
155.0239562988 49.4500007629 227.8937988281
163.0582733154 51.5733757019 248.7460021973
169.5097808838 52.0257148743 256.2218017578
151.4686126709 54.5956115723 233.4275970459
223.2791290283 26.2858600616 266.7839965820
178.3167114258 52.7997245789 257.0700073242
152.8674163818 55.7798652649 230.9100036621
179.3939971924 44.4722061157 257.4499816895
221.6516876221 12.6873683929 240.7500000000
184.7707214355 51.9866447449 258.1559753418
202.7736511230 21.6878242493 218.5540008545
153.3816833496 45.9973678589 231.9199981689
166.3498077393 53.3567504883 248.9400024414
223.6534729004 32.7930488586 268.2259826660
169.2240753174 56.4028396606 254.5499877930
169.8333892822 53.5198669434 257.3725891113
167.0208740234 52.7529678345 256.4599914551
210.7049865723 18.1669254303 226.3553924561
196.1717681885 26.4768066406 215.5010070801
205.3697814941 9.6157150269 223.2317962646
221.0739593506 20.0100002289 240.7138061523
141.0457611084 41.5158996582 230.9830017090
152.1338043213 52.2972030640 236.9212036133
226.5667114258 33.9297256470 266.8000183105
147.1631927490 43.5845794678 218.7279968262
217.6040649414 18.6628437042 239.8799896240
219.4459686279 15.4588012695 244.1768035889
216.7849884033 17.8869266510 243.0153961182
220.0474243164 35.8498649597 262.0399780273
202.5717620850 42.0468025208 256.0409851074
174.0363006592 44.4786987305 254.4250030518
143.2802886963 36.9098396301 211.3750000000
223.5788269043 17.6440258026 231.6299896240
208.8943023682 44.7240753174 257.8124084473
223.5788269043 17.6440258026 231.6299896240
219.7232818604 21.8581027985 230.8840026855
228.8088226318 12.4640264511 263.1400146484
146.0238037109 41.7872047424 226.3811950684
209.7779235840 21.5876216888 218.8470001221
209.8449859619 39.5069274902 268.3554077148
222.2386169434 17.9017715454 256.6159973145
197.9214019775 24.3199996948 206.8887939453
148.0272216797 44.7653541565 220.1300048828
222.1772308350 14.8653545380 255.1299896240
201.6291351318 19.3658599854 217.2239990234
150.1062927246 49.2786979675 234.0249938965
217.6989593506 13.3881826401 220.2269897461
178.5036315918 52.3969841003 256.5596008301
151.8127288818 54.6301002502 234.4789886475
216.8627319336 37.6901016235 269.9990234375
189.1767120361 50.1997261047 259.4800109863
206.7046661377 44.1423454285 262.5400085449
160.9508666992 53.9029693604 247.5199890137
152.3840789795 48.7328414917 231.7699890137
215.4046630859 17.7923469543 231.7799987793
174.7236480713 52.1878280640 255.2339935303
155.8186035156 58.8956108093 233.3576049805
144.3638000488 40.2372055054 218.1911926270
225.1072235107 35.2553558350 263.5799865723
156.6255798340 47.9759178162 230.5789947510
152.8674163818 55.7798652649 230.9100036621
163.4021911621 52.2498703003 238.2500000000
210.7489624023 44.1592636108 261.3590087891
221.7908630371 18.4429702759 247.5099945068
224.2313995361 14.0000000000 247.2687988281
143.7943115234 40.3840751648 209.7924041748
157.1627807617 52.4589920044 236.1361999512
203.8359680176 12.3888015747 221.8868103027
199.8152923584 22.5769233704 210.0639953613
200.2997589111 24.6200008392 205.9700012207
226.2640686035 19.4128437042 263.1600036621
188.1167144775 48.9797248840 260.0600280762
221.6343078613 21.5840759277 230.2223968506
171.1959686279 45.0888023376 256.3668212891
219.1940002441 14.9822072983 236.8600006104
169.5121917725 50.1398696899 253.5099945068
138.8399963379 42.4752349854 212.7873992920
226.8738098145 30.2372055054 268.7611999512
151.1040039062 41.0922050476 225.9000091553
217.5608673096 9.3329696655 230.3099975586
196.3217620850 45.7468032837 257.1809997559
226.6167144775 27.3397254944 264.8300170898
143.2074279785 49.9798622131 220.2900085449
167.7832794189 56.5581054688 248.4640045166
171.2940673828 57.6828422546 254.7799987793
155.3089752197 44.4492645264 221.7789916992
217.1702880859 34.2598381042 270.4050292969
149.1397552490 44.4500007629 223.5600128174
167.4036254883 55.5869827271 253.4196014404
202.8959655762 19.5288009644 218.3668060303
149.1397552490 44.4500007629 223.5600128174
175.6116943359 49.2173652649 259.3899841309
207.7455749512 9.1659173965 223.9989929199
155.3974304199 54.1098632812 241.9000091553
221.8788299561 14.5640268326 245.0000000000
198.0027313232 46.0801010132 258.3990173340
205.9182739258 37.3133773804 259.6260070801
223.9516906738 17.2073688507 239.6800079346
215.0383911133 17.0779628754 225.8459930420
223.2582550049 14.4773054123 260.0709838867
191.3772277832 48.4353523254 258.7599792480
203.9367675781 43.7220153809 255.6746063232
209.7947845459 34.8553199768 260.6909790039
158.3151397705 54.7299995422 237.7630004883
220.6051483154 17.5900001526 227.5130004883
205.7962951660 10.7786998749 221.4649963379
223.7482757568 8.7333745956 251.6959991455
215.1382598877 17.2573070526 241.7510070801
212.7146606445 32.7723464966 270.2800292969
149.7014007568 44.8800010681 223.1087951660
217.0886230469 22.5117721558 231.8359985352
216.3116607666 41.2793540955 265.3603820801
177.4186096191 49.6256103516 262.8775939941
222.3692626953 28.1291999817 263.7842102051
199.6488189697 43.2040252686 257.6400146484
154.4564666748 48.4712333679 231.7900085449
148.8108673096 44.7929687500 225.8000030518
207.2898101807 40.0267524719 256.7999877930
204.2888183594 21.5440273285 215.8199920654
208.8943023682 44.7240753174 257.8124084473
156.6986083984 50.9056091309 246.4275970459
198.2833099365 40.0126953125 262.2879943848
163.3017578125 59.4568023682 250.9110107422
159.3408660889 55.5129661560 247.1699981689
206.9408721924 45.2329673767 263.3800048828
170.1040649414 54.5428428650 255.9199981689
220.8991241455 20.2058601379 260.7939758301
227.9542999268 24.9640769958 267.3524169922
202.6746673584 17.8623466492 220.4700012207
209.5739593506 38.9300003052 259.2538146973
172.2792053223 53.4575958252 249.8481903076
201.1425781250 41.9000015259 256.2179870605
215.8546600342 36.0523452759 264.8600158691
222.9602813721 17.6398391724 231.8150024414
212.7566833496 39.2500000000 261.4219970703
167.4572296143 55.0753555298 248.8400115967
218.2452850342 12.3169240952 229.3840026855
196.3374176025 28.4098663330 208.8699951172
226.7867126465 26.9097270966 266.5000000000
151.4797515869 44.5099983215 222.3899993896
224.0833129883 18.1726951599 246.1979980469
224.6784667969 27.5562782288 262.9497985840
160.6072235107 59.4553527832 233.5700073242
169.6338043213 54.2472038269 256.1412048340
150.5502929688 43.9598388672 232.4649963379
218.4472351074 15.4153547287 226.5000000000
160.2167053223 60.0697250366 234.9700012207
198.5516815186 43.3773651123 259.5899963379
165.3392181396 50.9975967407 252.9682006836
176.0347747803 47.0053215027 253.5410003662
186.7436218262 54.0869827271 254.3695983887
152.8372344971 50.2453536987 225.6500091553
207.9338073730 12.0472049713 224.3912048340
197.1355743408 38.3759155273 263.7390136719
139.7422027588 38.9698715210 214.2200012207
207.9433898926 15.0898685455 228.7026062012
145.8189697266 50.8892631531 216.8589935303
227.7099914551 15.6952371597 257.1174011230
216.9239959717 35.5922050476 264.0199890137
196.9872283936 26.5653553009 208.1999969482
178.7608642578 48.5029678345 263.9300231934
228.3692169189 20.3375930786 264.3482055664
202.4019165039 21.8289890289 219.2580108643
199.4079132080 44.3076210022 257.9369812012
197.8618621826 40.6575241089 255.0519866943
225.9842987061 15.5340747833 241.0124053955
163.8165893555 54.6916923523 254.0757904053
198.5602874756 23.2098388672 210.4649963379
168.3143005371 59.6240730286 249.9324035645
161.7140045166 51.7422065735 237.6100006104
206.7597503662 16.2000007629 219.1300048828
204.1439971924 38.9922065735 259.6599731445
160.1040649414 55.9228401184 234.5499877930
202.3020629883 19.3380508423 219.2820129395
199.3442993164 25.0640754700 214.7924041748
215.0455780029 35.6359176636 262.8490295410
228.1627349854 18.7601032257 261.2790222168
222.7738037109 20.6172046661 233.7211914062
207.3786010742 15.0956115723 225.2176055908
226.6388244629 26.6740264893 267.0700073242
223.5116577148 21.8593578339 261.3903808594
191.1238098145 45.1272048950 261.8612060547
181.0327758789 46.2489929199 263.8662109375
176.3988189697 48.5140266418 258.6000061035
157.6889648438 58.9192619324 229.2089996338
214.9339904785 9.5022068024 221.1000061035
204.7172241211 45.2153549194 257.2200012207
207.9916534424 46.6893539429 261.1103820801
148.6427764893 42.7689933777 224.3562011719
198.5086059570 39.8656120300 262.4475708008
151.4686126709 54.5956115723 233.4275970459
185.4574279785 47.0998649597 260.5799865723
204.5497589111 15.4399995804 220.2799987793
210.1440734863 35.6128425598 269.6000061035
152.3788299561 47.4240264893 231.2099914551
197.1697540283 25.6499996185 214.2700042725
173.2438049316 47.9072036743 259.8612060547
167.2066802979 52.7500000000 250.5220031738
149.6766815186 49.7799987793 226.2919921875
182.0343017578 50.6640739441 255.3524017334
221.1707153320 20.5866451263 245.0060119629
211.4127807617 33.7989921570 268.9361877441
223.0774230957 25.5698661804 266.9399719238
154.2799987793 47.5652351379 222.6273956299
140.8383941650 41.4179611206 213.8560028076
164.0607147217 57.2666435242 248.8160095215
151.6659698486 40.1188049316 224.4067993164
177.6819152832 44.1889877319 259.4380187988
219.2939910889 34.3622055054 263.2899780273
158.7416839600 48.3773651123 244.3000030518
143.6097564697 41.0600013733 222.5700073242
220.9867095947 16.2597274780 257.9200134277
224.2816619873 40.7293548584 264.8703918457
157.3625793457 52.5400009155 237.9580078125
220.7797851562 26.0857162476 265.2817993164
218.2452850342 12.3169240952 229.3840026855
159.0387420654 51.8059959412 234.8486022949
180.5892181396 49.7975959778 261.6781921387
187.8489685059 54.4992637634 255.0989837646
213.9507141113 17.3566455841 224.3560028076
143.7872314453 45.3053550720 217.9199981689
198.5086059570 39.8656120300 262.4475708008
195.5408630371 24.8729705811 216.7599945068
228.2397613525 14.8800001144 260.1999816895
172.2408599854 56.8829689026 254.1399993896
205.2126464844 22.4368019104 213.7030029297
203.1239929199 19.0622081757 213.0100097656
205.0155792236 15.4459171295 216.3690032959
194.9682769775 37.7633781433 257.6759948730
213.5852813721 35.9069252014 265.9039916992
195.0099945068 45.7152366638 256.2373962402
188.7639923096 43.4022064209 260.7500000000
216.4719238281 8.6189889908 228.9580078125
202.5887451172 17.1259956360 216.2686004639
141.6046600342 42.4123458862 231.7500000000
214.5051422119 11.9600000381 217.5530090332
171.9743041992 48.0240745544 254.5023956299
202.5774230957 24.0198650360 218.9499969482
227.4655761719 13.2959175110 259.4190063477
143.9616546631 43.4093551636 212.6004028320
199.8152923584 22.5769233704 210.0639953613
202.6097869873 36.9057159424 263.2417907715
218.2733917236 18.1898689270 237.2826080322
164.7116851807 53.3173675537 247.5200042725
224.7127380371 34.4501037598 266.4990234375
203.4807128906 26.2266445160 212.4759979248
161.4888153076 52.3040275574 243.6699981689
201.6322021484 21.9298686981 207.8000030518
204.9927825928 38.2489929199 264.7761840820
142.6398162842 35.8567504883 213.3999938965
147.5919189453 51.1189880371 231.0880126953
181.1621398926 48.6769371033 261.0632019043
197.5586242676 28.3117713928 209.8860015869
219.0594024658 22.9025344849 233.2640075684
227.5083923340 31.1079616547 264.1960144043
212.3097534180 15.0299997330 220.7400054932
219.7232818604 11.0381040573 227.0540008545
211.4387512207 14.7659969330 228.6786041260
224.9097595215 17.5200004578 241.5800018311
178.3308715820 44.8329696655 260.4600219727
155.6284637451 49.8962783813 228.4297943115
192.8483886719 46.7279586792 257.2360229492
157.9682617188 54.1173057556 246.5810089111
219.7227783203 35.7089920044 269.2461853027
197.6316680908 45.4393539429 259.3703918457
144.3638000488 40.2372055054 218.1911926270
225.8427886963 34.6289939880 263.9361877441
223.2940673828 18.3328437805 247.7899932861
223.3159637451 12.7888011932 249.5368041992
226.0389709473 12.0792655945 248.7689971924
160.2138061523 52.6572036743 247.5511932373
161.7574310303 56.9498634338 251.7400054932
213.1152954102 12.2969236374 226.1739959717
225.2527313232 41.0901031494 265.4990234375
161.2943115234 51.3440742493 244.4924011230
184.3663024902 41.5387001038 255.9449920654
209.4572296143 40.2553558350 258.5099792480
143.8216552734 43.4793548584 216.9604034424
146.7616882324 50.0973663330 218.7899932861
220.8388214111 11.8540267944 241.5899963379
155.1716918945 39.7273674011 221.2299957275
219.5621337891 13.6669359207 228.0231933594
198.5602874756 23.2098388672 210.4649963379
205.0321350098 23.3369350433 209.4131927490
148.8799896240 43.3752365112 221.2873992920
152.0816650391 51.0893554688 228.0304107666
155.5789489746 40.3781814575 225.2469940186
205.8279113770 14.9276218414 223.8970031738
211.6836242676 17.0869827271 224.4295959473
210.3197479248 12.9499998093 219.1500091553
156.5988159180 51.1040267944 241.4899902344
192.8088226318 39.6340255737 259.9600219727
163.6408691406 55.2529678345 253.2699890137
205.0321350098 23.3369350433 209.4131927490
141.2952880859 37.8869247437 217.2239990234
156.6667175293 61.9697265625 232.0599975586
197.1697540283 25.6499996185 214.2700042725
186.5086059570 53.4756088257 257.8975830078
222.7122039795 31.6498699188 261.8800048828
163.6897583008 59.6399993896 251.3300018311
165.7613983154 57.4099998474 248.7288055420
145.3467102051 51.1997261047 217.7200012207
225.5721435547 34.5669364929 264.3631896973
167.1986083984 54.4256095886 255.6876068115
196.0436248779 45.5569839478 255.8495941162
221.2008666992 11.5729694366 250.5399932861
160.0899963379 51.5308456421 240.5200042725
214.8234710693 11.6830492020 231.0160064697
171.0767059326 58.7397270203 253.9400024414
206.2167053223 22.1997261047 221.0800018311
216.2367095947 41.4297256470 264.5900268555
153.0143127441 45.1940727234 223.0323944092
199.2051391602 25.0699996948 207.2929992676
224.8121337891 17.0569362640 245.4331970215
145.8633880615 42.5898666382 228.9326019287
199.6672210693 43.8353538513 254.6300048828
141.7817687988 42.0368041992 210.3710021973
215.6579132080 34.4676208496 270.5870056152
190.9159698486 40.8388023376 257.8468017578
143.1267089844 44.4497261047 232.0299987793
145.6267089844 46.9497261047 226.5999908447
206.2520599365 16.8680515289 223.0520019531
210.5121307373 21.9369354248 217.0932006836
199.9766845703 38.9799995422 258.0419921875
206.2999877930 20.1452369690 214.1673889160
207.9916534424 46.6893539429 261.1103820801
218.9291229248 18.9058589935 242.8240051270
221.2767639160 28.5620174408 264.5145874023
195.6674194336 25.5898666382 215.3600006104
217.5888214111 35.7240257263 265.4200134277
153.2788238525 46.2640266418 228.8799896240
228.0816955566 29.4673671722 267.3599853516
191.5036315918 43.7669830322 256.9396057129
154.8327789307 53.4089927673 236.5161895752
154.0427856445 46.9589920044 225.6961975098
138.4859619141 38.4188041687 216.3168029785
222.9831848145 16.9545783997 234.0379943848
217.2716674805 18.5693569183 239.7004089355
225.5540771484 13.4528427124 260.4500122070
141.8540039062 40.8322067261 229.7600097656
181.4016571045 51.6593551636 257.6203918457
200.8991241455 39.3758621216 263.4639892578
176.5133056641 51.1126976013 257.4179992676
183.5266876221 50.3100013733 255.9719848633
153.6940002441 38.7622070312 220.6699981689
220.4540710449 18.9328441620 234.9599914551
197.2397918701 22.3257160187 208.3818054199
213.0972290039 34.4153556824 263.7599792480
193.8646545410 39.6423454285 254.7400054932
221.5325927734 23.0499992371 266.9779968262
169.2952880859 50.7269248962 255.6139984131
201.1751403809 40.5299987793 256.4630126953
219.2939910889 34.3622055054 263.2899780273
141.8739929199 40.9422073364 224.9300079346
216.2367095947 41.4297256470 264.5900268555
205.9085998535 45.1556091309 262.0175781250
144.9739990234 39.8422050476 224.6699981689
160.5789642334 58.8592643738 231.3389892578
150.9808654785 52.4129676819 236.6699981689
210.0140686035 21.0128440857 219.0199890137
144.6088256836 40.7140274048 217.6100006104
213.6857604980 10.8759021759 219.5830078125
192.5559692383 39.6888046265 259.7668151855
142.0836181641 43.0369834900 211.2395935059
217.5988159180 10.4840269089 230.8099975586
212.6739959717 12.0622072220 224.8600006104
211.5139923096 33.3122062683 262.6499938965
148.2086181641 54.1917724609 230.1360015869
196.8651428223 24.7700004578 207.6230010986
220.4208679199 16.2829685211 257.1600036621
205.0651397705 12.5299997330 220.6529998779
214.2839965820 13.0622072220 225.6100006104
164.7304687500 53.6769371033 242.6673889160
143.7789459229 38.3058319092 216.7319946289
163.6897583008 59.6399993896 251.3300018311
159.0636291504 56.3869819641 235.8995971680
224.7182769775 28.7233753204 262.3160095215
223.5349884033 19.6369266510 251.9453887939
166.7846679688 51.6623458862 255.6199951172
208.7359619141 33.6788024902 265.4667968750
189.2543029785 53.4640731812 253.4624023438
207.0634002686 25.0398693085 221.3326110840
228.6121368408 13.4069356918 250.0932006836
183.7765808105 51.1016921997 258.5857849121
214.9339904785 9.5022068024 221.1000061035
150.9207153320 51.4566421509 228.4759979248
214.9088287354 11.0740261078 224.3699951172
143.4074249268 42.1198654175 223.4100036621
223.9443054199 18.3340759277 241.8524017334
227.4218597412 16.1275253296 242.4919891357
194.5682830811 37.8133773804 256.2460021973
157.7882537842 50.1073074341 246.8410034180
196.6286010742 24.5256099701 217.9676055908
183.1646575928 48.2223472595 255.5599975586
225.2527313232 41.0901031494 265.4990234375
220.9646606445 10.4823465347 249.6999969482
225.7338104248 13.3772048950 244.7411956787
159.9346618652 53.9123458862 242.0399932861
153.0967102051 55.7397270203 233.2400054932
227.4516906738 27.5073680878 266.2299804688
179.4140014648 46.8722076416 256.6799926758
206.7679138184 12.8676214218 224.3069915771
228.0521392822 25.0469360352 264.9732055664
225.6267089844 41.1997261047 264.8100280762
222.0807342529 17.3999996185 250.8825988770
191.1238098145 45.1272048950 261.8612060547
209.7779235840 21.5876216888 218.8470001221
167.9134674072 56.5330505371 254.3260040283
213.5852813721 35.9069252014 265.9039916992
210.2002868652 10.2198390961 222.2449951172
165.0917663574 60.8468055725 251.5510101318
225.2333068848 26.1426963806 267.1480102539
222.0594024658 17.2325363159 257.5139770508
165.2255859375 50.4959182739 241.6190032959
227.7099914551 10.9508457184 253.8500061035
218.2721405029 34.2169380188 268.7232055664
145.8416900635 39.3673667908 216.3099975586
152.1117553711 43.3468055725 221.2210083008
189.4631805420 47.7345771790 254.9679870605
220.0886230469 16.8417720795 256.0859985352
228.2372283936 14.1753549576 252.0100097656
222.0807342529 17.3999996185 250.8825988770
192.7589569092 50.1381835938 254.6770019531
197.7543029785 43.8340759277 254.5223846436
212.9091339111 16.1558609009 231.1040039062
222.7738037109 20.6172046661 233.7211914062
143.7872314453 45.3053550720 217.9199981689
227.5151367188 14.5299997330 260.4630126953
211.2867584229 18.5520172119 228.1346130371
221.6884613037 20.4662780762 241.3797912598
204.3137969971 25.4772052765 211.3511962891
144.0814056396 44.9599990845 223.3287963867
197.6016845703 39.4573669434 258.6899719238
202.6746673584 17.8623466492 220.4700012207
163.9016876221 55.6973648071 243.0599975586
224.4647827148 20.7053241730 270.3009948730
222.6827850342 20.3289947510 244.1661987305
209.4842987061 23.4240760803 215.7324066162
183.2636566162 51.6878280640 257.0639953613
220.8146667480 22.6323451996 270.1300048828
210.7897796631 16.0757160187 228.9018096924
201.9488220215 22.1640262604 217.5399932861
217.3867034912 19.7197265625 239.0399932861
147.2486114502 48.3056106567 232.1275939941
146.7121429443 42.9469375610 219.6331939697
200.0808715820 41.9729690552 261.6600036621
227.0716857910 18.9373683929 261.7599792480
184.7514038086 43.6899986267 255.1188049316
227.0040740967 25.8528442383 267.3399963379
169.4489593506 55.9681816101 250.0370025635
149.5191345215 46.6558609009 225.8139953613
200.4489440918 24.5658321381 218.9620056152
143.9046630859 40.3023452759 225.5099945068
222.7313995361 38.6399993896 262.1488037109
185.6246643066 48.5023460388 253.0899963379
149.5191345215 46.6558609009 225.8139953613
162.0621948242 51.7998695374 251.3699951172
170.3764648438 50.3112335205 255.3300018311
204.5882568359 13.0273056030 223.9010009766
159.3597564697 55.2700004578 229.1800079346
145.4216918945 41.5473670959 216.7700042725
201.4536285400 41.5369834900 256.6296081543
213.6759643555 11.2388010025 220.7868041992
220.0936279297 36.9069824219 262.6195983887
170.7451477051 55.3899993896 249.1730041504
209.9216613770 17.4093570709 221.2604064941
167.1986083984 54.4256095886 255.6876068115
195.7367706299 43.4420166016 260.9245910645
183.2847747803 46.2853202820 256.2109985352
212.8749847412 18.8669261932 229.2854003906
222.1414031982 18.3099994659 259.0888061523
142.7933044434 43.8626976013 221.9779968262
207.9620666504 37.4180488586 263.4519958496
157.8572235107 61.8853530884 232.1699981689
180.6682739258 47.6133766174 255.8059997559
223.4398040771 14.0467519760 256.1399841309
206.4340667725 21.1428432465 221.9199981689
210.3197479248 12.9499998093 219.1500091553
166.1179199219 56.1576194763 252.4169921875
201.0946655273 21.9223461151 211.5299987793
174.5516815186 56.2973670959 253.0200042725
150.5502929688 43.9598388672 232.4649963379
215.8372344971 16.2753562927 224.4499969482
206.4340667725 21.1428432465 221.9199981689
214.2967071533 40.7197265625 268.7000122070
151.0588226318 46.0340270996 228.0899963379
224.7274169922 15.7198657990 248.0899963379
152.9643096924 54.8940734863 229.3623962402
223.2797546387 24.5100002289 266.0999755859
224.8089752197 17.2992649078 241.4290008545
166.1097564697 54.4000015259 248.5600128174
171.6865844727 54.2416915894 255.3757934570
143.7316894531 37.2473678589 210.4499969482
138.8686065674 40.1856117249 217.6775970459
189.5337982178 48.2172050476 261.0212097168
214.8063049316 8.3586997986 226.2550048828
205.5716552734 42.3893547058 261.8103942871
152.1252899170 50.1769218445 236.0140075684
203.6482543945 15.0873060226 223.4910125732
222.7488250732 26.8840255737 268.5200195312
175.6116943359 49.2173652649 259.3899841309
153.1897583008 39.9700012207 220.1100006104
165.1121368408 54.1369361877 244.5831909180
149.1686096191 45.4356117249 226.7375946045
216.8627319336 37.6901016235 269.9990234375
177.6726379395 48.3167991638 255.9629974365
179.3939971924 44.4722061157 257.4499816895
227.5083923340 31.1079616547 264.1960144043
226.6440734863 27.9828433990 267.6300048828
216.5667114258 18.9797267914 241.0399932861
216.2227783203 16.0389938354 223.0661926270
151.1316680908 54.5093536377 233.4703979492
210.3659667969 12.5088014603 223.7768096924
151.0907287598 47.2400016785 222.5726013184
148.1367034912 49.8797264099 228.0099945068
227.2802886963 13.0498390198 264.3950195312
175.9307250977 49.9199981689 253.0426025391
144.6443023682 40.9540748596 214.5623931885
221.4313964844 13.1099996567 240.5688018799
216.4421386719 14.9069356918 225.7831878662
165.9092102051 57.2375946045 246.6181945801
142.1998138428 40.5867500305 225.3199920654
143.9616546631 43.4093551636 212.6004028320
180.2640686035 48.3928413391 264.2100219727
154.4564666748 48.4712333679 231.7900085449
207.7527770996 10.9589948654 224.7661895752
219.4646606445 14.2223472595 257.6400146484
214.2286071777 39.7456092834 266.2675781250
225.8189697266 40.1992645264 263.4690246582
219.0936431885 19.8378238678 241.0039978027
224.7440032959 11.8722066879 248.1500091553
213.3146667480 10.7523469925 219.4400024414
165.8582763672 51.1333770752 251.8860015869
211.4697875977 9.6757144928 228.5218048096
167.1808624268 59.2129669189 254.0599975586
212.8139953613 13.8222064972 221.3000030518
217.3927307129 19.3801040649 238.8289947510
184.7514038086 43.6899986267 255.1188049316
177.1574249268 52.5698623657 256.2299804688
157.8572235107 61.8853530884 232.1699981689
143.5659637451 45.4988021851 218.1468048096
204.3516845703 25.4273681641 207.1399993896
195.1367034912 43.2197265625 259.8800048828
213.3959655762 12.3888015747 230.8568115234
152.4840698242 52.3028411865 236.9499969482
146.4567108154 46.4897270203 222.1699981689
191.4474182129 42.6698646545 256.3699951172
200.4936218262 24.9069824219 213.5795898438
154.4564666748 48.4712333679 231.7900085449
183.5274200439 50.0298652649 255.0000000000
228.4349975586 25.9069252014 269.4554138184
201.9488220215 22.1640262604 217.5399932861
217.3131866455 37.8445777893 263.5579833984
148.2736206055 53.1969833374 232.0895996094
220.5846557617 32.8023452759 264.7000122070
224.6697540283 39.9099998474 263.1300048828
146.4567108154 46.4897270203 222.1699981689
222.3116607666 31.8393573761 268.1004028320
213.1667633057 38.5620155334 261.3146057129
208.5974273682 40.7898635864 264.3499755859
220.3516845703 9.4573678970 227.6300048828
207.8959655762 35.6788024902 267.2167968750
196.0452880859 37.9769248962 259.9440002441
164.4700012207 52.2552375793 251.8173980713
226.5572357178 20.1353549957 254.0700073242
207.6197814941 13.5957145691 227.5518035889
163.1216888428 52.5873680115 244.7799987793
185.4182586670 54.0173072815 257.9409790039
157.1827239990 62.3901023865 233.1790008545
204.4088287354 17.5340270996 221.0299987793
202.4447784424 36.9853210449 256.0609741211
144.9102935791 42.6398391724 231.3249969482
181.8197784424 46.9157142639 257.3618164062
212.6221313477 34.1569366455 266.4231872559
205.9346618652 40.7023468018 257.3300170898
146.6286163330 49.9117736816 227.8159942627
211.5821380615 14.9269351959 220.3531951904
174.1740722656 52.3728408813 257.8399963379
206.4238281250 23.6784782410 212.4514007568
165.8582763672 51.1333770752 251.8860015869
189.1767120361 50.1997261047 259.4800109863
140.7857666016 36.5359001160 213.5630035400
203.4874267578 22.0098667145 220.9700012207
215.8816680908 38.7693557739 269.8903808594
228.2116851807 17.8373680115 259.0199890137
222.1640014648 8.9722070694 251.0400085449
217.5888214111 35.7240257263 265.4200134277
221.3339996338 12.9822063446 255.4099884033
168.4616851807 50.9473648071 253.1000061035
