213.1939800988 137.0440347472 199.8033390440
226.2930358329 83.3816791390 221.7128196557
224.6724522589 86.9334880667 211.6537993930
221.3197094936 66.7303848389 271.3303404336
212.8502437876 95.7593145152 215.4198998384
192.9126574499 116.3490826892 257.5817892405
216.1387907792 121.4801710313 208.2521798100
225.9514162612 72.4221602293 228.4030069253
224.6977828156 69.3624441067 247.7433655897
228.0302557507 65.7439319830 255.5053723271
224.5533502924 82.5964094318 216.9188929614
220.7358585970 98.0372466130 219.3307876910
214.8821523542 108.0282649925 213.9650023980
202.9945707782 135.8096171728 241.5287365248
224.1287389909 71.8498606014 259.0106364183
227.7724351350 60.2205606216 269.9611250218
202.6286585125 121.1441046323 252.2981349614
227.3470984360 69.4567146680 231.2006262184
202.9082101531 134.2718578475 234.7521744838
219.6187411082 97.8745758820 215.7404351270
226.1262323570 78.5989485437 218.3052607060
222.3164123754 99.9440628467 214.7087174521
211.5161089311 147.6630273873 220.4156186252
216.1328043508 107.7298086742 214.0988703965
200.3139437893 117.5506728150 252.7227838237
223.6674130171 85.1347569579 217.0187052201
227.2924229167 73.3454328555 228.0653970651
218.8614475388 94.1780402781 213.1781198896
219.9324738810 107.0056696371 208.9835340857
206.9232925789 126.7934441347 251.9179630620
214.5413133852 144.5290584542 225.2040065310
193.2135674455 118.0056325104 256.6063780984
199.4487789990 137.5996503496 248.9662145394
227.3572963299 87.6387354641 215.2882070631
219.8111499210 60.2736353200 258.4618033246
216.2750527954 141.1361517218 217.6232610435
227.4508817980 85.0798741531 215.6079414134
218.8764813007 67.3461126387 244.5884822223
210.8457042532 110.5136842543 208.1283240317
209.6297647935 136.5929438533 202.8190838254
225.1937090295 63.7338375601 254.0937708663
216.8724659788 146.7041386005 217.9494237062
201.8201814824 134.5389304455 244.6861495904
204.9361400133 124.1131350706 248.9527187861
196.9969266249 112.3859874792 261.4782820636
214.6745486904 65.4934924928 236.5908604643
224.9015226575 87.0849602623 221.1369269223
210.4426060671 127.3177299947 205.0247946237
201.1943715993 140.8038371149 238.8758351844
211.1828450709 142.1121950189 222.1925571354
224.2862874102 60.9971960846 266.6512853328
201.8548686365 132.8273738111 253.1344472931
198.6863945363 118.6184950882 259.1079192193
219.3003176006 115.1580014074 208.1079941520
204.9894986457 125.4460560880 249.2794596140
214.1660199548 118.5660830715 202.0669240690
225.3794745892 67.1909955523 253.0657296467
223.6693150139 97.2548999775 219.9517696616
205.5779847051 141.9031890349 242.3320143127
206.3747132516 136.8647706334 233.4236933910
225.7074665344 71.3414575418 227.8479489279
224.7837559252 63.2010616986 258.5734314291
207.2966415758 130.4304534314 255.0099722337
224.6720945635 71.5158917285 227.7170397498
220.0914554394 59.1448541019 258.8131189105
202.5580857237 139.8938156995 243.0049144881
220.4465561521 72.8904649196 231.0153659526
206.3919038853 141.6018548698 230.4082568700
199.2561426682 121.6361767189 253.4363452406
206.6246495718 132.4834009509 242.9670695379
217.4841413125 127.3190363286 200.0503297273
214.4758930869 112.6912130928 207.2240529058
206.7139062187 137.1162771206 248.0685415930
210.8636300887 139.7269299317 225.4407613421
231.7673583727 62.5380499435 255.1160271948
225.8888916494 62.9915150469 242.7975023609
223.2210133839 62.5467273446 258.1934231228
226.4281153729 83.5551829933 215.8259412235
205.3376051130 142.0905651389 226.0246002234
215.8763054240 136.2304046948 203.0639924362
222.2808432720 66.8216113152 241.3645693150
207.6598244901 146.0516905002 227.8752976073
213.7651643589 136.3372737165 200.5130679200
220.2631886415 100.9497344346 217.5833150548
207.4680334821 142.0881244949 231.2876126783
204.8136510697 134.1920517608 237.3433593325
217.6320330457 79.1068527528 220.5993502312
208.6888764761 134.9282751133 204.8832961879
222.5803594413 63.3085622514 268.3036148404
215.4646098694 103.2445407241 215.0624822345
226.2531447426 70.0221187732 226.5969319766
205.5344016896 129.8137227051 198.7186968635
220.0914554394 59.1448541019 258.8131189105
217.3399921230 63.0783673180 240.8570040038
199.9466669523 117.1628137119 257.5602231976
201.5701825662 138.6682492598 249.0377384336
217.6501303141 108.6300971967 214.0473513476
199.8438087322 134.0384456964 236.5922917572
211.7553304305 128.9493026273 196.5422575177
227.9656152959 62.6748459098 265.9829749900
220.2466248268 73.6782537733 231.8523770060
216.6389491757 106.7048883146 211.0543880271
197.6935286010 117.6464828949 263.3320228405
219.0913667685 96.1399158158 211.0051835075
211.5496502685 140.9651858681 234.0499378327
198.7806101871 137.3752924994 252.5356463801
205.8540460057 125.5683912848 250.4762793272
219.2351599527 122.6261534447 200.9040680905
211.3201757238 124.5115879900 203.7754576703
211.0977013547 141.7098137909 220.4543904774
211.0959218455 135.1199253283 199.4752574293
217.8912750455 70.6541214500 234.1487246870
224.4557635961 87.0345931499 218.0042850535
220.1121192789 144.1439748817 218.4437110753
228.5360011869 81.5978120763 221.7188379766
224.2037078531 69.7099612344 221.8709294155
191.5809201187 120.0169579899 258.4166042668
209.6197852948 138.8513704326 236.2102856141
224.1532459944 64.7251208018 273.9828439723
212.5180101714 136.8174644946 206.5317131757
219.2355759255 148.5060372882 213.0204518283
219.8111499210 60.2736353200 258.4618033246
220.3131172335 59.7590469362 258.1045465552
228.0934082253 90.8079844597 218.2871459298
222.1180389591 106.1424979285 214.2732611208
201.3386010908 114.3231616597 256.9333023162
197.1718097745 122.9201497430 246.7885811248
228.2957026811 66.4326764805 261.5270351632
198.2308939950 139.4324038828 234.6896502108
196.7281603822 114.8681729198 261.8881348578
226.9660229482 83.4472086019 223.4717528907
214.6909482680 137.7627723037 217.3015413846
222.8365702409 82.9040563572 218.9037251372
208.9270912417 132.3699642706 197.1327184301
219.5545293684 97.0555430881 215.8714290414
220.0367868534 65.9887609830 269.6402008484
220.3188538626 65.9527441471 270.9886003752
228.6868729085 66.8459827034 257.4879883601
215.0620703734 148.9243602735 224.1583166548
222.9082879857 99.2414513130 211.1290903369
214.3075946431 137.7016210159 214.1412364732
221.6984358064 100.9749556676 217.6000811195
210.7523757741 123.0446016819 206.9113182899
206.2759737754 141.7397833371 249.1445273474
204.8136510697 134.1920517608 237.3433593325
220.6810540798 75.6997495208 222.8983657030
204.0414181068 127.2330558125 248.2186355156
203.0585384042 132.1447895072 245.3491722078
199.1822251570 117.2755842580 254.5172500620
208.4040123170 131.2824614101 206.2241873102
202.9825977420 127.1394172746 254.1092981087
223.9406714010 83.3722771643 221.0525294409
205.9073338317 139.0386706781 236.8784951049
217.0719910518 68.6167564301 244.9717240716
227.7781752045 63.8367663700 269.9034054434
225.4806907335 67.0486128344 231.8440655814
216.7025042569 117.1698730024 205.4100192989
204.3001534450 135.1291329886 240.5745342426
219.2062528335 110.8354873398 207.9013544295
223.4585727481 63.1259535434 250.0215192729
205.5779847051 141.9031890349 242.3320143127
205.3177726202 128.7550932839 200.9076803595
226.2352650599 70.8246178861 227.7039636762
216.7685559192 140.8367448743 215.4542543273
227.4865438010 81.7024418806 216.9211468772
207.0505879790 129.7705832826 246.9612599810
227.7876894805 88.9515598549 215.0996172882
225.0301889560 65.5166729750 255.3149928677
216.6077547237 145.4340417179 226.9981083224
219.2122416186 101.7274211593 216.5263628623
208.5255120801 134.5224692544 234.0682246123
221.9406281481 74.0305683410 260.5777009742
226.8112861437 68.7094334534 251.6797363787
219.7907678787 71.9069730843 229.2985691488
219.4592217049 116.4200567320 208.5067073214
213.4483849056 146.0578476472 212.6709554234
218.8644501148 90.6678991543 213.0426277169
225.2125774567 68.7682230938 252.8071706475
227.7371714183 64.7122205729 266.3470935348
210.2018001644 117.0031164483 206.1379642040
230.1417793083 74.6072829638 225.9326622949
212.0866144539 110.8080754347 213.9320274399
224.3963357337 66.7468028407 255.3385899185
214.4867748086 120.7282210708 199.3635562373
231.5552166900 63.2514266920 252.5505642413
225.6014627989 68.3517193318 250.4129028647
213.2735813779 138.6890733326 215.4254419671
217.3475723950 64.5556142248 244.1005231237
220.5844243930 71.2050979489 253.4684472609
204.4850400554 136.1600956325 247.3413624375
215.3259792303 115.3823517819 206.4002342646
221.1303077394 59.4903759196 258.0913973636
225.6799788524 62.1517945479 248.4356045044
199.8622787985 126.9631845063 252.2912306203
205.6154120238 140.9687808002 228.1143189921
231.2402816669 64.9109642680 259.1221735552
202.6732743383 134.6434137617 252.2875267312
227.4508817980 85.0798741531 215.6079414134
221.6329178850 91.9553679614 213.1106088629
213.2921225160 113.2689691774 208.6707895801
221.1498656065 63.9878048283 242.3580202552
224.5702618965 86.5986441970 222.0590691508
218.8977964930 140.5342323713 208.8916001999
217.2764620936 59.8962819469 261.2755136317
199.5219732930 123.4215624285 254.0936596104
216.2972700660 69.6675032384 239.7280581232
227.3352235160 76.6587066267 220.6528194766
215.8906140744 133.3597878943 205.4811163511
214.8178318793 62.0256188867 242.5572253202
201.2425058041 127.2986438219 252.7443849776
223.3393637718 74.2580878904 228.1407362507
202.2303809535 136.6998880374 243.6974431977
214.0117212918 91.6660356345 217.2946772256
223.5196460096 66.5143609175 274.5149085794
204.1188430946 137.1195219935 247.7681637179
228.9213652398 82.3397733492 216.6111543276
203.0118122801 132.9421003537 253.7815966183
218.7554962630 150.0424885060 212.1052750845
204.9704710798 127.6812821364 253.5451843521
205.5065945993 134.9702561962 236.6835883688
225.1787162235 67.8748590200 257.3517738868
224.1287389909 71.8498606014 259.0106364183
213.7381787099 95.0666024322 216.0108437458
220.0820446078 67.1862999773 240.7270088664
218.8704583150 122.4644524866 201.8407384061
221.7060500289 139.1438008647 205.6960962909
208.8986420486 135.6012225604 231.1993009930
216.1791193405 111.5339430716 208.2759630085
207.6198382054 135.3133921971 246.6730352746
212.0704855657 94.7014214546 213.9833239912
224.5766778220 67.6246889415 238.4244715767
231.0057741925 65.8155543867 254.1878524725
213.4788813403 67.6701136765 242.6852543503
220.3188538626 65.9527441471 270.9886003752
233.7829788776 63.6242690979 255.5392008405
208.4727767811 128.4940564654 204.8914379678
207.6764522986 129.8319599593 248.0545176141
198.2394321835 125.3719793327 248.2223023076
222.1152890051 73.9270599616 227.2921414168
204.5400625487 122.9241348821 249.6329494808
229.4634142219 86.4274442640 219.5094727145
214.6745486904 65.4934924928 236.5908604643
213.8179664208 91.6555172524 212.4221447586
209.6476920140 126.9253211694 201.5553835166
208.4965499522 135.8225170145 235.8616180828
217.4236690801 97.9615771283 211.8812335925
201.3093222466 135.9935832955 241.5770335413
225.4147407231 72.0778734379 254.5279461499
222.7272342109 105.5740468823 213.6350137731
198.1408559225 118.4830553383 254.1219157286
217.1926619385 97.4424864989 212.8157318662
218.2767786109 137.3343035253 203.8681450829
204.1085044690 134.6686340719 252.3043181720
227.3975032975 59.4741820393 268.0549693433
210.4101063355 134.5198641251 206.8719415969
229.0843936986 61.2415212363 258.3165833896
207.2979354526 128.6509312406 250.6452687531
227.4803199244 91.0548758416 212.6015639048
209.9822007389 146.2621705165 223.6943494020
225.6138671520 69.8180511117 252.5113972418
214.4167039717 108.8873814606 209.7936657633
218.6736771316 145.2753848126 215.2178675817
214.0497596704 61.5695232094 238.0082452997
209.3316243298 145.1161360904 224.1571552280
213.4561307026 64.2775018054 238.8861007199
217.5570233223 99.3038111089 211.7318609288
221.4552727773 68.9263405578 243.8145483219
221.0971330983 74.0364999887 230.5525605823
219.1637525075 137.9104567889 202.9595631311
226.8954215708 63.5378899364 253.1065402081
215.5697581431 142.4393851290 218.9802304802
218.1769351802 133.6354114685 204.6660611442
213.6878365609 145.8288203253 218.1651883646
220.3945222266 138.1307915358 202.6784838257
204.5766661003 140.6946712274 242.8114772721
208.4504109645 132.9760018145 201.9437159612
227.4151100810 80.6563862522 218.8993858520
225.3890801696 69.4109120146 237.9209435638
220.2968211949 74.1803371692 235.5777742778
206.2806558304 142.8538501693 246.6427381877
225.3350060267 91.7458552788 214.6343727085
198.5694908160 127.2718592857 250.1437470956
218.3601422718 108.0574436826 215.4901657822
224.5268123265 72.7762770127 252.5366841015
226.6387985749 91.2355671921 218.7684351807
223.6233850973 67.7213264199 270.6253916129
227.2794206043 68.6849264252 248.8908031750
207.0972737373 135.6090032168 229.5862388751
222.0395678673 75.4787598707 218.5819766740
226.4604492034 64.2623559796 262.1346784685
225.3701990698 72.5405841701 233.8809894125
220.9791922288 94.9745295745 211.9884595437
218.1240654369 64.0461501760 244.8982221941
212.2872562135 149.5398563455 220.6419344930
211.9541876308 141.0855098962 230.2126149434
214.5348551093 113.9668696486 212.5538367199
210.8892312308 144.2164706546 225.7851846150
210.0715683938 136.2211775331 205.3778717098
199.7350204617 116.9364950661 253.4288637124
224.2862874102 60.9971960846 266.6512853328
224.7515892322 95.8349033183 215.1323268017
225.0871453064 63.2163678520 253.1237003143
218.3615367243 123.6818310058 209.1469243338
219.9755012708 94.5435828988 214.1599759475
212.2314363944 115.9623805695 210.5924861416
199.6696817895 124.0151374646 257.1957155809
216.3388650760 147.5385830148 217.1246378440
199.3416947663 121.8625844708 258.4223817717
224.2009646835 73.9676905611 257.5486043409
214.6788886968 125.8003504953 203.8605943870
206.5903078569 138.8640378050 225.7596584268
224.0660198024 75.3046599531 221.4009317884
227.3939796795 68.7658038430 248.5912010052
215.5547422667 140.1230146332 202.3982738496
223.7946275587 62.2983228460 269.3906046987
215.3319715274 89.8060391743 216.2603184091
229.4352640682 66.6390494831 252.9565260855
221.8681454433 63.9742529295 273.7507365916
212.6536272818 140.3364504410 206.6222193432
211.3616125664 137.7433384658 205.6967372996
205.8632285293 133.7038855631 251.0873471099
204.7360142053 137.5808450514 230.9900685597
205.2632672317 124.7643363854 250.6158032537
223.7389365573 97.1718678576 212.8169670051
199.7006070161 134.6883363410 238.9631674075
209.5419572013 146.4613510647 222.9343980200
223.3402774367 67.3160253870 266.9286919225
216.6456577854 107.7906329460 212.8825310620
230.4400983279 82.4488988054 224.0173413892
217.9452317171 145.4619189600 210.3919654380
225.3068682035 63.9908201697 242.2044527272
227.2629930613 65.6913941676 266.7531199842
221.4552727773 68.9263405578 243.8145483219
219.5817875217 62.2750134508 244.0983688147
219.1650698039 76.0764456029 234.0116198744
218.8501905024 144.8149119328 214.0001569924
222.2345960158 74.0128466052 233.1511985472
201.2848260494 137.0930063682 243.0936756587
212.7139038729 136.7771234696 233.3338300853
229.3358846579 64.1717194804 251.6755149475
218.2771744035 142.5296201888 210.7361743805
228.7855597878 71.6153777846 224.4064838917
211.0959218455 135.1199253283 199.4752574293
224.2455513035 63.3436455079 258.7492826271
213.6504811607 90.7500052356 214.5071717468
218.2840461542 67.6514290978 244.8212062672
218.2272238540 103.8875732441 213.2866639738
214.6538095330 116.6890503686 210.3716330686
228.1103162271 86.8893396919 223.4743871035
218.5337778574 106.9260067154 217.4228026551
222.1844281271 68.9927068363 252.5195211296
211.0662433258 139.2655126340 230.5746100811
200.9979937900 126.7258797755 253.1144380868
201.9633376684 132.1411643010 249.0792644224
213.5008207337 96.9053495843 214.9570944682
203.9310175898 140.8216282596 247.8044554194
227.2692489748 80.8928760701 218.8157801821
221.4489465437 70.9758324466 238.4451865332
210.9985201515 143.7050314380 216.0577109472
220.6058123443 63.9782427214 268.4243876155
195.5452394281 119.4604860471 252.9188791074
216.4517369616 118.6889756394 207.7533504354
226.8427506951 59.0652123755 266.8185704827
228.1953441112 89.7630647111 217.1720608719
212.1745524260 141.0130160253 213.4418895172
211.4222113504 139.0621513178 227.9686455275
217.7462670922 148.7933045329 210.0267836288
223.4571337703 66.9529681423 272.6558395010
216.2565653693 149.9718975595 211.5627696156
224.6977828156 69.3624441067 247.7433655897
209.8654426995 123.7299259191 202.1360968564
212.8375429201 127.2605539219 204.4332213900
218.7357123894 124.1829105603 207.7227230612
217.5722522392 119.0072758330 206.1712888307
212.7139038729 136.7771234696 233.3338300853
214.7064789162 141.2914746542 203.0636479483
218.4416857637 103.8462971381 211.9582532883
227.6629908324 64.1614119996 244.4378306872
215.6255963723 120.3042566091 201.9894143037
193.3917666283 117.3108663193 261.3413485937
201.2732507115 119.6228126072 252.6020636148
223.8757311211 67.3148137261 231.3786816887
220.8041869071 105.3625909963 209.9589321953
222.5710931989 65.8312647413 233.4192874322
196.1440610671 120.5771390277 260.8592863357
206.4882665988 136.9451279959 226.3845814092
224.6479720555 67.2477269289 256.6178856627
224.6169782497 67.2291646449 234.4144154499
226.2562191444 68.1906362883 269.3445910178
224.2290572956 90.7950096516 214.1009356604
199.9287883439 117.9653141107 258.6672558085
208.6103253570 127.6570675847 198.8208647481
217.2721553452 115.0820866356 210.7200843982
206.9232925789 126.7934441347 251.9179630620
227.9656152959 62.6748459098 265.9829749900
213.6818669479 93.3314258256 210.9795773914
219.8253236525 69.4159218215 242.3391837424
217.8224899222 141.9109517364 215.8498555983
211.5161089311 147.6630273873 220.4156186252
227.7939744485 76.7562412312 224.1331522839
212.8902277528 138.6279220448 212.2651370556
207.1217699344 134.5095801441 228.0695967577
220.8543224586 74.9269388175 233.4557458069
226.3135308568 74.2023461443 233.2099095710
217.4786125172 147.5158790015 215.6422461628
207.1233434348 131.6976140445 202.2815291573
204.4535670156 141.6837447225 235.2077322469
222.6518876451 69.2208742087 257.4890511797
213.4474587388 124.2827812269 206.2137272448
211.8362204750 109.3546098145 207.8584813081
217.8790724452 139.4907588517 214.7925412372
216.4179005548 116.1174589421 211.2291093827
203.7760830205 122.1007018987 251.8416990765
221.3293892784 75.0602393182 258.3882968525
222.8525415608 89.0238358801 213.2714332229
217.2208313492 89.7591383961 212.0121960274
220.3103062384 62.5893014440 247.7176243263
198.3277877260 127.1868502348 253.7180736398
228.0616681065 65.3629644653 263.8281392041
204.7515436807 138.8776154236 247.2488264922
215.3800764343 123.2942630556 198.7715548413
218.5095234557 95.0237143409 218.6866731325
227.9526977022 81.4066465778 216.8577367391
218.0742460263 99.1076121973 211.4184282221
211.7515595596 139.0285276428 227.4320243018
203.4800630545 139.9946870413 238.1744358077
218.8495240037 148.9788578272 211.3753163638
197.0388532799 113.5124092931 261.3043931917
212.0376455883 147.2260356048 224.8050521439
204.6915647932 129.7356072950 248.0852775876
215.5299092642 139.1046384451 209.0810700357
222.7520110305 70.7450848008 252.0859624714
209.5330018773 128.1134870892 197.7906651843
215.7658502055 70.4510950260 236.7734302921
214.5124721788 128.1341182944 199.3698910637
199.7100872083 119.9947324784 253.7224457902
210.7690530500 121.2845408331 203.7524976446
224.5430841395 95.0272653307 217.3587388944
220.8857721922 138.5155867935 202.5249689585
215.4254820669 97.1292198817 215.1669657480
228.1513393533 66.1151388730 249.2405470658
206.6757249134 129.9934626127 202.4362769289
207.4316149862 134.1305816351 234.1320118102
196.7892304345 127.8768426431 251.6286681287
205.9922154769 130.6218226529 255.0733890068
202.6531068524 138.5496137585 244.5420785305
214.4781817984 131.8360545671 201.4981741108
227.1822537210 68.8542487784 235.7738213593
227.3131123191 69.0218973656 251.3910657430
217.9008919027 64.0482357872 244.6114619476
224.6685785457 69.9878100279 238.0322499032
199.0908562415 135.2412511824 236.3057301076
205.7421825046 136.3697356848 228.1734132679
222.7601307303 63.3257754666 264.8452057383
230.2149705760 81.2499014144 217.7122962099
225.6353499448 73.8524432207 232.2484807076
218.8129978234 76.7767779405 220.5221648372
217.3115536630 136.2556272137 203.0807594121
226.7332587665 67.4081751603 246.8479391650
216.2517481550 68.7558051739 244.2698744886
226.9851489602 68.2269868983 253.9593060637
196.7215685001 126.1209904688 253.1876283499
222.2879781587 70.6798300574 258.4780622678
224.2573263565 62.2972451306 268.4446797145
220.8667974854 105.9841392315 217.6738012541
226.5856501977 81.5009447857 217.5913058020
224.5698124192 96.4230063357 219.7635493334
209.9525612303 128.5586924021 206.0699352056
221.2074619688 65.6240430460 254.9203794280
206.4546192675 134.9190406412 252.6476769933
215.8200129034 139.6275484238 202.3073610755
206.9232925789 126.7934441347 251.9179630620
200.8202145797 140.3027604122 240.3000124479
217.5847022324 89.2776044957 213.1299426161
216.6134641226 138.6287076781 212.0340887627
227.5731669746 65.2072188219 261.5801358905
214.9669089650 144.1688123716 210.9412249232
223.1937318477 66.2512044973 243.3601853954
220.7494959837 71.9288195930 223.5700588100
198.0118659234 138.7835984444 239.6696403115
212.4540221656 127.8795882166 197.8856415018
211.1051535291 146.5868875474 230.4176514965
220.1872450459 69.6321216742 232.9851658921
217.0763682216 112.2019948913 214.8410255771
206.0587444808 136.0788151736 245.9930583602
203.7908223327 140.7576314992 240.8770846072
199.0031568246 123.5638978787 256.9283118846
218.7477367202 144.2426293449 219.5545754271
222.1180389591 106.1424979285 214.2732611208
217.7296459440 90.3195191682 216.4203586773
223.7007237057 87.7553729269 213.4012664648
219.9169683526 63.0897560033 270.9777509109
222.1022118399 67.7602578821 245.3519518106
213.2692862097 141.7661414528 222.7975521758
214.9161914927 111.9415749828 215.6111143287
197.8718522743 126.0136985816 248.2414221089
215.6616737848 61.4664281816 238.0057779090
217.6785146025 106.8942935193 218.6892126247
212.5180101714 136.8174644946 206.5317131757
220.5844243930 71.2050979489 253.4684472609
222.8587004900 72.0154611151 234.3409290888
214.5818397218 142.8604903934 226.8020277009
197.5204501727 111.8129840851 260.7699870889
224.1734343497 66.5569546666 232.5784308729
210.5493692860 142.7959068608 216.6630738920
203.4962487125 130.6691393349 254.4925592854
215.0812464991 66.7705607502 244.3559019751
214.3323681140 139.1513084617 202.9458007442
206.9905123281 129.8068249624 250.1815402372
218.1791537951 63.1828710014 263.0669322609
213.6866587643 143.9366332143 212.2429324485
218.7759802500 98.1777796960 215.4354220372
221.6671217158 60.8426904352 248.3072696610
219.4993201789 67.0870726303 240.2435792221
223.5006501001 70.1992094120 234.4774787005
212.3039644180 95.8717506071 214.5155209235
218.8445380541 123.6280776525 203.4459288922
224.3474737244 70.0043576091 228.5902156999
220.5968513321 71.0164233588 254.0089588644
220.5725849043 74.9628782061 232.5603802252
223.7937353736 68.2831014442 257.1268861824
213.9939269987 146.6204301461 215.7845414511
224.2410414279 67.6847636750 251.5411568295
192.7813746110 116.8549498919 257.5048381701
217.6320330457 79.1068527528 220.5993502312
197.5025715642 112.6154844839 261.8770196998
228.8502649340 91.2455416150 215.2771217965
223.2872164857 67.4570821807 260.7441954402
205.4314148111 137.8390114032 228.2851050743
216.6687695980 141.5497176002 216.3802778357
216.1158397596 136.0546280759 201.6848572966
205.3177726202 128.7550932839 200.9076803595
196.5134566762 113.1707628227 260.8457551830
218.8524918885 119.5274772183 201.4809356448
206.9173169216 135.2129718269 234.6486521279
222.5646025444 87.9952970249 213.4514598036
224.0148692954 63.4706953885 270.7676573990
226.2961170646 70.2174193430 261.0260969025
216.0627564694 124.1230522825 203.0359984970
208.4406487849 127.6205274015 202.2567926886
223.0449928658 106.5452787066 210.1276318464
229.1126891547 72.2665816713 226.0695701817
195.1034161485 117.9810443530 262.3195114720
213.2547735452 111.9002818454 207.6877971496
222.4738119672 61.8621550815 263.0212181283
217.6680099969 107.8275980839 212.9403196480
205.3689448677 138.5764205619 248.1264330144
227.0554267551 70.9356833786 224.6287516447
211.5852331915 145.0504363295 231.3328282402
211.2877301687 140.1448090710 223.7773384544
217.9793044937 70.4082314256 234.2161417048
224.2862874102 60.9971960846 266.6512853328
223.7962163824 98.5430477382 213.1203523854
212.4234295225 138.7375536116 231.4568957443
200.8385433821 139.3382850530 235.7059194594
198.4988852842 124.1985373314 246.4507547850
220.7817073406 139.1912787573 201.7510531840
211.3059443095 133.5873779810 205.7294132623
203.2523393553 132.3862264994 243.6590321696
217.2568189052 112.6484538926 213.4379412153
225.4127978793 84.8773644374 222.4262481311
222.8497196475 71.5591671277 236.2664819794
202.2610189514 135.9878316718 243.6588239026
202.2303809535 136.6998880374 243.6974431977
221.3579157636 65.4373506848 254.4323556055
215.1155055308 146.1191970924 220.0514622594
225.0301889560 65.5166729750 255.3149928677
212.3780409432 121.5244764272 200.8134685041
215.8642290412 143.7315756467 219.3372936109
224.4669830667 65.9597955394 244.0470496966
218.6525832252 69.5774195365 233.1924890972
206.1261388456 128.4452077217 255.0959988091
218.7477367202 144.2426293449 219.5545754271
204.9477091994 123.7356399200 251.7054062081
217.3475723950 64.5556142248 244.1005231237
225.3794745892 67.1909955523 253.0657296467
205.5207715693 144.2951520344 229.3923919401
222.5323621547 74.0617190130 230.5693511117
232.1140598468 62.6833307255 256.5291305556
211.2754622627 137.9085340435 230.1079870473
217.2998007125 97.8467519467 212.7990175846
215.8906140744 133.3597878943 205.4811163511
220.2850736584 121.1844748940 202.5738805980
223.5283720372 67.5357728209 266.6052460236
224.2455513035 63.3436455079 258.7492826271
222.5562515505 71.5757322793 225.7753915604
223.3112163976 64.4961140403 241.4432823597
206.8864392499 130.7371627550 255.0049667113
212.2748872914 121.2939629318 201.4448080195
219.1016449940 98.2947864303 210.3591094378
201.8801258232 128.4410772719 252.4253245300
200.0800184766 119.7952946448 259.0042868239
219.6588269065 87.8691673099 216.5009220730
197.8596698956 118.2376904477 255.3640776667
215.2848023495 70.2248621854 240.7963021661
224.1888591964 85.4444677999 216.0235903446
205.4961523985 131.1081915460 255.0946549049
225.5557174078 62.9793121039 258.9392033224
224.7026395408 65.2317271876 264.2526743201
225.0802973936 73.7386775623 231.2573056943
220.7594877636 78.3254730171 218.5136891030
210.7523757741 123.0446016819 206.9113182899
209.2922751226 129.3653433071 195.5375197757
206.9999399804 135.2294811948 232.3923814231
208.4145379174 138.6818841087 225.1422719722
224.1971308723 71.2216597983 253.0504404339
213.4865277588 139.7801191229 224.4148979918
219.9649821221 109.7206817596 209.0139875260
210.5155513877 125.0093505687 202.6829340268
227.9870462579 72.5366673186 221.7638121192
211.5134619607 120.3624058121 202.9930527752
226.5856501977 81.5009447857 217.5913058020
201.1943715993 140.8038371149 238.8758351844
224.2118603119 97.9814568276 217.8866967260
224.2676271861 68.7738695576 256.6153559874
199.4724478418 120.7450715764 249.3321810411
222.1645170246 64.6445349569 265.8087231708
204.1188430946 137.1195219935 247.7681637179
220.6601282194 62.2004691727 248.3830377549
220.5279570484 72.4556846278 223.6861638516
222.9831743926 69.1065962116 249.8353526612
210.8690071584 135.2870690691 232.8526518897
212.3323623535 135.3174653858 206.2850691806
228.8779906436 69.0837893594 255.4377043652
214.3002293305 90.4277866326 214.3657454861
219.7625697838 69.0718348004 257.5952912625
209.8821357481 122.5620077844 203.1157995322
221.3253607346 97.1822991364 219.8842762012
221.3273078852 100.7760942120 215.1170064523
203.6875607386 140.0082988055 237.2564817367
229.8521371813 85.3898134250 220.3272218236
196.8269187302 121.0722823283 257.9865441145
213.5637370777 132.9597060653 206.2449428728
215.1574343388 68.9061557564 243.7803034278
211.0145646998 138.2506462800 225.8961888002
220.5635842136 66.0600695656 260.9843910806
199.5439109442 134.7711974421 247.6496137656
204.5400625487 122.9241348821 249.6329494808
214.4555053611 61.6342477114 241.3530784052
210.8892312308 144.2164706546 225.7851846150
218.8727756003 62.9176431321 261.3614622925
212.7312851814 142.4561997915 229.6017954808
220.7624297995 70.1067264117 238.8532678555
225.7835108607 69.5309554026 262.9772220699
226.0055392840 65.2698018453 246.1364542964
222.8837594135 70.4511677704 257.4399518774
216.1328043508 107.7298086742 214.0988703965
195.2762803762 118.0879987837 261.7810156191
224.1089541639 70.3694864165 233.6702535643
201.9612861705 138.9313632929 243.3285067128
200.4912934614 135.0730238511 251.1982529221
213.0127890093 129.0277049678 199.3598689861
213.2476233731 92.8657913428 212.9966695028
207.0775449401 139.6133607522 236.4845219537
227.7651505501 68.9214400878 259.5003792980
226.4604492034 64.2623559796 262.1346784685
228.8026933089 85.0698155812 217.7662108743
222.1869625375 69.6732092170 226.0847159638
225.9317003052 61.2123432968 261.3546983595
227.6629908324 64.1614119996 244.4378306872
223.7042888245 61.1409620194 246.4745761648
202.0226979293 133.4973793355 252.7503325572
216.2972700660 69.6675032384 239.7280581232
199.8950085410 117.1042167331 256.8935080111
232.4954764525 64.6369620031 252.6518669413
198.7422290604 119.5610520637 258.9185127548
210.3479432053 142.5589963689 216.5205163176
200.5258155821 114.3613869953 256.3513619382
222.7719168377 83.9797134484 220.3380963126
226.5594711668 62.2048117487 259.8118101309
209.2987181425 123.6965184768 204.9371808226
219.1619810089 68.5071002192 248.3427285580
219.7653650021 58.2901755501 261.0023630391
226.4494227586 61.2611817639 266.9941452449
222.0650232905 68.7862086844 221.8765311489
211.3669872560 132.4128434881 197.1612488160
198.8703239697 127.9134059806 251.6530129367
200.6829624995 139.0124602554 241.5416589355
209.2574504661 135.8694231254 228.8161501235
231.4617475815 62.7773667294 252.8115504821
222.2797082161 62.9487969781 242.6028072790
192.0645041427 118.9775038629 258.6727255829
218.6288460723 142.1795858817 214.8568080371
216.0627564694 124.1230522825 203.0359984970
223.1345650320 68.2343367954 252.0391514868
218.4588230125 110.9654906962 207.4913441118
215.4543251160 62.9225654768 237.6506902104
220.9936847155 88.9187416887 218.8340890118
201.3071871756 123.8297737087 249.2897124664
209.6884091639 123.9512491225 201.7785905996
205.3749274356 141.4050163298 227.2676783131
220.4465561521 72.8904649196 231.0153659526
229.9966055710 65.5293481632 253.4187767876
228.9213652398 82.3397733492 216.6111543276
212.7046072141 129.8973513274 202.8140329116
212.1831233804 129.8008772536 198.7170498728
210.5898958121 122.6781615660 206.8247800285
220.7940707668 123.6187379095 201.4489740785
216.3525365288 118.0050666993 207.8159802104
202.5302158637 140.7997108868 239.5571172895
219.0332685080 141.1014812382 207.5493827490
224.8016356080 62.3985625858 257.4663997295
223.2807773676 85.3135974447 216.6838033612
205.6767647620 143.3090693019 245.0642838621
198.7806101871 137.3752924994 252.5356463801
217.0981350193 68.3146989563 237.8411162423
203.3036832616 139.6956481846 244.0792727046
220.9048586567 73.7872830517 229.9596520281
210.1552260825 127.4230853068 199.9709217698
218.3990076028 108.8798552048 209.8965300968
203.5675418578 138.2899524802 233.2256442803
216.6195632877 146.1095515430 210.0315371500
217.8739159278 123.9824515526 209.1624089085
214.7637887158 93.6432669898 217.9924292598
198.7936594843 136.5949895314 248.4966434421
219.6041599652 67.2091630272 250.5579091551
200.6829624995 139.0124602554 241.5416589355
214.6301131255 148.4772579796 225.0818133314
222.7494182906 103.4982296293 215.5247112986
213.5876630267 112.4612545547 208.8789766021
214.6686633052 114.2249751571 211.3616629106
192.9126574499 116.3490826892 257.5817892405
219.1463146200 89.9808186957 215.8960557721
206.3759378270 137.2186411813 248.0506644647
193.8060596597 120.8881966770 259.6882130834
219.5456530037 73.2572856027 223.1686659406
222.5002458463 103.7633402640 216.0168850240
205.9072320901 141.0318271031 237.1818561149
195.5627112587 113.1911343681 259.9829583301
214.3075946431 137.7016210159 214.1412364732
206.3738451001 145.2953310046 229.9893889098
220.6601282194 62.2004691727 248.3830377549
225.6138671520 69.8180511117 252.5113972418
223.9342597640 63.2018466514 253.9430566310
218.6444625785 141.7907628769 200.3047376276
215.3283886660 97.5700746328 213.8687849788
211.8459545376 119.0872219749 204.8045340128
226.3950757817 69.2022527815 260.0796206563
211.5007957741 140.4765865356 230.4245472461
216.3448692210 149.2252741447 221.9553572017
219.3755220756 64.2909821729 271.6596802167
208.8943765340 132.8498302982 201.7282956395
213.8547010118 138.4016634300 201.5466008843
213.2502864144 123.7227699937 198.9332324938
222.3471119188 69.4752380378 220.1262497786
224.5702618965 86.5986441970 222.0590691508
204.5766661003 140.6946712274 242.8114772721
214.1519854963 104.3490027942 211.9692273448
222.8426185144 100.4219069866 212.5043530449
208.5446054919 139.9883138307 223.8351701963
209.2584774316 115.3413555785 206.8090318129
202.1962896450 132.8086253334 250.2120816097
202.2008756910 120.2925323962 250.1233312850
204.3281414575 139.7640238213 243.8582887751
227.3131123191 69.0218973656 251.3910657430
208.0042730084 145.7531431522 231.3230895611
215.3691062559 146.9353333126 227.7361645542
226.9873377143 88.2562154601 220.6908998491
227.3837596451 72.6301520991 227.7605533033
205.3925814461 128.4502867374 198.1817497740
215.7529025295 93.0879873651 219.0236928653
199.4772244370 120.6938434663 258.5933225145
206.6427291025 130.8088539631 245.3176094193
221.6499802854 60.7263578433 262.7128106605
206.2806558304 142.8538501693 246.6427381877
219.6187411082 97.8745758820 215.7404351270
214.8562754572 89.7301449619 212.3387932833
207.1869413875 129.2159165961 203.5507852411
201.2484727797 125.5757271699 250.1024234631
222.0711145065 84.6479785034 217.2132506906
224.2455513035 63.3436455079 258.7492826271
222.9930309765 96.2329220881 220.3256628127
218.8524918885 119.5274772183 201.4809356448
219.9368155437 114.4302668204 206.9840824623
209.2545899260 137.2948771035 228.9841421777
204.8547419201 134.3286395061 239.5161682865
213.2565949841 135.5956372302 199.5121001858
226.9578007664 72.0500755446 227.6508629489
225.1292370407 66.9417008934 252.7552190155
204.8547419201 134.3286395061 239.5161682865
213.6950250140 140.0334612113 208.2169211790
206.7139062187 137.1162771206 248.0685415930
203.8312856236 139.3002321049 250.7833804126
221.4749817987 62.5743613675 269.2890017177
212.3148256275 147.5470444910 224.5190195251
214.9143658556 116.3131690945 204.8324209051
218.5461452286 93.4621369564 213.0260964678
202.3081712276 140.6269057083 235.3832259385
223.0313508962 81.7417205455 220.9343241005
199.7591414687 140.7786168046 238.8590437437
220.7801544853 65.1576840088 234.4253784564
221.7060500289 139.1438008647 205.6960962909
227.0723552688 65.5786700537 270.9003920747
211.1777735203 110.7263243157 211.4262480477
215.4712771890 91.1901585311 218.3709741194
217.4133908547 95.8067065138 212.5273076622
214.6052964065 104.4213223248 215.7062102217
206.6246495718 132.4834009509 242.9670695379
213.9409156864 124.7422136086 204.1119389993
222.8738072924 64.0446152788 264.5332058924
223.1290626153 95.0031513062 216.7102889159
201.3510343433 131.9938549663 252.0176644809
215.4172005318 143.1581286860 204.6928359770
221.5827603808 70.0139393042 219.9329304213
220.0683932754 89.2009225071 214.2378842229
217.5399964664 134.2182512646 202.7166399561
227.3299286354 67.7718695961 232.6531739706
232.5443304096 65.1255606926 256.2772570723
198.0118659234 138.7835984444 239.6696403115
227.2638693173 79.0412180827 223.4690710290
211.9118024658 131.4033513629 197.6230168865
218.8495240037 148.9788578272 211.3753163638
198.3277877260 127.1868502348 253.7180736398
217.9789107931 147.2760178307 220.7033686792
213.7651643589 136.3372737165 200.5130679200
217.9068949329 64.3983826279 243.7868046764
200.6513229761 119.1907704832 258.6141541700
217.8629665178 113.4601955796 211.1307645832
215.3611946664 103.5519498545 216.4464271301
232.9775343658 64.5907528010 256.5558473519
209.6260071106 133.3946819929 202.6505566327
229.2096714511 62.6717693666 252.2964068225
207.2350359092 134.2534803473 233.2628952325
220.0914554394 59.1448541019 258.8131189105
223.8717305211 61.7081212679 265.9216204374
220.5995822128 75.1138645858 222.4189174074
218.2767786109 137.3343035253 203.8681450829
203.5103269356 129.6500537299 253.6550637928
220.6187364898 75.4245299124 235.9857451092
226.2628583494 67.1832784721 235.3279005642
199.4460812895 137.9784515555 241.1649640449
219.4123848995 67.4485783865 237.0309828567
218.0742460263 99.1076121973 211.4184282221
212.4739687616 116.1916464785 210.5245149152
201.0193124955 121.3883910722 258.9352542352
221.7890477285 74.0060616326 235.2884095812
222.2922624839 90.4311995839 218.4898298074
202.4936410186 126.4731370846 258.6755915646
210.7309965096 146.0858108448 231.8418287599
217.2493100922 112.5189473993 206.8720452708
201.2484727797 125.5757271699 250.1024234631
228.2155890718 91.4256525440 218.2063094690
218.0483776064 96.1342316860 217.8169113871
201.1548307312 128.4416192582 250.0820369629
217.7059796448 65.3608682150 244.6745097088
216.2328857179 108.8327139932 210.4020940475
206.2280424128 135.6112590849 233.3386633266
218.2826099919 80.2528878219 220.1365448609
212.9262058140 123.1434228751 198.8002495179
225.0079454749 61.2641436410 264.9669518346
219.0030217374 142.6806654360 213.4326067643
216.0712118716 96.5296935832 211.8360964453
226.0450727596 91.0296546086 212.5847978403
221.5833189605 61.0940909686 246.3831067736
215.0775418139 131.1570885460 202.6289614924
199.0016148052 138.3951530010 240.4407491810
201.3645293317 113.1595363122 255.3280986865
230.0380767118 64.1817067417 260.3681547114
222.9830922475 86.0714587130 215.4840297120
199.6639919396 122.4742250050 254.5124310008
207.9762107961 144.3957787212 231.6600369901
209.9453771341 126.1674599012 202.7551571656
201.1721534836 126.3804895935 255.1718371901
210.1583211105 131.8474906414 253.8808427538
217.9567409564 114.0547034988 210.5305979446
224.3661845765 94.6684804802 214.2640011425
201.5306733616 122.4937123892 257.7769529497
217.2686895345 103.2698602379 215.6481416649
216.1102659607 89.3046913844 215.7782275872
224.6720945635 71.5158917285 227.7170397498
198.1253474840 122.1558002203 257.8728740481
213.2888990160 132.9152300267 200.1684754675
226.4101066759 78.4335394439 224.9577481739
219.6288709996 73.7456417240 236.0584983328
223.8424748299 64.9777420502 264.2866234810
215.8525136827 138.2003996758 214.0841327451
219.6997807373 74.6384400985 221.2025363413
197.5936781856 118.1350804229 255.8514886299
215.3917903522 96.7922489414 212.6667031799
222.2406064626 93.2040519012 214.7139898962
208.2390656208 144.8349571789 226.9265740616
204.5400625487 122.9241348821 249.6329494808
213.6279262600 145.6825844667 213.0556679100
201.0174588529 134.8399712555 247.4884129959
228.9253164842 75.5640995374 223.2046329389
212.9933900609 66.3130692880 239.9498326209
220.1464286662 111.2977636596 210.3479277225
215.8814098983 146.5410161334 210.4639022833
216.8875117819 68.8789652253 237.5415571307
215.1535283732 147.4750260863 215.6150550347
205.9693514470 135.3439121613 240.6823180410
222.9139434421 77.8235751324 224.7650426163
200.6163348910 139.9871634090 236.8461749039
208.3795240998 132.3818843012 207.7408162840
211.5698456116 141.1269824874 223.7522403838
202.0347486552 117.8420556219 251.9296597669
202.1837412718 128.3532515404 249.7227086425
202.6531068524 138.5496137585 244.5420785305
224.1287389909 71.8498606014 259.0106364183
223.9590501390 70.7574924243 233.7844375463
193.3141845991 121.4608999636 256.5599680064
205.4249686525 124.1066933486 253.1235337252
202.9945707782 135.8096171728 241.5287365248
217.5248031581 68.2595236805 234.2525507387
215.5242266172 61.1265116260 239.7569282729
210.7280700470 128.4535568811 197.6312044022
221.6671217158 60.8426904352 248.3072696610
211.5039542687 130.5653043629 196.5469320375
225.0802973936 73.7386775623 231.2573056943
209.0723377186 138.8528576472 225.1860531688
214.6193122606 69.3342961450 241.2501578130
212.5025719026 118.0829367162 202.9450514729
220.6551478480 90.6200563825 217.3400200359
215.0187147882 90.3082568969 217.2189091315
219.6126207495 99.8037004698 218.0461081927
218.1754476288 143.6398730660 220.7403694159
205.9714713791 136.0993538715 234.2418917064
219.6640324695 65.7091685096 248.4988910619
222.2585262062 71.2107439798 225.4489602418
219.1923243645 79.8816401434 221.4911417899
206.9104083650 135.5693468919 245.5405964472
209.8235121508 145.6274722940 221.7407781687
219.4831019368 141.1442148611 214.3477839638
210.8701924705 109.4142613633 206.6116950579
230.0380767118 64.1817067417 260.3681547114
219.5134690410 92.8729583588 218.0081445420
214.3917076383 147.7196085170 211.9998878145
220.7782639846 76.4637334372 224.0184901616
225.0563813291 87.3811782441 222.0392108549
201.8801258232 128.4410772719 252.4253245300
219.5716747365 67.1651180713 250.9445219232
195.2352376427 122.3604958496 255.4260807472
211.0509204549 136.1304645114 234.9509956175
204.7239679961 133.8949842168 241.1315668196
207.1231372653 143.3955997511 231.0630400205
226.8123427171 74.8818834304 227.1502198657
228.2155890718 91.4256525440 218.2063094690
217.2399061870 140.4377217138 200.6622804845
224.0812133508 91.9774507940 216.1439804106
225.4149487113 65.7677216686 262.9272548432
222.2418225737 65.0098769453 266.8095458646
217.7057939636 106.4626521788 218.9198932964
220.6141838567 61.9325800276 270.2672026246
224.2573263565 62.2972451306 268.4446797145
226.4709821551 79.2852106109 220.0578919524
219.4697492806 73.5803534645 230.7460870132
213.2666511251 146.9245093807 216.4804266812
211.6588273561 108.4678630945 209.7851599855
200.5101290272 136.6757563776 234.2137946163
223.4087949997 69.1331081941 257.0484542728
220.3158148166 100.6496769160 215.6405126551
213.1520701261 107.7659484273 213.1634693663
210.5458807491 146.5744578650 223.9651132945
212.2992599300 129.0072090655 200.2157732324
220.2502174687 146.6079825782 217.5306848038
224.5602041111 71.8958237914 257.6626305726
221.1071705434 70.7929873746 240.6059113343
217.3334290392 66.8506937694 244.8950160718
200.5422590573 126.4876673754 255.4856740072
212.0274979697 115.1444005382 203.3245783145
214.6363100308 119.1148177982 210.2760704334
206.4228665729 131.1996529772 242.5491255463
197.5204501727 111.8129840851 260.7699870889
224.6996174761 73.5658730234 230.2152319766
213.4865277588 139.7801191229 224.4148979918
214.6915039882 108.9377093960 208.5546171637
207.4056867453 135.2942069827 235.7372154398
224.3302287392 91.6407253647 216.0683862915
220.8356656828 62.3222099365 271.5498003204
219.4005659813 67.0178382635 234.5291940555
225.2714969469 68.7649224134 229.8513270455
213.7176137296 140.8057838934 204.0497507038
217.4602107915 111.4258916351 208.0079655590
221.9334554978 101.5878358989 212.8098298201
231.3972837891 65.8385935951 255.7059022687
221.5220642670 137.3162591304 203.2369352627
217.5410607765 126.7192942078 199.3071092995
218.4526412626 142.1835584046 214.6683472958
208.6805093484 128.7531552186 254.1853763439
219.0497278673 77.8993514932 223.0211124599
222.1818132298 61.8437743361 244.8522847315
203.5909582224 142.1378145655 245.5102982474
212.2314363944 115.9623805695 210.5924861416
220.6369317862 137.7690851154 205.9033010825
210.8972347350 129.0991424155 196.0029036685
201.5701825662 138.6682492598 249.0377384336
220.0941812302 110.1370837649 209.8926164780
209.1467135262 146.3810244309 231.5740104148
208.0032894055 131.1577238595 248.4353328764
198.2404634090 136.6571085774 239.0730473038
220.7447982636 110.0592604697 212.5291856600
216.2972700660 69.6675032384 239.7280581232
225.8544456298 72.3060771707 222.6769948468
205.4314148111 137.8390114032 228.2851050743
207.9693705355 134.3202878929 204.2789017146
218.0799504460 106.9637282386 217.4957155773
213.9917867881 135.9900974331 208.0683032318
225.2001089425 61.3468878811 260.7350194954
220.2968211949 74.1803371692 235.5777742778
220.3715265524 70.0990502713 228.6074481942
217.7916338626 134.7191766388 203.9959366115
212.9855583736 65.1764403383 243.3029598993
225.2730171888 67.2778306996 268.4658174493
205.8656672491 142.9876761352 229.6169641423
215.7476877706 140.1798778774 220.6495400913
226.2745880650 71.1756797944 254.2546590821
209.5006155387 133.9524222188 252.6270526589
201.2312091955 133.7526558996 238.4935299918
216.7024949651 117.1535255534 207.2297367021
226.0987429499 60.7335212374 246.2511917113
222.6269354648 69.5198780912 222.4330306624
218.4831926188 72.8633713449 239.3291216276
215.3813047722 138.7936304633 203.7023982237
224.7782020099 63.6102172312 256.0865158507
221.8831278005 59.0866670552 259.8126782282
226.8954215708 63.5378899364 253.1065402081
211.6033006436 144.6524884160 215.9133271812
228.4134602584 74.5384599111 222.1828250838
208.0409865677 136.8262384130 226.0881198563
232.1140598468 62.6833307255 256.5291305556
197.3423612392 115.4099602328 255.9957305499
212.0135969937 137.3388135214 205.8733590408
217.9661022404 145.1009623354 224.0728273526
224.7936453705 67.8520672142 263.0499752935
223.6330584776 70.6400847675 233.9232155410
231.3238718572 65.2666895813 256.7325813759
226.3670069630 81.2669732100 221.5442198270
211.3750113759 125.1074078814 203.6428011054
202.6531068524 138.5496137585 244.5420785305
216.1835257208 146.3829890927 220.1485519340
215.3253178265 89.0462325265 213.0770221398
212.9208116306 138.5687459390 206.7382422593
214.5407296148 126.0801779041 199.5873084850
224.6996174761 73.5658730234 230.2152319766
225.6201348654 67.3388165829 271.7656995256
220.6369317862 137.7690851154 205.9033010825
217.9801021424 122.8630239409 199.5254707580
212.2748872914 121.2939629318 201.4448080195
213.9286175365 135.3691385718 207.8008425729
207.9373144135 129.3788599221 251.3925689338
229.7017254497 65.6009579621 257.0327689553
219.0472852399 65.3636231374 255.6904681797
218.2771744035 142.5296201888 210.7361743805
211.5138433529 139.4817420555 221.1914317701
204.7360142053 137.5808450514 230.9900685597
214.6538095330 116.6890503686 210.3716330686
217.8890152502 65.2008817407 244.8938363761
203.3562405586 131.3869291617 246.5489204808
207.5404723498 148.0839476741 229.2762115584
220.6369317862 137.7690851154 205.9033010825
228.7411464268 69.8468310345 236.3187518121
207.3794761169 132.4805480502 248.5278724512
219.0717825113 64.2642013506 254.1738269735
222.0390051022 95.0544752745 213.5891846355
225.7696654541 91.7314790282 219.1304169302
207.1869413875 129.2159165961 203.5507852411
227.5029103170 64.2148488186 262.3538994874
223.7937353736 68.2831014442 257.1268861824
214.7303877191 139.2119853884 212.3274845175
218.2655759074 59.3410023221 262.3067772373
197.5421099567 128.0846872614 251.2030414151
217.2208313492 89.7591383961 212.0121960274
211.0311809425 121.5901342232 201.0494765125
204.1089528663 125.6722694901 248.0271578401
212.0015789151 137.3709234059 229.6301775828
204.0791603797 116.6496599307 255.5985435110
229.5188918864 84.2762491482 223.4241124119
226.0304055035 84.6298719605 221.9491892545
224.4004363458 73.7822308551 229.5817044993
224.3302287392 91.6407253647 216.0683862915
211.3059443095 133.5873779810 205.7294132623
203.7961396240 133.5734555586 236.7434374434
227.7355088723 92.9621031190 217.2911322695
198.3145894827 124.7758686466 255.7828890626
200.2011735104 135.4814208487 247.0454028816
227.7439495168 77.5047675079 224.3842482285
226.6060394852 75.1191919987 226.2779725611
