193.7696631197 124.9852987862 235.2390252477
198.0923769713 131.4023918377 239.6002043554
207.5458084486 93.8827821870 218.5449348602
221.3604392712 114.9525038863 216.7337290044
197.9831812338 130.4252466989 237.9432947394
218.0442971019 96.3121826144 213.8662512622
225.5565673251 118.8451908557 208.7247471231
219.5990251345 114.7935330790 217.4736108776
187.3072097250 121.4145464009 232.3879092606
219.0767524625 82.3233438768 222.3417241155
191.3933772903 124.9003388924 232.8423366930
227.5721082371 89.8269287606 246.6825704932
210.6719354050 76.2307860792 228.6662559857
213.6812600284 85.5802541757 251.3650049388
206.3044576559 77.2431366101 225.1016801535
209.6758962125 135.7646298155 223.7111720583
223.6040674801 94.0010814819 250.3058760914
225.3591595854 123.1407948744 209.3665855204
223.2801890515 98.8259104193 213.9835398419
240.2183141043 85.9686412139 253.5113626776
209.7071425314 82.8734978713 244.2457874559
226.3417347095 95.3789384263 251.7916142267
222.9669560127 141.1832247880 222.0968654765
211.0357212692 79.1835780256 257.3379738005
215.7737403627 105.9521344663 214.3073688069
219.4505095290 89.4450924279 250.9725714235
210.5246010071 135.5048539281 223.4442900428
217.6260527538 138.8477311186 222.4064710705
233.9349936966 85.4711513990 256.6447456500
216.1716449220 110.1651600539 214.8451751121
207.0222361041 133.4428922331 227.9228417741
207.2926107022 138.8421608940 229.1355184140
217.1170605665 80.0116718375 245.8537663724
213.6158490367 79.9743925656 259.1070613323
224.7233916313 113.2443725159 215.8794446465
208.3387679044 133.4723215482 232.9871569946
187.7730999228 121.6923732148 231.6926267594
223.0612306169 93.2158712355 253.8721328678
223.1290177258 131.4726462419 226.0318987871
186.5894753249 126.8905025310 228.9762238504
238.9473738258 85.6013448784 250.4290698454
204.5483913540 141.9631933766 235.0730841514
217.7856507656 79.4896090857 244.9958047883
212.4364594140 74.9247842080 227.0907396197
215.8696309401 114.1630014729 211.9267644215
216.3925131459 84.2045162229 256.1675575142
232.7942133274 93.2095124790 247.0940968913
210.1219849732 81.9421539334 250.5931808297
237.5161197031 89.4919525399 248.4920255538
222.1979098833 120.0330336247 204.0456042166
236.5424236042 84.9144323758 250.9351113073
224.0043480350 131.9974008177 215.7065377912
228.1076956506 91.7178453967 247.3986843907
206.9622987208 78.3720039713 247.6428227674
214.5753603710 87.8509264916 253.0532964100
210.5979735296 138.2460657284 235.0872280236
212.4504395745 94.0350826435 253.4739631529
210.1309796637 95.4257662948 219.4595842635
242.0152923217 87.5358589494 254.4221429319
220.9986246853 119.6860176885 208.4935083013
208.2001856528 80.8797896728 253.2608849933
215.5440439422 103.4705478181 203.9425223680
217.6063556809 117.7336292001 206.8994525221
228.1233844920 125.6801851424 214.7497332364
233.6064830879 120.7665713592 214.4116641016
208.7752270531 140.2919972832 234.8280199254
208.0826665375 137.6542741045 237.0247941372
235.8874328506 84.7667281706 252.0345303117
224.8263542569 137.7503570947 223.3830602843
233.6216785798 93.5968387533 249.1932899339
214.5815479149 86.6639326134 217.2475000567
206.7085995859 72.6508205164 225.2747213283
216.4924061522 138.3170855060 219.5305809968
215.7626494528 140.4695911831 224.1051686782
204.7791220402 138.5886941460 237.8063790883
202.1092133787 78.7667537704 235.7258617862
212.3349979732 104.3291197833 210.2093248109
241.3443750334 87.3031343736 249.2605464625
213.3786836319 86.1837809294 252.2610558172
221.0914581166 99.0662012140 217.3000712484
223.1357343916 91.5999713146 247.8782768534
226.2789209451 115.6645112166 204.1038355456
206.5564468459 72.7776975224 228.0360729912
226.9762740834 119.4776967645 211.0552170508
211.2916335002 85.0324333272 251.4588742477
243.9565045616 91.0986200267 251.6259690130
241.3760520981 84.9426509376 250.7974432153
205.3039145320 74.1705415109 233.9149415468
217.4186559009 136.5341749855 227.6337437521
245.4106613488 86.2178772894 252.0848716968
197.9831812338 130.4252466989 237.9432947394
214.2298326223 100.7475340797 209.0537681035
199.3762907938 131.5096045409 236.1645730058
232.3288577024 121.8977418403 217.1512790711
212.1174470783 134.6070963139 224.0319656596
212.9635235672 101.5086250943 210.0057066107
210.8345624183 80.3861797816 227.0422311247
207.3387381443 140.4088410361 233.4662186870
208.8225499108 74.7559442067 228.8274698766
208.7256299431 78.5159182709 223.5617996852
218.9781347953 80.1992519541 249.1233448761
226.0997173812 131.4846120155 219.1743219958
194.5836250686 125.9774994951 236.9015627073
227.0426535030 85.2076570017 247.1835569855
182.2002584639 126.0868217389 229.9587551480
225.5725671284 116.7927435232 212.0311838509
213.9513047755 72.5817998530 225.1520447587
220.2158427423 83.2255875933 246.9667049226
228.4622990117 94.0141837413 251.1211007799
210.3388434573 79.9491930798 247.3221983676
214.7051427873 117.4910896477 205.6766701640
231.7696067362 93.3769013637 246.8259781971
221.2833316241 101.4156768562 219.2982839756
200.4240702448 75.2187365331 237.2376080103
186.6506291936 126.8836515868 231.4933594135
210.9486368004 94.5430527627 216.3835389144
216.4968942730 85.4993212292 253.9391950679
218.2026921481 102.4629117774 211.2491116146
221.6231823350 83.3135816010 215.4353312549
242.5066016557 90.1437470317 252.9516498860
220.9986489421 84.8466950831 219.1377883921
213.6842930144 75.1764849573 247.5772368794
209.0149613395 78.5114982031 254.7835685657
202.1092133787 78.7667537704 235.7258617862
225.7245919976 94.3483316163 255.8495329924
207.1237460435 138.5727504507 227.1746967126
199.4618594552 138.7701246626 237.4232877545
214.6380520743 100.9435658440 212.4527338194
219.5882682990 84.5150434634 219.8083016478
223.5041462315 115.8581682361 208.3836907521
188.8401859481 127.7406278364 233.1229707452
203.7982639471 137.8982104019 233.3810344415
227.1429052794 87.7586881579 248.2028221668
214.5883131463 109.7712981659 210.3508728408
211.2012831552 95.5177743554 221.0792358183
242.9533958145 86.4955348389 254.2969615735
214.9364743664 79.6350565602 225.4249089562
223.6016708477 133.9863594003 220.5055033668
221.5953122123 139.3083674999 221.9878128027
210.8515326363 72.8213787462 227.3384677021
217.5429325344 117.8165884727 204.4772878897
235.4002527118 89.4399515798 254.0813239059
223.2801890515 98.8259104193 213.9835398419
201.8448644654 134.1482007451 236.6321070058
206.6055889334 136.9841285281 241.4797407333
218.2313270342 137.7450939509 220.2034829925
215.1270250311 81.9992331071 250.3122634729
214.0575444675 113.3149962409 214.9897407576
244.0129707588 85.1866438063 246.6344164504
196.6903716168 75.8963890455 234.5153596988
206.4740853877 80.5823055148 245.8190385577
216.2354203297 95.6005457440 214.9286957159
207.2833813971 93.6682533962 218.2917721761
219.7151950832 110.6625313049 207.3498489679
204.6753762824 139.2763751632 231.4888238362
226.5098714167 117.4487703406 208.7998289228
219.2240172966 134.4055444100 219.8232381613
197.9727653891 132.1883983863 238.6414628486
216.0348097788 95.5852870179 215.0108307229
221.1027189497 134.6077435006 214.9080710107
210.3706240981 141.9691274469 227.9162239191
191.1895161052 126.9336090330 241.9666689642
218.6432634936 87.6225778850 221.6690739449
205.9004229443 80.2988047526 236.5409919774
204.8491959493 138.3072599024 238.8127528202
234.0113733058 122.7287286968 216.0870080230
212.6389048165 93.8251857723 217.6020146977
231.3421020845 89.8734356077 247.8996654113
241.0493674944 86.6985198439 249.6166469582
198.6152578479 73.4394951129 236.8332076137
215.6263114877 112.5726743778 216.2393632648
204.8481149849 75.8039048893 238.1466118129
210.0676363795 94.9871313899 218.2033484856
204.9009017760 74.7430197448 236.0946630043
219.9088630309 104.8595662733 212.0895065921
196.8401592392 129.9632802081 235.3134141524
218.6151951488 132.3546913741 219.7981269681
223.8360097565 93.4254144647 255.1821364426
213.1693546932 79.3003211896 236.4958088758
227.9998758655 94.6405350882 253.1426010605
212.2939290391 77.1065400637 222.1986017507
218.2895395393 89.2280035189 219.1133194800
219.7600276795 136.9475382107 216.9126865448
238.8608793655 89.1542591997 247.8620536864
215.5440439422 103.4705478181 203.9425223680
234.8140447333 88.3787147103 248.0611372051
211.2904250417 135.2318576067 219.0778688499
225.3431827512 128.6598062683 217.2241127228
208.5995231710 82.7792299607 231.5841408861
221.8790361549 108.5665352311 208.8689366263
188.4748156371 130.2086509406 239.2332539199
219.3199890368 103.2546627595 213.2288261425
203.6657364408 77.9953584819 238.3942589224
208.6624119502 72.3565292215 225.8800009629
217.3948008551 83.2941782067 218.5374692872
223.8560513464 119.2946384262 205.3965885178
212.3946091818 77.4115546357 248.9582717686
222.1776601014 98.3579604092 213.4360871679
219.8570584534 77.9772773338 243.7661022121
205.8644546530 135.9388367693 232.6748249149
192.8112752859 125.5686577864 241.4552939493
211.6162868703 84.8817928870 220.6683793735
226.1093506951 136.3045221426 220.0080899565
214.3848754857 88.4274046008 221.9777076867
192.9463327378 135.1263995758 240.2812841268
222.4139818685 82.8525287001 246.3363929022
214.8226720736 78.4020630549 223.4215491064
216.9011210321 138.3003261095 227.8214757450
217.3965096758 133.9062785741 222.1028237211
209.1062224501 70.1029761611 224.2911313030
222.1457408024 82.2579054774 247.6312133596
203.3317197114 141.0390612726 241.4315856277
209.5178192746 91.2628371457 219.6617364082
225.1763317998 88.8048151041 251.6462825250
207.5901384967 133.3894389772 230.7964723572
214.4576302092 140.8548625430 225.1361272825
198.3863531317 73.9823391129 233.8104027590
213.2805578539 91.5799097355 249.9280335302
199.2185445209 135.8669959744 242.1915113072
218.3405222067 138.3164749812 228.8796013236
223.5432765468 129.4346301302 225.6873268933
188.2135006375 124.6786963000 240.4719824564
218.9356804425 132.7707342065 221.8708372341
202.1443935217 139.1360000347 234.0845937144
216.4897682104 117.2943452443 207.5552807001
215.0414923640 95.3426507829 217.0979223637
204.5810454864 136.3746369334 242.1575621512
205.3039145320 74.1705415109 233.9149415468
208.5152955081 139.2747431711 229.6547855962
200.9526445984 74.1915645967 231.2895365257
220.3177703854 138.3953216884 223.5677928032
221.1263752032 94.9876242717 220.0973100231
202.0262754803 134.1070066169 242.1176602338
212.6762412667 137.0287597390 229.1337742885
206.0201558644 78.4656739152 226.9362970293
226.5882719487 91.5273607637 256.1859461608
212.1104750036 75.8947736237 255.9671847531
206.3414123910 75.8483754397 224.7707932388
226.4536058919 86.1304456851 247.2589822294
246.3515322417 84.0390879277 249.7251754516
212.8415031557 136.8654236807 233.0873781505
213.8879828882 92.4719829876 250.9550454584
208.9661990205 79.7385410963 256.0468751965
217.8524177518 99.4707236717 217.8070970327
212.8931584626 109.5133340155 211.9933851870
208.5042842575 80.4454609456 239.3097298498
218.8769493044 106.3406958060 212.7757266352
202.2300621421 141.2943640183 236.1816731488
216.7027762568 80.9224025693 249.2637352674
222.4969443474 128.4924469618 211.7958203901
219.6133371953 104.1486330370 212.5287072869
229.7470809613 91.4401062976 247.6120589063
202.1443935217 139.1360000347 234.0845937144
225.6719450450 136.5146735709 218.7823018783
215.4355270832 76.9274092220 243.6609280649
209.2783794040 140.4816184285 229.0421520004
208.9636544875 137.1523904751 227.4770165464
226.2312253510 88.0341045183 250.9783832729
229.6982816771 91.3928384890 247.9703938093
207.0428874361 80.9448559007 244.8761767811
216.5422711216 77.8098174271 219.9273947560
215.4436622414 84.1465056517 250.3364893633
244.8625276328 82.5887137413 250.6973226960
211.6278334006 74.4064451692 221.8043222703
238.8951376322 85.9992017892 252.9363470303
218.1192817096 76.0945734244 244.4906960527
211.3341458246 141.4844096337 221.7426895785
235.9104259821 90.4200191103 253.4573691100
205.9623120527 72.0534692070 226.8225397794
214.3385305748 83.8360996773 256.8854261485
209.6758962125 135.7646298155 223.7111720583
227.1155524826 121.8176648237 212.0335748041
228.8673990093 121.7997870344 217.7561568392
226.6613318411 130.5976708659 214.3842247210
238.7772204872 91.2488611223 249.3269291367
214.3750466582 136.5069042518 229.0529206341
196.2836329523 128.8671556570 235.3843085363
225.5614740512 86.5524618266 252.9466950392
183.5931972910 121.1328935473 229.9678219489
210.7137656255 93.1009506449 215.3955136516
209.4832880342 95.8036981743 217.1576199200
215.6610433528 80.0336154225 258.0429522159
189.0408004419 122.2643623154 231.5707095797
235.9104259821 90.4200191103 253.4573691100
213.5455789305 82.3935188190 241.8506643786
221.5887651694 116.5274067436 212.1261962487
194.3392729136 126.4064171091 237.7799218016
207.9440124248 139.3062038684 231.2632306090
214.1706764194 80.4293836601 225.6079212605
233.6693159930 123.9190057287 216.2277216459
230.2969137609 91.8911191841 246.7922979698
226.6748739119 131.8741593774 217.9997395228
229.5001823893 92.9040049456 250.4826458512
233.4030486497 93.7949245583 251.7279034123
233.9472733185 94.5681899056 251.1821887958
210.3637667091 130.9940922960 233.9207574352
220.8142760926 104.0879215451 217.5169853861
220.3053793489 85.0201447134 215.1737483698
205.5950554836 136.0895098574 233.6965931237
220.2181854510 130.5021925298 220.4065404093
211.0778503586 78.3991776204 248.2868564767
228.3398849455 86.4784043806 250.6605678908
209.3805792416 135.5887959014 237.4891665851
215.1988369533 89.4195998176 223.6402504199
221.6748652846 123.6458957131 211.0910200883
219.2112608519 132.0553753176 222.7336594484
221.8437299433 123.9153061564 213.0518417898
210.3394436884 83.5768044437 237.3565979315
192.6905379865 132.8716894879 237.0707141700
209.3021441433 81.4664074545 223.9312048438
216.0083847295 108.0041195287 209.2361058032
214.7465949624 111.3920198936 202.6091846405
211.6564098964 80.0548292464 232.4576591338
244.6104156832 85.2105447108 253.5349859887
230.3824007166 93.0528139778 251.8610233668
213.3504169641 93.6804189052 252.8155048435
215.4355270832 76.9274092220 243.6609280649
225.0047880090 123.7533588214 219.3542649014
202.3326778808 78.1397294199 235.6363325914
204.0986494580 73.9988573009 224.3583456842
215.6775447380 94.2926358154 223.6387770498
215.5450602337 80.8333854941 249.0555397137
214.8971952050 96.0847433423 220.6352346092
218.4585424484 116.0063675803 211.1676987922
212.4266828588 84.4392262456 256.0370397580
215.4432976621 107.7799453330 207.7682378399
214.6990593859 74.7499081268 225.4948168253
213.8581680887 84.6542801490 219.9459685366
201.8248262747 78.8193452598 234.2324675447
208.6393785672 78.7901431034 241.3248249710
196.7701236541 135.0610100611 237.3655456041
188.6851653278 128.0523498896 236.8514346106
220.0933570383 135.5142106583 214.7617619861
210.7621014453 91.9893066223 252.4638652922
217.5000279437 82.0081773920 248.4418882050
193.4798150859 125.7973756359 236.2570622431
200.9096777245 134.4938988633 239.3430231940
230.3478805798 90.9462335823 252.1378555755
222.7396837076 140.4473495812 228.5345254166
200.1979623573 140.7309826320 240.2833857399
219.6445895170 78.0892095596 247.8185328201
213.5389272722 86.4394204243 254.1216949931
202.5146301146 78.4182877463 226.0042513198
225.1282818492 115.2065298534 217.5547885680
235.0032604438 86.0499766382 251.1670983790
220.5310838863 116.9406526100 219.5054300304
223.2632136418 128.6466809286 221.0378137054
226.1124757737 130.9363401287 220.6298571400
203.9648780057 141.4337650708 236.4793677834
244.6104156832 85.2105447108 253.5349859887
184.4007914683 119.2148272395 231.0617778191
200.4240702448 75.2187365331 237.2376080103
225.8170183733 119.8575264692 210.3380927677
209.2804833688 92.6217234693 220.1076900968
230.3877360841 91.2861116564 251.9028791536
216.7482771454 135.8475870193 227.9410879834
222.2808704480 125.9219731895 210.7628005844
199.2785647482 138.1600804086 241.2704320112
212.4405505985 93.5184731321 216.7691430492
228.2593049715 127.2878433520 207.6804706515
217.5622153122 82.0323773068 221.4195925352
185.5052846544 127.4982358797 232.4142881877
232.6511404662 88.8790925223 250.2753989167
220.0066179453 118.5754655125 207.1445735402
229.7350349891 91.3708793859 254.5842539598
225.9013643926 91.0831646901 246.2886814918
220.8747051611 94.0333705966 219.0935701940
205.5808878983 77.9859984266 230.9262486297
227.6803310813 93.8215442391 247.1866753083
219.7517184260 119.6715350196 208.7893934580
208.3278955980 93.0791790052 215.5601729831
218.5274359204 81.3481780472 214.9360276156
209.8045310904 83.3072748035 233.9600993281
212.2195169183 133.9104054523 228.9042845873
201.2478313267 139.0504140723 236.1852454391
220.0560396552 81.2414127708 224.8915512151
199.6411572930 132.9039294677 240.9364156755
207.8061590370 73.3625326484 225.9236759481
221.1435196592 86.1750038905 248.9942836794
225.8170183733 119.8575264692 210.3380927677
213.4857755750 76.2643213270 244.6977221111
212.3781508876 140.2420366903 226.8557370717
208.4387679728 77.4439477623 223.0910754894
204.9392299036 135.9055074289 234.7517650141
211.3679132351 77.6583667763 254.9613330913
241.4292343743 90.0240235690 249.7496055980
208.4702668018 138.0455409413 220.2311438257
223.9300985617 116.9184351144 201.5479658908
225.3918090233 98.1876293920 217.2729100314
222.9963309837 83.8725043451 254.1708058446
219.8507748267 129.5494100327 217.0831134518
213.6680664401 92.3145428777 250.7658016808
213.4344566610 72.9279548835 224.2096507550
217.0715893301 112.0948036657 206.3954473304
224.8768838334 113.5506066425 203.3946718550
202.5358510833 136.3154154001 243.2216726381
213.6655720101 78.9813971541 222.3076651803
193.4173782421 136.2536550823 242.1787831023
213.0186218836 80.4771675756 236.7803364452
221.3048972358 117.2412712439 211.3145706759
193.0697739163 127.9882045469 240.9201207384
223.8316990660 130.3519595255 212.6794678055
218.0148386555 106.8255675911 206.6308333122
224.0562563084 92.8823912109 248.4876905128
211.9523572393 135.1974015055 228.4046223523
224.5205184336 132.7036377670 223.9743324990
226.0512720870 87.0321750246 248.9845285654
187.3248699578 127.2102457752 236.0383472504
227.5954597194 94.7656901669 251.5569928650
223.0815639588 85.6628349718 245.7163063318
225.6579081639 132.2894559931 220.7823415029
230.9507233708 95.6594926914 247.4502529604
224.7646223351 128.1619034380 207.0609278275
211.7195142920 72.5138308936 221.9219880442
207.9409102718 79.4051563052 238.4497666722
217.5013489742 80.7121463907 246.8304216642
211.9258247596 71.3007954184 223.1108522979
224.7363904252 122.1823754881 216.7079168354
242.1159085361 83.7709409684 248.6887188046
222.1740494389 119.6652299103 202.0276421407
225.3591595854 123.1407948744 209.3665855204
196.5387723635 132.8400608322 243.8869517084
212.6668299586 85.2167652260 252.7491174244
221.9614330952 114.7841164446 207.0346514509
188.3181875467 127.4528793628 233.9512528685
218.1244231644 81.9206562811 217.1157490730
230.9507233708 95.6594926914 247.4502529604
206.7112867674 137.4202895898 230.0876714253
193.2111169593 125.4131166976 238.3785309402
240.0298277850 89.2550896707 252.7358502496
212.9919659311 80.2920770321 252.8980489112
226.0699559583 118.3508543607 208.2622978751
220.9220156716 94.6136992321 217.5843205054
186.4610884622 120.8801873417 228.9241785815
195.4187948284 129.5042460853 240.9035586966
199.6013356662 133.0946347090 240.1059489480
218.7413625786 102.9078776239 210.6158841279
227.5954597194 94.7656901669 251.5569928650
214.4054083842 77.8216511670 222.1679204212
211.5651493389 77.4542005729 244.5319402013
216.7565288097 99.9976480515 217.4150364312
209.3103266418 134.9873032285 222.4704180621
233.5346187536 83.4722962970 254.0774775858
216.4482893264 84.9543225155 250.8788624472
212.3588484647 83.1182023817 221.6742337765
207.2697754724 142.8390090570 238.9330768730
217.4095645492 107.9282021116 208.8338186492
206.7085995859 72.6508205164 225.2747213283
220.0066179453 118.5754655125 207.1445735402
225.0047880090 123.7533588214 219.3542649014
217.7810906547 104.8474238033 205.6112725707
204.9438795710 77.0287501269 240.3831589612
215.1997153350 88.0082886493 216.2590632924
219.0421799514 104.5710777288 210.0028807847
204.1299181034 76.0365549103 238.7206162281
200.9005669839 76.6283593949 235.9037767629
209.9925784815 81.9654040189 244.8957745017
183.4060416179 121.5561601502 233.3879355022
214.3848754857 88.4274046008 221.9777076867
211.7184392268 139.0625457969 229.0233253746
216.1989451241 79.6716171522 224.7680443163
210.9918068896 132.2322944662 228.8066687144
233.6216785798 93.5968387533 249.1932899339
204.8760044932 136.9340458749 242.3796357941
227.1272115391 84.9978650656 248.3399245097
223.3377515615 94.0637715549 251.7993474552
207.5929350371 75.8327327076 244.6160862498
226.6854023220 85.8027090431 249.9479440168
240.3671268726 84.0136231923 250.8373319823
222.4675878382 128.7024727314 212.6475357242
238.0948047236 86.3585546255 258.3675222090
211.4162331838 138.9020763788 236.2443651776
242.6169350923 85.4421384246 254.8022351644
227.6629209882 130.7958807633 217.6133443314
191.2640401981 123.9235901584 242.4146614803
213.1016390218 92.6917843191 221.1233909220
237.5997785814 87.3973506172 247.0271501036
214.0381682975 135.8135085500 227.4629717748
224.2462458618 95.8359100565 251.5794902206
221.0573228161 118.9432128492 213.8419173142
242.8963828070 84.7473543582 247.2902499021
225.0415252998 83.9317272020 253.1066967282
223.3377515615 94.0637715549 251.7993474552
225.1843238160 86.5479634935 246.7678081092
222.4017209352 97.1471951146 217.1172169576
221.9884504175 134.8609503142 224.7458009797
217.2775356626 103.6806228604 205.3353641617
218.5585962542 117.2543252585 206.6897267479
210.3475265965 139.9935774664 240.0482102857
204.0010270925 77.3395700946 230.6151928452
221.2833316241 101.4156768562 219.2982839756
213.3797763494 86.6231525258 252.9739183914
192.8902149121 133.1902454373 239.3893672658
211.9394201050 140.3817724658 219.5397015004
227.3590713420 122.7661511103 217.6888968913
191.3102974647 129.6766202952 237.8971885847
219.5990251345 114.7935330790 217.4736108776
222.2456612583 96.8497061080 217.5454671207
217.7601388276 105.5368645790 208.0561795351
211.2146248596 131.6543447918 233.3044476899
223.2300943130 93.4852706944 255.8329651167
200.4240702448 75.2187365331 237.2376080103
211.9938084051 79.8394890281 237.9844276007
227.5954597194 94.7656901669 251.5569928650
214.7820113503 88.7128235178 216.8372011905
215.1054304025 95.5052623827 214.3678442841
216.8856184878 92.7448837038 252.4931000229
204.0021638288 79.3994224451 233.9358000375
221.7833572405 119.3530615167 210.5724269348
212.0257444275 89.6622566231 217.8041668425
224.4706365090 116.8669706867 217.7831289794
239.0444359583 86.6329947587 254.3854495233
225.5274894286 116.7019652444 204.4574543061
220.0560396552 81.2414127708 224.8915512151
215.5272744449 108.9289913741 213.5406527358
221.9136280790 88.6828321657 253.4233449703
226.4331128393 95.1347127766 251.8199090415
216.2687695619 92.1657862892 215.1516464944
220.1842161134 110.7569317682 211.0318716578
229.6731603341 94.3721667132 251.9279074386
206.0689940997 79.2612614861 247.4588076751
225.7314791702 116.9872734154 201.5398629696
210.6321195495 114.8096104770 211.1471163537
228.6411381774 87.5417900282 252.6426973758
206.6975393801 133.7277967865 229.7219543006
212.1812667428 112.0360246617 213.1783963120
226.6854791862 121.6620473215 217.0568545155
237.5161197031 89.4919525399 248.4920255538
198.6218284541 74.9391798369 237.8265036991
217.3558959279 112.6227570310 215.3394682041
215.4969132083 86.2605684106 223.6835048316
216.7807196604 137.1868534733 228.4765925222
221.8570289080 99.3826706131 218.3433111950
199.0454064977 137.3804336837 235.3575699000
224.6752261387 133.7439627065 219.9118149366
202.5358510833 136.3154154001 243.2216726381
222.0115367229 84.0869838760 219.6542626407
191.9680549219 124.8908111833 236.1876463080
212.2748363377 93.4863185941 222.0588349586
217.2484132148 116.0980179652 211.2991081892
235.5247629581 91.0259030113 248.5007575895
211.3944414909 82.1250725620 248.6892587761
209.2799722657 130.8712170472 229.6923399356
184.7937006766 120.5153572633 234.0955029222
214.0276887690 89.7452808824 253.3124678219
202.4746705888 76.0834332222 223.7570755002
220.1162358336 98.2037134217 218.3026424362
209.2880902021 76.0907023501 242.9735686300
223.8971617759 134.0399879350 226.9395914894
221.0431350972 87.8123937652 219.5352402208
208.9011453161 95.7285922381 217.1477959580
215.5440439422 103.4705478181 203.9425223680
207.8081578247 131.5763177894 228.9874308785
212.4507914326 83.0882206605 223.0740766274
220.1200658814 136.9152373710 216.3997919760
197.3345037637 137.3334674386 239.8270745767
214.4331338587 88.3515314235 221.4045686146
194.1047105269 133.4203694984 242.5125905519
224.5588370240 140.6610664421 227.2377297016
244.1928038008 82.2063561708 251.8423853485
207.2269016518 132.8028990276 232.1040435898
208.0895642730 75.6779012893 225.3282956096
208.6073237274 80.4752350125 228.7638115732
220.5740836035 125.2894212151 217.4195510014
208.6624119502 72.3565292215 225.8800009629
232.9810001562 120.5833270267 213.3796471357
220.7760630015 115.7826069931 219.8943184723
213.7360459649 78.7613521989 258.4996724987
209.6034090731 75.7122501864 231.1590879204
220.0170248870 103.0021522147 218.3388271749
207.6908569690 133.9704303742 227.6348599187
211.4743067137 76.2562021987 221.9994763417
219.1995714185 131.5245882672 216.6375375003
214.4576302092 140.8548625430 225.1361272825
222.2777035626 99.3105781586 218.1454549387
208.3887508929 75.5464739858 223.8822636224
203.3114964473 71.6334493804 226.2626872954
219.2349106922 79.9040476921 247.7181522033
232.4942098446 97.6543891579 253.0990648416
211.2653973445 141.0212131607 223.9865308307
234.8975304209 91.1797330699 252.9408970178
208.4465220747 139.8226194670 221.8936696992
223.9142174630 82.9263121222 251.3245279489
213.1706528029 136.7534782796 229.6444934586
221.1132726230 80.1164613003 224.7539303212
201.6258650905 134.0420689162 236.6838625063
217.3294241322 80.1752253476 218.0230531450
224.3051371018 86.1237818315 253.3537186091
202.8023811181 76.8622085111 223.7705225909
212.5497234757 139.5589667308 227.0266101356
207.5475542675 81.4339939826 232.8876634103
206.7085995859 72.6508205164 225.2747213283
215.1896885878 113.9403474171 210.8530612556
214.3753092607 75.3444049051 248.5255122390
190.5319196622 129.3421269550 238.9693475998
192.5728394530 132.5231593492 238.0372490255
218.5660464152 89.0836456255 220.8096051620
224.8263542569 137.7503570947 223.3830602843
215.2959039992 141.4079384753 225.2567982774
237.8791686298 88.2040406554 257.0292008979
194.5396847746 130.7815126811 233.9021434919
207.0428874361 80.9448559007 244.8761767811
223.1357343916 91.5999713146 247.8782768534
209.8305681697 140.4857867297 232.5466908828
218.7219805695 90.1621249621 216.5667610132
224.5143994309 91.0214341245 254.0528967330
219.0021263034 86.2789971714 251.0476955984
226.3972507954 137.3990934187 220.0860935810
224.0043480350 131.9974008177 215.7065377912
219.1819052191 84.0511311686 252.6760233045
207.0852224784 77.8217720781 239.1970967677
205.4287666273 72.5852944732 224.8347602393
211.7549997412 137.8500628780 235.7858485735
213.1656348112 97.3303701189 216.6464893824
215.9778740651 80.1201502905 255.5810803501
224.4202745439 142.3780464143 226.5610785334
203.7439526646 75.6659154138 224.2482496204
198.5633017879 133.7874950394 240.4648652668
211.5200288558 92.2360505886 216.1597266488
231.3710529476 86.6712344158 251.0905580477
200.4096880073 135.9381652821 242.8890758052
208.6685090882 73.5203863835 225.9089701768
225.2705908973 117.5459106487 204.9486478727
212.4448589140 137.2127149496 220.9423495749
209.9446292529 79.7301014210 223.5348240233
217.1252104454 96.0045506914 224.1649227557
221.1707960651 128.5078835709 216.9559499317
220.3177703854 138.3953216884 223.5677928032
218.2294285466 110.4364271905 208.7894661748
222.0494944743 117.4653976514 202.5856932021
204.9900785120 78.5760649967 232.9769404064
206.3777369527 76.2193720458 237.8971684322
200.1979623573 140.7309826320 240.2833857399
215.4602458327 93.8587167525 216.4008581269
239.5569106104 89.1231989135 252.9320521655
185.3496273975 127.4259367909 232.2969954171
219.2718300113 131.7069249385 216.5024388845
219.6500341148 131.4107946043 223.3373198105
202.1609643437 140.6341948787 236.9634753903
210.7005104457 140.2059238267 238.8493577396
233.6064830879 120.7665713592 214.4116641016
213.1392368111 86.8675486248 250.6308031802
215.9517424853 78.5513295108 257.2722542049
217.6697402949 86.7470946201 216.4918502677
209.6793542432 94.9605650788 215.8923700679
208.3030699268 81.0341969887 255.9685771580
187.3046567070 126.8002895040 234.7988176999
244.0160189372 87.1312465929 253.7667149564
230.3606389724 90.3979616955 253.5933907196
206.5130326610 138.3686198791 238.7735808100
210.1188727817 79.4976467197 222.1802195660
209.6758962125 135.7646298155 223.7111720583
216.2115325173 100.7014449005 216.9704146092
184.2137342838 125.7392789313 233.7456825746
195.2381690839 136.8836216550 242.1908784445
222.0648879359 119.0322818587 209.8450904220
225.8666676261 93.8262027535 248.7099505559
243.9185574475 84.5652031294 254.4851725834
202.2780767266 79.0361585239 237.6866995172
203.6356208180 141.2135129326 235.0718524233
229.5785335835 94.5683281786 246.0717579800
221.1425244411 115.2652596435 203.1267003421
223.4641663326 120.3386488281 210.3292859761
202.0259615896 75.0779810408 236.4270668969
217.1170605665 80.0116718375 245.8537663724
209.4189219456 82.2943819002 236.7471815311
218.6559400159 102.4518683130 217.0634306927
216.4163529972 82.1597735851 224.5193239315
217.4095645492 107.9282021116 208.8338186492
226.2312253510 88.0341045183 250.9783832729
226.9045037322 124.1192669747 217.8413812542
190.5319196622 129.3421269550 238.9693475998
211.4089124689 77.9988721559 244.7232500446
213.9083582156 74.6894901586 245.1215718169
218.9496004992 81.4154439881 216.7386830636
210.6761125685 70.7159602924 225.2232493410
216.3976533059 83.1424281252 219.5036575328
213.2890006764 83.1665902938 224.0663525456
215.5450602337 80.8333854941 249.0555397137
187.3825709429 128.7211419221 240.3591820013
213.3294924759 77.0254284213 254.6435116265
211.3954326451 139.2115620012 219.5285358241
244.2082840926 86.6620248640 248.7370637109
216.5259064542 114.1513996881 210.3007539512
210.8586672053 80.6950121659 226.5996019800
214.0215380962 75.7730882547 226.6388929962
203.5441460362 74.1505941770 233.9748782236
218.9068662076 114.6733252280 205.2198582351
222.9496229867 142.5924082323 226.8572583166
210.4803143534 92.4360907649 221.6276638149
219.0787503331 111.0258648997 213.8495510916
221.1724510914 141.7467321830 221.0645845827
234.5193881700 96.4895942794 252.6495156065
210.0253637087 136.8934953305 238.5740411657
190.4553444175 122.7184734943 240.8615682805
220.7602091497 129.2149035730 221.1407368943
205.4967048114 139.3979277329 238.9331079303
208.7025483034 79.3350906759 247.3290030304
199.5695758106 140.4586741129 238.4538099624
222.3090237626 125.5343905098 208.9424941890
212.2195169183 133.9104054523 228.9042845873
203.8446577697 138.5666970550 242.4045787583
213.6310336465 136.8383072530 228.1334156241
232.2314475855 124.8028508825 215.0755131551
212.7834514129 110.6724520879 210.7369319013
224.3051371018 86.1237818315 253.3537186091
227.9575793791 90.4067941002 247.0843722821
205.9004229443 80.2988047526 236.5409919774
215.7470905548 102.6351319132 209.5233036473
214.1034978708 72.5928719404 226.4693590603
212.4458550007 81.9767900731 241.2098264795
197.5093230698 136.2515274793 235.5297596238
233.7236216153 87.6198381167 251.2729726459
222.2777035626 99.3105781586 218.1454549387
218.9131104064 114.6532464215 211.0152089471
191.9242932885 125.2938392463 234.8936888028
188.7830120651 128.6020240477 236.0208240003
232.8001238693 119.8875668753 213.0190079430
208.9599045783 91.9587808251 219.1151643317
216.9772669515 75.2883482913 244.8488663084
225.7277389912 134.0929947459 225.9871469762
222.5833479708 132.8572664274 215.7981871412
194.1817652828 134.9492023857 238.0579728789
223.8971617759 134.0399879350 226.9395914894
207.0363517197 137.3334951546 237.1825779070
214.6806579548 73.8110595066 226.4177902276
221.4117607252 86.7696271132 247.6994632219
221.3960259469 128.6425868688 221.2647533809
216.0006713666 77.6965752005 222.2026300974
196.6109659894 75.3079326625 234.9571357565
210.4540457572 92.8563480504 222.0467355048
201.4328108494 140.2085960114 237.0035163080
213.8581680887 84.6542801490 219.9459685366
209.7393564195 79.7442453053 253.0288985062
217.2829648242 102.8985562630 204.6154243637
225.8149433000 83.5295486628 247.0859438538
227.9575793791 90.4067941002 247.0843722821
221.0823272195 119.0789964917 209.8735176579
224.2339463013 82.9801409197 251.6455803377
221.3504624159 81.7744595875 217.5906533899
224.2592479025 130.9013260161 214.0617123913
214.0315021124 105.1148292541 211.4144911279
193.8425350220 125.6878939879 240.6609048938
224.3792380030 113.5230008594 215.3234522293
188.3181875467 127.4528793628 233.9512528685
214.0408319900 83.2307062987 244.9554299560
209.4702042548 76.2452422300 243.0093570877
212.2938759507 132.5916052244 233.5254971063
203.9033588748 77.3165509528 227.7467886459
214.7296060119 75.6537862843 223.2648919046
181.3973009529 130.5931746791 231.9027672214
213.1938238056 83.3312005815 220.7966778132
221.8038518669 97.6545527329 219.1534893689
230.2740494954 118.0941450176 214.2504528320
198.5937172252 137.5011029569 235.9124753264
221.8965081702 107.8153967355 210.8630239142
224.0043480350 131.9974008177 215.7065377912
206.7380952243 136.0470768859 233.6545557697
226.9045037322 124.1192669747 217.8413812542
208.3557596041 76.8904314224 225.7273835946
226.4419841881 125.1930030461 213.1578448587
229.7540348278 91.8986809063 246.6811815334
220.0170248870 103.0021522147 218.3388271749
212.5581911689 115.0320246497 213.9256434602
206.6368503803 139.9883928464 240.8085688620
200.5755819083 134.5657130612 236.1409381595
215.0958070938 100.0872116641 215.9242291981
221.0519996739 119.7919875737 209.3286214470
227.3638693418 119.2580724735 215.9276095323
222.0729801450 127.1859179130 217.5995297175
210.3711115834 83.7500134310 250.8494605884
212.8901654163 81.9379520117 241.9055043277
212.7893402743 102.4342369426 205.6154974495
200.4956549438 133.7400708107 235.9511314971
216.4968942730 85.4993212292 253.9391950679
215.8160723659 108.1888316324 212.8540365466
187.8879139481 126.9665832064 237.6732791404
211.4089124689 77.9988721559 244.7232500446
212.2380078351 133.1154043839 231.0148136692
198.2973539675 134.0486805333 243.2790399828
211.0778503586 78.3991776204 248.2868564767
223.5475862002 141.8370231926 228.0301531543
204.6806721589 79.1034271764 226.1342430970
208.9319173116 136.7492486460 226.2580131807
180.4767795174 129.3107602751 231.2933482884
217.1949556724 139.7768700631 228.2330102485
215.9623786460 92.4780785155 220.8071755341
223.0204720342 130.3403602992 213.9674211056
211.3967212149 132.2497251205 229.9522916415
216.9714293442 139.9756012062 227.7019917627
245.6924203376 86.0011112762 249.9462733228
220.1672282729 98.5589492493 221.6400642700
200.3820275293 140.0185048173 241.4120011956
232.3627553197 87.2874230177 254.1322936746
212.6074372857 78.5871885186 235.6569987708
187.4972387999 124.9820007682 242.5293976247
217.9106470243 99.6524085263 221.9673165127
197.6117991314 73.7079943480 235.7634999801
191.2158578301 124.7472945641 236.3890890977
216.5422711216 77.8098174271 219.9273947560
192.0956307782 130.2887528762 237.2927753570
183.9782483883 122.4032468236 232.0287517479
211.9312727985 79.8577908834 227.6449471055
210.3777263096 135.7405404907 236.5229836131
220.2020309269 113.5225566073 210.3314494722
234.3888762113 92.8143506467 249.8806164659
208.7752270531 140.2919972832 234.8280199254
208.6089132754 76.3714303904 246.0857661081
212.9967705008 97.0609543810 214.6856621988
227.9998758655 94.6405350882 253.1426010605
216.4111586342 93.3389208898 254.5180380006
223.2123523848 99.8294757358 213.9635061024
186.0850951937 128.6928830325 228.4997828899
223.9314885080 125.6583647201 209.0764758449
222.3615943354 84.3437741235 215.9694391602
203.0205872295 78.2636669305 232.0552068700
202.2780767266 79.0361585239 237.6866995172
212.0583032065 72.5336543780 227.5334736588
215.2212388573 117.3816274269 204.4234948699
201.5690109710 77.6925908756 232.9077861949
217.0435623194 89.3173520907 215.3601994611
226.9483931259 115.0579680267 204.0757658141
213.6655720101 78.9813971541 222.3076651803
212.2577980196 138.6322016266 222.5540471694
200.9096777245 134.4938988633 239.3430231940
244.9985977368 86.5547575907 253.2328530418
184.1862431250 128.7754795002 227.8610365699
209.2783794040 140.4816184285 229.0421520004
211.9312727985 79.8577908834 227.6449471055
229.7143700975 92.2590907361 252.2262766346
212.4189721941 138.7557605672 220.3624743256
215.6491838572 95.7460449972 219.8635964900
226.3104748082 137.0894382247 224.5922740005
215.0044635826 92.6804621667 250.9494129534
201.7829483278 72.1788277321 235.3531045228
216.6984381721 91.9250663273 254.6602825907
226.7654329248 125.8929783016 218.0122111533
217.5257691590 136.9738452311 217.3510299162
237.0819091624 87.1182685851 257.8510501167
240.5495574011 82.3765840404 253.1295218957
210.4803143534 92.4360907649 221.6276638149
229.6117877443 92.8643376778 250.4978220496
231.7696067362 93.3769013637 246.8259781971
210.8541077186 140.0299852957 233.3806293843
214.8160498561 93.2425089267 221.8791472485
186.0978535862 128.1446111457 229.9553180341
209.0894500181 136.5532451740 235.5174886348
208.9661990205 79.7385410963 256.0468751965
224.8748421537 141.0249305500 226.4085941704
221.0759641278 96.2247097070 221.9582908786
227.3087093032 130.4657220637 213.1557705533
219.1025213334 119.9365703131 210.2991950823
224.6145821903 113.6189006631 204.9030321636
213.3297546180 80.9183043309 227.3759376048
225.2201829266 114.3701943943 205.3211949577
221.8545518231 81.7950411742 223.6864522513
218.4551158479 97.7577281006 224.5340466186
187.7860454179 124.6870199182 240.5428976353
224.0021538100 140.4839073282 227.8776687914
222.5833479708 132.8572664274 215.7981871412
219.0978314517 86.2694567261 221.5165840998
212.8296209857 86.6689211280 220.8252716010
207.5654173213 79.3093926966 234.1333775539
230.5724829015 95.5311662077 253.6160093574
226.2312253510 88.0341045183 250.9783832729
212.3719582852 114.7096476618 205.3282206405
224.2592479025 130.9013260161 214.0617123913
230.4972489544 123.6379385250 213.4957208640
212.9071852143 82.7000633332 242.0795426232
199.5696501041 134.7184395061 235.8881717159
192.8112752859 125.5686577864 241.4552939493
237.1439888470 85.0537436449 259.1497783147
215.1075467051 79.9084987460 225.3364139082
231.4061879255 124.5437104096 217.1607539405
214.6898479460 116.2916671423 203.7028034283
219.0098897102 136.3129263612 218.5602436324
211.5453029068 115.7917303647 213.4091744851
214.7710006900 88.0623129040 222.2307871164
213.7948594385 137.1016252646 222.8537005416
211.4368980754 138.0138650286 238.6023425028
205.1815715069 136.8184693295 230.9861666482
190.5335951298 123.7549029735 239.2526223581
216.9714293442 139.9756012062 227.7019917627
221.6635373959 117.4386459185 214.9187300366
228.8673990093 121.7997870344 217.7561568392
207.0428874361 80.9448559007 244.8761767811
224.8738240052 86.1977901694 246.8982138491
219.3294493296 113.0984995519 205.6437026672
210.4803143534 92.4360907649 221.6276638149
207.8663078120 136.8091572981 228.1805483744
199.1889560945 71.4064998542 235.8782242858
211.4089124689 77.9988721559 244.7232500446
220.5740836035 125.2894212151 217.4195510014
221.5236858513 99.4169850977 217.5115720959
217.6960941528 81.1650442965 247.1766383529
219.5687880062 98.9140078355 223.3183060876
184.8160676954 125.9369931472 233.7484393024
194.8082906823 129.6264134796 232.1687546489
190.9709078539 124.7390665940 237.1538292799
237.5161197031 89.4919525399 248.4920255538
211.0751013243 76.1753973235 237.4554474981
223.1140042751 128.4255119074 208.7472525670
208.6176882334 75.0378371097 235.3329682489
211.4781140803 75.6029190896 235.2757260406
206.3968652079 79.9840857362 228.7212665067
213.0144031365 80.9655665458 237.8976431737
208.4707205475 93.0954605755 219.4823465162
224.9381211736 138.4717144499 222.0806709945
217.6802627869 90.0876979510 254.1285725728
214.2572499946 75.5547547517 227.1028390736
192.5984414670 125.2097159524 235.4876624845
208.8394296002 93.6668174858 220.7909761177
213.6605823184 110.7148638980 210.0625943622
216.4194193797 97.5749009230 220.9800632859
207.2317395768 78.0885438562 231.4817240492
203.3114964473 71.6334493804 226.2626872954
221.0957840617 98.2309892597 214.2062121454
241.4292343743 90.0240235690 249.7496055980
226.9737871195 86.2705113657 251.9842349349
234.1394444540 91.6028698237 251.4808821162
231.7646847252 88.2986044394 248.3235151170
224.5588370240 140.6610664421 227.2377297016
233.8506872359 83.6208041598 254.5083654901
195.5861417142 132.1207220489 234.7942985645
234.0563241299 90.4519904313 252.8301597091
222.1702352246 82.3994342969 216.3965726929
224.8442142670 114.6310144904 214.6770109399
205.8644546530 135.9388367693 232.6748249149
232.8001238693 119.8875668753 213.0190079430
228.4188496451 91.5803730667 255.2334963740
187.4981906364 125.9325526851 235.0030156093
213.1651591634 112.9929132100 214.2751476972
210.2292503963 90.4054154156 219.7407866406
238.8731310332 88.2743120329 253.8078488834
214.6023930821 74.4238731514 245.6764788233
225.5544644419 86.4773321940 251.9940039920
215.5388879850 116.0157566940 202.3737971893
219.7675405987 81.6949748368 251.1813191285
210.0944448364 93.6139186860 221.7702328300
208.4537173082 139.6372524934 226.0477159621
207.4400775457 79.2985300839 247.9858676704
243.1458034667 86.8655080912 254.7443942864
211.0393945244 80.7800692632 222.7896359665
229.1620113527 119.5959688841 217.0503353162
208.8767518275 137.8639432952 219.9929157134
213.5953370607 91.6591191157 220.7914473846
225.1843238160 86.5479634935 246.7678081092
217.6197246001 88.0783821640 220.8351274287
225.0806457364 84.1374542797 251.7129047520
237.1748225716 90.4831386938 249.1392781499
222.5136716817 79.8330124261 223.4653494827
201.4030552482 134.9530447227 238.2401265130
208.7843346003 141.7931525060 239.9224115959
188.6851653278 128.0523498896 236.8514346106
210.6565426838 71.7183132268 222.6196781778
227.2671653351 135.2366945590 224.6495794035
208.3569908228 135.3024047967 228.8064891895
242.8963828070 84.7473543582 247.2902499021
221.9281785860 116.4881122399 202.6085928636
220.0558634468 141.3074508744 221.7204155018
191.4123852641 124.0834064325 235.0110872567
211.5463339572 82.3676506713 244.9388675624
227.7227008290 127.2962247873 210.7563934693
211.0011339405 75.1910425353 221.2014507956
211.8023720709 82.6457545996 239.9491443916
220.1676594888 134.2309850651 224.7337070081
217.8141509244 110.3312131604 207.4013017334
223.7591382089 130.4614296798 211.3161413374
222.2456612583 96.8497061080 217.5454671207
238.0948047236 86.3585546255 258.3675222090
221.3479593752 116.6963421585 210.6615878527
216.3056752721 91.3234554869 222.9492534082
198.9219491974 131.4443308421 234.4443771101
218.3048947034 85.7151140702 251.4355337601
222.3213546748 102.1685812914 214.4780266745
214.9008967805 81.2226359721 219.2223626193
203.2536016910 140.8385625842 237.0156116502
229.4237443133 124.3795742984 213.0330459497
202.6757987360 137.8603552131 238.7175390215
223.8008906221 115.7281036755 207.9078611073
214.8042019515 116.6977341222 204.4162181227
214.0805395153 135.4641602839 227.5167618807
186.1893840372 123.6812697065 235.8201081185
183.9782483883 122.4032468236 232.0287517479
190.4553444175 122.7184734943 240.8615682805
228.2148640611 93.0342252739 246.9131680204
215.4751395953 106.2955417455 213.6867071276
246.3330337186 84.8340891013 247.6146457850
220.6882628342 131.3233863356 225.2657191900
237.6004156546 85.1878561328 254.0593447491
226.0046952328 135.2001368119 225.3064360286
225.3747551506 90.3380804597 246.5224980149
220.1909276002 135.7366789752 218.8436096878
216.5254456673 135.5092610492 219.1066979680
209.6752997310 71.5968180143 226.3964752115
233.2248385386 86.8460999108 249.3204183298
218.5536999388 141.1257594283 225.4723338178
217.3037101706 82.1871697240 222.0548836850
216.1202621012 112.5069189524 206.9915695458
205.6864935160 79.2187568274 228.3026557382
193.9630807943 135.1043639691 238.2250807749
205.6864935160 79.2187568274 228.3026557382
221.5858586478 83.2295292643 219.5571646933
193.2543624424 128.3884220119 238.2017090907
209.2880902021 76.0907023501 242.9735686300
206.3582005689 140.4480669297 240.6927285548
188.7958840032 128.8778024020 235.7860764088
216.2759177736 107.3975591461 205.9579313165
225.9514825463 131.3763859319 219.3345034311
183.6992249919 128.6711140400 228.6644449626
220.0984729285 92.0195878813 216.4003516233
218.1192817096 76.0945734244 244.4906960527
241.4433161358 81.3046016541 252.3915466710
238.8951376322 85.9992017892 252.9363470303
190.1318077125 123.1759366307 232.7420299239
197.5428963323 77.1037265522 236.2035168962
198.5362142284 77.3463682794 234.1164199817
218.2500721023 134.4911865561 220.2783960145
192.4125967752 132.2675308385 236.1765993022
227.4868352872 125.4070271470 213.9986252342
183.1299714615 126.8589312223 229.2149890873
216.6470653933 83.3515248815 215.3311873711
232.4932122144 119.8324034429 215.8602249180
225.5700910664 114.4016858758 215.9467690608
245.0555506098 86.8839493335 250.7395710405
200.5118873002 77.5097588762 235.6242331375
204.5416710619 73.8452458318 232.5431040535
212.9071852143 82.7000633332 242.0795426232
218.6821417497 137.2833844044 220.4307069221
204.9392299036 135.9055074289 234.7517650141
243.2754641542 81.7551157683 247.9844743183
215.3797150483 79.7648266377 251.5816631786
213.6795073321 76.8800757495 222.5044196002
214.2352632978 81.2816570326 253.0583599933
186.3100626570 121.2628018116 233.3540922325
221.2833316241 101.4156768562 219.2982839756
221.1734751120 81.2304398865 220.3497856319
212.3619262683 113.4973846586 203.2835815193
227.3331647107 130.6749406231 215.6037887282
215.6339980590 115.7917900638 209.3410196991
229.0535404328 123.8138865696 211.9905782494
215.9975867844 95.0605791744 219.8730481784
197.4577739064 137.5301138358 241.2583366690
223.7263522050 114.4504265875 218.8545940857
211.0525411394 136.8929498640 234.9347436607
212.7388763150 82.4829107827 247.4057681077
225.8245887521 131.1266409335 211.9465568372
233.1173504029 94.3756868604 251.9403599307
213.2184054832 77.5082156310 242.0771513366
213.2805578539 91.5799097355 249.9280335302
219.1720892480 138.3019726973 222.7196244777
236.4469860324 83.8722133693 257.0686785436
234.6280598458 88.0291802858 251.4435659677
219.6494445942 98.5684519234 216.9718352560
207.2386719138 82.4468172988 234.4434658252
199.3636869129 77.7336970958 236.2156163500
233.8258293289 92.7005306687 247.6216695723
196.1187641983 127.4158911820 235.9743911538
226.5292743866 130.2652351506 214.7374542576
209.6692493459 75.9132575667 228.8947942910
218.6655274298 102.2249778412 216.6972201683
204.9392299036 135.9055074289 234.7517650141
212.4458550007 81.9767900731 241.2098264795
226.6613318411 130.5976708659 214.3842247210
214.6365488962 77.6881899892 254.7357451378
226.1339888440 83.6853782180 249.4199044353
194.5396847746 130.7815126811 233.9021434919
197.5578321587 131.1740474633 238.4094308287
184.5484986285 124.9119935826 234.9834284361
213.4493471948 74.1650730008 227.6072138684
185.2383957585 127.5355696725 228.4324584756
214.2352632978 81.2816570326 253.0583599933
222.2827588739 103.2798882392 218.0637529373
219.0569111772 89.4124824385 254.4812337551
222.9669560127 141.1832247880 222.0968654765
215.7737403627 105.9521344663 214.3073688069
242.1623674825 86.7952542890 254.9547195274
219.2114968761 104.5873683593 208.7853578401
214.2306647842 93.9635466552 216.2676208467
