228.3890241383 91.6224838343 212.4378954346
207.0012830602 127.1423164419 228.0197391356
214.2246485171 94.0952848792 216.1299514073
208.9038959151 154.6005501693 213.0320133557
205.4597455388 119.6064004341 223.1510642358
220.8449085599 80.6737240277 249.0316327753
221.0894089645 80.6884469436 221.2993889417
200.6737759175 124.0239652278 233.4760547580
215.8907622935 67.2820034509 253.8729840422
222.9427843610 63.7299965018 269.5124422660
222.5381481967 83.3008777243 217.6576897488
211.3196895460 148.9679565398 224.7396079983
221.1099960286 101.0198959884 210.8616201990
206.3074126157 160.3322152442 212.7633646723
216.0633105541 98.3103493326 208.1580988701
206.9939861299 141.5394377557 234.8525391862
226.7638261120 59.1809431236 267.2126799336
222.4804874105 90.5452319036 236.6902312067
215.7778567276 69.8195112001 254.0840232629
212.1588812516 105.2300356596 223.4557063504
211.0615766273 141.4239477288 230.6408574963
222.4467153875 83.7382698055 243.7676696452
204.5081204607 143.1414151542 232.7660588262
223.4792354363 89.4084889116 212.0714143991
209.0174934384 135.8615671420 226.9441343190
222.8814244440 95.3141338525 230.3220160306
214.4589117736 114.1942305207 219.6083165890
211.8103959795 107.2319165160 219.8572605708
218.5604527950 87.4260220936 219.4865519463
215.7883295524 113.9584411146 227.7612482682
201.7896301791 147.9661756720 234.6820452274
222.5267714325 89.7418525391 211.1640787762
216.1430686598 119.7041265639 226.9254745053
212.0111896187 69.1438510097 253.3207848236
227.0205315123 68.9122485903 269.4262414652
224.4141881931 72.2895021813 252.6620774355
221.3781843625 101.3305511922 209.4859884599
218.8125395364 81.1032972678 245.4941925468
218.3086571112 102.8376105259 208.1122430447
213.6349629664 138.9618163650 229.9686226579
226.0301131713 86.5569507333 213.9491740251
224.9925684282 91.0288862063 226.9735830373
221.3180593441 81.8858197790 252.5254321435
221.9340451701 83.7447272602 246.8512954600
214.8673762509 88.3503252873 245.6361701498
207.7239485315 149.2496131247 229.3919697689
219.6051914306 103.4688549136 224.1903230282
210.4721352369 82.3886379730 246.8167840125
209.6990942132 141.6106572521 234.3183517685
214.0733855760 96.3066876567 219.9727918832
220.5478431523 85.9530729454 238.7750507525
227.6984204460 87.6840750961 209.0662938518
216.3514348096 100.7400374041 212.7886802278
201.1044876541 130.2206015058 228.7563922624
214.4012158432 82.2810684472 251.1000628796
221.8328523094 91.6680057624 236.4098048517
221.2011847465 86.8205549025 217.6719984897
213.0863761667 114.5217510174 223.1936143822
232.4794899532 83.7617242055 211.0684020440
204.2085769448 121.0520634607 231.1914141843
213.5545140636 107.7097411551 216.4134059924
210.1411073511 158.1856355792 209.5079035002
201.7037169215 115.4397785852 228.3413979988
214.4012158432 82.2810684472 251.1000628796
223.1853928651 69.0053797742 267.7088631755
217.8129446046 95.8647214211 214.9881366458
207.1784520795 145.3515666557 232.0740427746
214.7559260142 154.5050056427 220.5193722719
215.1471843642 99.8635417866 208.4275857733
227.9155296925 90.8898676934 213.4552979231
223.4953103704 83.7663246130 244.7718124281
224.0636658452 87.3424708996 235.0049670909
206.0824137412 139.3810169521 229.2703016743
210.0470975055 149.6276461267 226.7143893632
217.4154466429 90.6823826997 232.4120175852
202.3172505959 148.1143541108 230.6013230076
220.9879004450 89.8630673264 246.7924464599
201.3676236785 117.7589054169 227.2500010767
212.1340846289 70.3690643055 253.1633678644
229.5038312731 89.9477455189 212.7119285444
216.4857368887 103.1646567536 224.5632101296
219.6980149759 70.9747585704 254.0604781962
215.8925290583 68.4358329046 252.7730480677
208.1068778949 76.4257908223 248.4326825935
221.9398549005 65.1349547505 267.8460294343
225.8163188982 60.6480492843 269.0573114800
207.5458848800 147.3411275561 233.5448651671
210.0049251301 155.2868679085 209.9552981191
218.8323471460 91.5098272703 243.3431952093
214.1893206428 108.1741310875 218.8736623319
206.5947142271 128.2504077528 228.6702555356
224.8317766025 88.1797981502 209.6352323974
225.4440621841 88.4272271951 224.0738290893
218.9705254901 84.0547730810 251.2458018019
216.8807929653 99.5274750229 235.6450982758
212.4803409337 150.5384265657 209.8877295839
225.6777705247 91.1869616862 230.6060141419
211.8250594436 108.5866717126 222.9634204823
206.5749433833 100.1511097926 224.2160208269
206.6798195027 81.8272075510 251.2987511953
211.0383803312 86.1916776988 251.0371618666
220.0049502051 104.1078427974 222.0523138134
207.4002341872 97.9784629130 224.2071925987
207.1372348611 73.7806596109 248.4222074959
214.4578031991 152.0515939434 215.9016466838
224.2040838269 62.1764109997 269.8241408710
225.0665490242 95.4873298898 230.6491387803
208.3416419225 154.3900817956 212.1545583807
231.0441327645 88.7292566018 212.5994047198
222.6737148975 84.0042645231 237.4295605918
223.6096937546 75.4984793220 261.0183977891
220.6381081255 100.4513443202 212.1193845358
226.1132188319 84.2617437194 211.3490965857
221.1099960286 101.0198959884 210.8616201990
228.0908684065 84.8218363422 220.5504208045
219.0375287675 87.8054622473 247.5468215686
213.1383178208 120.7574631465 223.0872471489
201.5542833326 128.3885634990 232.7866837883
231.4757102267 88.8050301241 212.1474134269
220.2580221635 97.4199903075 234.7078547285
210.0049251301 155.2868679085 209.9552981191
227.3245526453 101.4012220344 208.9418697725
208.1868662935 77.2162161314 250.9161557284
216.2046936465 91.4194000282 237.9231550219
232.5928461213 82.3533997449 209.1866515259
214.7901696093 100.7184400513 214.8681632598
214.6385155793 85.1399843064 245.5260814682
219.6438971002 104.1643482415 211.0105717429
217.9406034559 106.2988686914 219.8152288551
210.1682725067 69.2784687994 249.2147401085
220.3094885279 67.8444195954 254.5069202902
200.6236721297 124.3784817167 231.9404498434
212.3826898826 67.1584191252 250.0415803677
229.9503465389 79.6140063221 218.1622008413
216.9916034650 109.0912380993 223.7183670095
218.5589039028 98.3197824323 234.6650241184
213.9556667333 96.6116239439 221.6911764263
215.6126018234 65.9443235544 249.4092910570
213.6796898122 109.4169752344 215.7074512736
225.5477324204 68.5967845162 263.1864041484
223.8632807241 102.2397384530 206.0173694745
207.5952102219 132.5181811180 229.8742992972
226.3389732609 62.5062579130 270.1068970460
201.5330733643 125.5747028547 230.2739090944
224.9099639343 72.9593716333 258.0097297443
217.3510993108 82.5119347845 220.4929530926
228.1526919553 94.1944957900 212.2260997770
219.5878638172 89.9619769423 228.4278932353
222.9884935840 96.4202970897 215.3794776887
209.5199625365 147.7550504765 223.1873128369
212.2206741787 102.8167233997 225.2170559523
212.7145180225 110.1829533685 219.3992408644
211.2062379711 84.7792767487 254.8707569487
218.9003117576 69.5801519578 254.1586862254
213.2760941603 152.4314952097 210.5269988171
217.5081151269 65.7986391124 264.5956421412
216.6153071131 73.2144770917 249.0965703834
220.3823380274 93.4678211630 241.5877925111
223.5515842304 95.5694108358 206.1029578632
218.6429209090 91.5293066953 224.0094878567
220.3400846279 84.6982375798 217.6882082713
208.9998279220 111.9064181596 218.4156750662
216.1589556236 67.5926639227 252.4973499585
208.3184043479 134.1223245195 231.9585912969
214.6426966725 104.9961715132 223.4326476972
227.9155296925 90.8898676934 213.4552979231
219.3473751326 98.8704569218 208.7070404413
212.3609316530 107.1016355265 215.8274458649
222.0131918626 66.2769450777 267.1514298235
206.9435450419 156.4926395714 214.6317818175
216.5620673129 90.1698798111 237.4878909467
218.3596921634 94.3483278529 239.5139504840
215.2440664719 117.1723108259 222.3019671259
225.3945452606 86.6201745711 227.6980206108
209.7730534087 77.2558215010 248.6718197518
222.7925787081 95.6250892635 234.4142501352
223.9767342743 66.9189297411 254.6190418279
221.2563750837 65.2646313665 252.2620541635
227.6378737519 64.6253652986 269.3402098454
224.1059005181 90.0614016396 238.3766080613
219.4026869369 91.3252931163 244.8807559173
211.8405956505 101.6703333297 219.3566563532
222.6126523506 65.3727010552 259.8790883827
210.4804851474 153.5337644476 211.0399810924
228.9298071700 85.6786907965 220.3048469821
204.2871317497 132.3997037711 236.5000113303
214.3375275298 96.7761154010 212.0333290056
222.0595972537 90.0625714077 213.2796513028
208.2601935642 158.0751287266 214.3201129886
208.1829791695 120.2355471102 226.6642353764
216.6153071131 73.2144770917 249.0965703834
225.5841397892 96.3014497120 231.1861811415
207.3936775797 135.6078516006 231.6661548037
213.9697821261 86.1493399830 247.5639129554
212.5184144728 69.0944643726 247.6720584707
222.0845093738 66.0146149016 267.3737704116
208.0457628318 160.2315977612 212.0460308772
221.6834195727 92.6227069403 234.6892053423
211.5114682779 117.3328853046 225.3159010498
214.8073354324 153.0831916489 212.2835171803
223.8421178142 93.7232173751 231.2852304771
223.4779259495 93.6735808328 215.7179831385
203.9277627970 132.6464076386 238.1273668635
209.7728109904 143.6567488976 233.3296828429
208.7120856487 153.8639856113 217.6615322369
213.1400436536 80.7490397140 252.6464686815
225.1195525565 89.3513342134 223.2580329965
215.6967509525 108.1932203452 225.7261172555
206.6041955220 126.3234171329 220.8155160480
222.7971992899 70.6877726680 264.4099332538
210.0380158070 115.6480471791 223.0113256223
216.3291762006 104.8809563058 209.8199229527
219.9533652917 88.5865925425 230.7217238471
216.2112640071 112.9038255545 219.1508919788
216.4710497976 94.2823105162 240.3866152390
220.8573933656 88.1873663253 221.0463051941
219.5831621808 87.6417835758 222.4067775002
230.1707054655 86.2763673859 215.0295941917
218.3131057212 101.4210510033 219.3838955090
228.8811170506 86.3016381794 220.0598090853
221.5010610020 70.9252165374 257.4473701490
220.4112317082 94.5187249011 209.0255336887
213.3440012856 156.2158701544 218.9546972814
225.0997583930 86.4864436309 226.7161008284
218.0773952223 86.6267177695 247.7439998513
210.3081963606 147.6830660353 225.1656508236
210.6034631615 103.3204781587 223.7751263330
210.8874498510 108.2464290967 218.0514009640
209.9406609926 111.7481176922 218.1130036669
220.8869770881 91.3396972058 236.0268750299
228.3767211875 70.2110514277 258.4733631999
214.8104147083 118.8711583836 227.6695563005
212.4958559063 152.6577729425 227.1012605537
220.9959275452 88.2255013691 242.7792062306
198.6581139506 119.0026832158 227.2610777284
215.1718600124 95.5927500000 212.9865659333
222.3632765540 85.9716536155 235.4875788288
206.1709999544 99.2966138858 225.6195957837
217.9220925721 96.9033775854 214.6135055507
210.6144312935 137.2611881065 229.4487182359
208.0272658359 136.4358284418 226.1242552814
212.4002283314 124.2130823401 221.2509787271
201.6218419355 156.5936332162 209.4502422338
227.4600057184 88.6103271613 208.7289550193
221.1442115074 95.2653872959 211.4741702928
225.8615298402 65.6873464405 270.7027528117
220.5002390405 92.4390570773 222.4312882708
210.2873091604 68.6800169653 248.5710062007
218.7005444057 86.3286183489 238.7836923202
200.3612868842 124.2285339556 230.8552145513
211.2612934732 124.0328054635 221.2760708088
206.3414786064 124.1506668629 224.6076848197
211.7597433976 125.0158513723 218.7581137712
208.6214856951 114.0055681092 218.1606604374
223.6291829720 90.8221699017 208.9424757548
213.3409369967 159.0112424679 213.9074914496
207.7276092498 101.9962137827 227.6741617778
209.7085209186 159.9058496499 214.6291898333
206.3761763035 122.4927034780 229.6184414893
205.8412990020 151.1401167652 231.7301284924
208.2455769793 143.9961469029 234.6890891627
202.2097079466 132.0421823583 230.0173442775
212.7656576649 112.8261992330 215.7011688670
224.6849069973 69.9560816131 255.5540799817
217.1950456773 68.4813645729 252.1712180449
209.7607675183 98.6554983018 227.5168144496
208.6117139327 76.7365483308 250.5899445169
204.0200284084 148.3503625962 223.0681085993
206.0824137412 139.3810169521 229.2703016743
226.8468321321 99.1960088786 209.7702752863
206.4547249051 125.9526782563 227.4667458028
205.0199083474 133.8193704524 231.7523445381
216.3664953036 155.2879030416 225.9827218665
219.2216710970 71.7408111174 249.1933646786
205.7374903677 153.1622795228 220.3625521754
225.7740620356 96.3436605659 216.6499470210
203.1487919119 133.5047494411 236.3004669814
204.1776860998 118.7518281954 227.5453469913
224.6101298554 101.0863736942 210.4316413713
213.1435414971 157.1126520610 223.1903716238
216.9384331570 81.9479924711 218.6971224215
224.0087329531 68.7436272329 267.6131186604
217.4711264381 69.8786974900 253.3016366829
215.2511505226 100.2266376569 221.2277998148
218.5816207481 94.1388650901 232.5381490998
208.0125174892 154.3063192124 221.7783047067
221.3706600909 86.9153805631 223.6726306400
207.9495443381 149.2282166174 229.2226826782
211.0899413650 81.7072181176 246.0012601174
211.6790242751 136.5605330554 231.7602934401
207.9883169202 124.2999967323 225.4692089893
217.6718248281 98.9014587382 235.5445444979
229.2036598801 90.5101725179 210.3387383296
215.3469619384 72.8031062624 254.5431935700
230.3855588293 82.7239352823 222.1395266340
222.3231434657 90.1331856068 240.1299084682
226.8073389971 69.8500153551 249.5506523591
221.5192372800 88.6508817530 242.5490120214
215.0544815024 116.8976615451 219.5402449627
218.3453295832 65.2392524576 265.1841006002
226.0640861682 68.6370349463 262.3038890727
225.0403664228 84.5664135204 225.1472033570
211.7024361046 79.9809776959 252.6554696485
211.4157022039 122.8432447766 222.4993551933
218.7269304869 92.0846691480 242.7697868808
219.5937449809 90.6138087547 227.5419317062
223.6566397235 85.8644918248 226.1643380162
212.6846832942 72.7322273821 250.9403678824
205.9491992824 133.0742677931 226.1375186898
231.0441327645 88.7292566018 212.5994047198
217.6315088792 89.8007201904 232.5683387780
225.2228188456 93.5686838274 213.8336301620
214.5372519151 106.7511150691 225.6582679134
215.7111361375 112.8320830543 219.1882759059
214.2144620734 119.8838616514 221.5830647485
217.4708204304 95.6414832289 213.2288833184
202.0091242685 123.1292377089 230.9420982144
212.3300384433 153.6379730492 227.3316205413
210.1419169679 142.4893702970 233.7090996847
222.1879928172 90.3765589009 227.9676484880
226.6596582935 95.5588913247 206.9030421046
224.9186196672 70.7489810672 252.3188724040
202.7504131643 115.7339009663 228.9019119508
208.9372119990 116.4656223497 219.1115920343
209.9157369188 116.5405371262 219.3575154843
215.7697047275 80.6612276235 246.1953437544
205.4059040512 147.1841122755 225.5881453389
204.9083898214 149.2024489398 231.2494339528
207.7064639240 82.4122752813 248.3940912730
219.1020071819 90.1687606299 237.1511124462
224.6520466674 70.3209305602 265.9910304882
225.2552056287 67.5454591472 248.0094106277
226.6535366958 83.8056115681 208.5238630825
214.0782158697 116.2898685649 218.8095772957
214.6426966725 104.9961715132 223.4326476972
222.1040572821 64.7558939550 252.9017597433
225.9976709175 83.7244012820 222.7514565672
215.2767619999 118.2193871829 221.1531881535
208.7158448306 113.9238578179 217.7753117054
201.7315301216 146.8753390302 232.6365078318
219.3366992200 70.9860057409 253.8829424572
219.2842151351 92.0075220479 227.2458263572
213.9697821261 86.1493399830 247.5639129554
215.1909301829 67.9510148746 253.4774515187
221.9581373307 89.8191320715 235.7758544802
213.8239440217 114.6716219394 222.5418401633
211.8760889503 160.1183126283 213.2498949703
216.7632127568 154.8055496054 224.7681250125
205.6662111603 149.4568088102 219.5405803414
201.7315301216 146.8753390302 232.6365078318
209.5330161703 82.7458570581 245.9191640326
216.0036409412 66.5206461108 249.9024696098
215.2019552011 115.7433997637 229.2016917954
203.7449563459 134.4540851949 239.3710978099
202.9905493714 133.4487025542 231.4695323749
209.7766786303 153.1633305601 219.9731074410
210.2873091604 68.6800169653 248.5710062007
204.0013275401 151.5222040738 235.2408161450
217.3176784931 62.4325808958 262.8349478607
211.2468214745 107.9997203656 216.4240401945
208.9998279220 111.9064181596 218.4156750662
205.1281745806 146.2107670715 223.1897566982
225.4822124422 68.1966213220 262.7865397639
217.0375199558 79.8036039674 248.1790996404
210.5009191372 155.6283353423 221.0555231567
222.7971992899 70.6877726680 264.4099332538
219.7876861459 61.7987592033 261.6091864665
203.4042042581 143.5995750685 234.8788191732
211.3091813633 95.7795454093 221.5437382542
218.6249337865 103.9347927952 207.6297918439
213.7141746163 101.8535605626 215.8876323317
220.4399586175 68.6092697740 249.8609613483
216.1000281984 113.2825406310 217.1936014520
223.1853928651 69.0053797742 267.7088631755
208.5269675914 76.9745463953 253.3678875954
211.6482873048 99.5016076979 227.4331255298
206.0217678076 126.4602670851 233.1759397554
213.0190234965 151.1765987920 218.8799650050
208.5027197525 81.0155875993 253.6525732592
218.1221449641 94.1564930109 233.6919688785
202.8794939555 159.1148275946 211.2991935324
207.7257819966 84.1212661926 253.5152958610
217.8193670887 93.1145922083 226.5882298780
212.6364448107 67.3498213457 249.9393031905
227.0789975030 94.5591812760 207.4530566518
221.9617320699 87.9884997986 243.7431156601
218.3337428770 80.9005133165 252.5085790166
218.0154666372 73.3679646698 254.1119912606
210.4829609862 96.7655003496 223.2825737091
225.1593180088 70.5272238848 253.0509119983
221.3330010110 95.8062431119 233.0251026129
226.5411017944 92.3887863445 208.5337256336
216.6361761946 63.2800925058 260.6948328250
225.3361532229 84.7731702211 209.6618207951
218.6622667735 104.3999655562 211.1244453977
214.2923203400 108.8423594051 216.4061902326
223.1774209655 89.2801781402 248.2448661012
210.0240113806 70.2953110382 254.1383380280
206.8385551096 124.9229110903 228.9374815103
223.9696492789 66.1926686110 248.3677856548
211.7467760717 104.1667347569 224.0274087148
217.2628417766 93.2214622365 234.2331823653
221.8328523094 91.6680057624 236.4098048517
210.0155805919 118.6280935441 220.6550602532
214.9920384402 81.4094187013 250.3169192699
224.6405008308 86.5267870024 220.8250229888
220.6288954062 94.3118567448 214.2309209710
205.7016293138 119.0644827164 224.5508776259
222.3632765540 85.9716536155 235.4875788288
227.5665132329 93.0051914107 232.0266992204
215.7794073962 102.8026205528 211.4809938271
227.1359749408 63.0591549296 266.0269090910
218.4283647797 88.5198716662 228.3600438931
214.9723094535 80.0675723388 251.4194336386
210.7684858116 78.9712889196 248.9324408367
208.9660892916 153.1682290379 214.9250518318
210.3721274507 101.0887202372 219.9638211791
209.1249008121 127.5467811024 224.0341828561
206.0788329779 153.9136621206 210.9854297291
218.1771252808 92.3000025579 232.4487778469
230.8084108849 82.2910307373 210.0111674543
203.4926161481 153.8160148722 223.9249253982
209.5199939254 153.6403986782 225.5612942290
211.3092790081 121.1277057086 224.1066909335
226.2592574305 87.9285489070 226.7839501706
217.5079792829 80.2537971633 220.5175001523
218.7875853292 83.7646776831 245.6941721750
222.5306684556 85.7489400207 235.8654990904
219.9090850205 91.5806544915 229.8274345026
226.4735341821 91.7803753309 234.6219084082
207.8859545021 87.8021148190 250.9349173492
220.0894774497 68.0047691866 261.2294620620
219.9149772745 96.5835382686 212.8865734777
228.4138188696 84.0427959317 214.9241880015
219.9149772745 96.5835382686 212.8865734777
221.3590587704 84.2134718394 238.5316653389
217.8301920539 95.3947744977 211.6015225488
223.5422995736 92.2730759758 225.7921840051
225.1307502206 76.7816018909 260.9987034785
214.9371659172 72.5647036370 249.2932176609
210.9465754630 79.5139616125 252.2870292962
216.9473328435 64.6945989358 260.7635861322
205.4827832465 130.4282483621 233.7103231147
212.4002283314 124.2130823401 221.2509787271
204.7560644776 146.7368913865 228.6531206008
213.7470730302 110.5003504647 220.2809013505
214.4199030691 114.4183383869 215.4134410513
209.7463857352 125.0861949113 217.6789781371
207.9448914637 154.3043666761 210.9810150531
202.5494483341 132.6488257084 225.9700981558
202.6083747541 127.0690492449 229.5654994225
205.5723660487 145.4186694756 226.9427544856
202.7462907144 149.7893865297 223.2775375129
201.3484869147 131.2813210234 229.8098255053
211.6482873048 99.5016076979 227.4331255298
226.6709468305 97.3384562805 210.1091611769
208.7536114904 112.7785243960 219.1346405637
202.0369773027 158.2561108986 206.7453136019
222.0559584247 96.4920730460 232.0143308230
214.8983759972 104.1475584904 222.2724219978
218.6569190311 95.3341092437 233.3960287853
216.2753509703 149.7805798419 223.0322276486
215.1247075795 92.8786671887 237.6525436227
205.7852959257 123.8264258150 223.4012960664
226.6424918887 96.4483820281 211.6018030358
211.3342227326 115.0688636617 222.0994892559
223.2632208482 100.3020301114 210.2750355256
224.1064243984 82.7188166870 246.4644230220
218.1349466573 69.4873975503 251.0838334368
229.5242014438 87.9701708116 210.6059932811
213.6062113973 96.6274065252 222.0883644097
207.1841598115 150.3595667291 228.5391296050
208.8623958070 114.5167975049 220.3007412731
219.6265313242 99.2763730626 236.0956741314
216.2046936465 91.4194000282 237.9231550219
214.3281879769 150.5601962312 221.1925614212
226.5786388020 98.8853484069 211.1459093700
211.8538264710 85.2554793287 251.4691225156
208.5332685700 115.6111264429 220.5151669912
228.8951820854 89.4134324326 218.5011002322
214.8122686663 64.5671280633 250.6692858748
200.3362248881 117.7949906253 226.2810035709
209.6703523786 118.6823234848 220.8359903673
205.4827832465 130.4282483621 233.7103231147
224.6725249070 83.2565075246 221.2979428387
209.4817784004 109.0088348215 220.4066533602
212.8343774325 115.5594011617 216.3394413057
215.9081940674 103.0529419328 208.5654035087
223.8387427724 65.7526088219 261.2122693002
224.4241882943 89.9301194756 214.2660273803
216.3264290849 103.8304493863 218.5702767007
224.9315265000 93.6525722582 215.1326174063
221.9617320699 87.9884997986 243.7431156601
214.6385155793 85.1399843064 245.5260814682
212.6869875328 149.8368451988 219.5470471967
207.5508842665 139.9626401761 228.6631397401
218.4332913928 95.5710046576 233.7607121276
207.9728790057 116.8893208341 224.8680884615
220.8674463058 95.2287621221 208.1674547409
208.6007527327 126.7420256629 224.6527374308
207.8717643341 161.7454305334 211.1386638457
220.6847139688 69.5674389405 260.7372608462
213.2983041616 150.6094886673 215.8337973416
218.0470020890 103.1862541064 222.4837270977
207.5496821120 80.7557653094 251.5137087800
217.9799530961 104.5749863327 226.1717307196
218.4977105424 91.8501366411 231.2846393959
223.9308175836 95.1427907994 230.9193531004
215.6245768867 83.9065254766 244.7796599148
208.4181701680 80.5838243277 249.6657012023
215.6061510605 94.8213084414 236.6852824947
212.5184144728 69.0944643726 247.6720584707
210.5682837288 143.3316178783 232.0558729477
218.5604527950 87.4260220936 219.4865519463
212.4396088555 96.0304143295 221.6716605777
213.8910202969 103.9209561481 224.2332835106
205.1455761237 134.5228856961 226.2960446946
218.4792322248 63.3841528379 263.8927216022
216.1424389210 103.2455260982 223.2945501036
222.9569859586 97.0173583271 233.9686839002
210.5076122866 97.6888231060 222.5497386715
220.4240985956 93.5756796644 238.8003446892
221.2978050643 65.0541418263 266.5533137887
208.3544776282 122.5744561444 225.6970828672
209.9080595661 110.9467177974 220.5008462366
229.2529562343 90.3924441134 212.5596540779
224.3827198163 69.5467125014 263.4839279703
205.0892929223 133.7450384244 232.9204012310
220.8233500665 66.8135430753 254.4373512775
216.2381044198 91.7470745157 242.9174834565
210.7450045337 123.8147834180 221.5608437160
217.3218567476 91.1200351384 242.3485385949
209.8528545490 158.9987346154 211.9751064130
207.4095591213 141.3410063727 234.5666368477
199.6914533434 127.1718246516 235.6280551363
210.8743640066 125.8963998679 223.1301377992
210.1199316739 148.8886786240 221.8575913619
226.6955663361 100.7886908853 208.0243886126
210.0094201932 146.7835296969 225.7817422099
212.6864864080 156.8963922795 215.0149603820
213.5556436994 151.9616759766 210.6062040914
200.2993002637 115.7594358016 226.9304302850
206.9516647672 139.0422375376 234.8801134158
219.8803490258 82.5469247577 217.1242023102
210.3202273899 118.3793943908 219.4468890819
214.2655022021 87.0771251702 247.7274822488
228.5817584931 95.7271188266 210.3031114680
202.6859605205 149.9073330299 235.5109613792
222.7043063000 71.7736636277 258.9750824844
216.2391479861 100.5052846595 211.2782795261
204.3526040246 150.9902101852 234.5955249754
218.7425954029 100.2455686304 207.8513011704
222.7114669471 72.0576103888 260.3031242293
206.6798195027 81.8272075510 251.2987511953
224.0069995856 87.3458376868 221.0332206629
225.0761020348 80.7177497768 217.7744859162
213.5489453872 77.3247370229 252.9959905865
208.3184290576 127.0766198610 222.2849154328
218.2688578664 88.2770818522 236.5468477224
208.4746055132 152.0080678951 215.1598293699
220.3094885279 67.8444195954 254.5069202902
205.6136091701 123.7278097719 219.7060208353
225.5035505414 90.2357687692 209.8227552402
219.7365071046 66.2504168039 265.7059763646
209.0441375765 104.4813299163 220.5392796250
202.0054635981 130.4395966361 232.8863676635
208.3367865550 121.9589167983 219.9186225438
227.8403604015 76.7389848771 261.0478010427
211.8505201148 97.1892490955 224.7695875665
209.8614062611 141.8029844080 230.4488509909
232.0775556205 87.4345283394 209.0838524033
211.0745057500 150.5479937361 216.1597983995
216.4794573372 113.2144860262 217.7752578950
217.8703077040 84.8410850186 217.7076676735
213.3670378705 100.6588578896 219.3717409992
228.3763702782 68.4786783055 250.9850106444
225.1133203781 88.9093921666 231.7400487095
206.1549854599 131.3582940481 230.4006251074
225.0684186761 85.2241986192 221.4905576355
225.2833058794 66.2730793919 260.5142090885
219.8584983809 67.7914572138 262.9526986264
208.1003165420 77.0737701737 252.4374311595
219.9259911959 96.0802419819 235.3749345755
210.9592706768 151.3149511322 219.4341373955
225.9789484392 77.2451451525 258.1406810041
221.1333747385 63.4208767067 260.3576039900
214.0665707834 64.5981245681 251.0789888722
210.1274955784 120.0688766934 221.1368912693
219.7048061054 84.0731249318 246.7596129975
208.1072505359 147.0714708585 223.3636567807
206.8442192179 119.0703849983 221.8606933305
221.9230081113 92.0601513912 225.3898823084
213.6785494270 95.8401964608 239.2739186773
228.1299757344 91.9938812306 209.0543768184
225.4463450604 84.3134674356 215.1565131342
227.7287988096 84.0570402784 212.9941311152
232.3417321840 86.8871409783 217.9037170098
210.1643429706 142.4771171078 233.4594426681
220.9810322969 82.6743806339 248.6371586462
214.9467645039 101.2457677579 221.5829722374
212.4821228058 73.7126426675 254.4518600235
207.8141006315 154.7750654554 209.4735334154
214.5252148823 153.0284408406 227.3840727168
207.4521976365 133.9147599934 230.5439763175
232.4794899532 83.7617242055 211.0684020440
222.6298647983 63.8933908620 265.3385660173
224.0873179089 90.0243726903 229.8634982405
220.0123416815 97.8257922727 215.9094948513
220.0072882791 93.6642289943 210.4291086455
224.1351954263 66.0258863276 248.7537079163
214.3337310289 112.4869911736 220.3142736524
215.7967597682 156.9088632143 222.3040947533
226.0462041972 86.4606971369 226.2552785688
206.2033887620 123.6692263041 218.5147610345
206.1034420772 152.1679031706 208.6914076126
208.8454574081 153.8962529246 216.8390722505
209.8522820630 113.1657225850 217.8352267265
220.0938032775 64.0954209127 259.7521822193
215.8393023409 83.7631691940 244.6324361357
211.0449883076 151.4024348383 209.5187370890
220.8627519708 73.5637418248 255.2299899585
205.0807378208 132.2159241616 236.4023384597
225.2093460329 84.2734918514 224.9357762186
216.9861039845 82.6728547544 252.8704885138
214.8073354324 153.0831916489 212.2835171803
208.3965825904 141.5651308514 234.9201794467
210.6424861639 127.4098343507 221.5260353971
211.0118704084 149.9568033418 210.4948915180
216.5008699603 92.7772394984 232.5804405986
214.7169732947 93.7572934668 213.9004643671
225.4078149402 61.4508632806 270.0556624676
223.7217870885 88.7192196944 248.0746384226
212.4174333122 119.3102449232 219.0694521160
214.9980788978 88.1902747123 248.3965748076
208.9038959151 154.6005501693 213.0320133557
225.1593180088 70.5272238848 253.0509119983
208.0829673972 145.0773868175 232.9112555564
218.2656906933 103.1091809170 217.2715874775
209.1767890038 148.5964483558 220.8320635069
229.4344156889 85.6166412325 214.0429383167
211.7597433976 125.0158513723 218.7581137712
218.1067598106 90.8318783149 235.6394282666
208.0593717143 143.1401748970 227.6787036599
220.3927288151 86.7445495017 218.2595269614
225.1645314117 66.6336546934 271.1263601546
210.4804851474 153.5337644476 211.0399810924
207.5052257266 126.8486975502 222.7698638888
210.8117260635 142.8485656068 229.8123273809
216.5785338891 102.6046410138 223.0908919237
202.6594901177 146.8947382941 234.8970080484
208.7833347677 146.4036271979 224.4485589479
213.4713906048 154.1350135687 213.5071412984
215.3137172789 107.5308142290 219.0300163336
213.7222306722 155.3471493712 227.0457031406
214.4199030691 114.4183383869 215.4134410513
218.6569190311 95.3341092437 233.3960287853
225.0403664228 84.5664135204 225.1472033570
201.6218419355 156.5936332162 209.4502422338
224.6520466674 70.3209305602 265.9910304882
220.0832832820 91.1684117099 236.8708372318
217.9397945901 86.1857551456 218.2445916317
222.1451579714 66.4908557969 254.7917268903
211.2612934732 124.0328054635 221.2760708088
210.7281790203 102.6754743132 218.6042913507
210.3721274507 101.0887202372 219.9638211791
203.1431616136 121.2110349957 230.4639147555
223.8387427724 65.7526088219 261.2122693002
209.7728109904 143.6567488976 233.3296828429
221.3642470535 93.4174051102 213.5796771800
213.9705936348 121.3520291216 224.2940865518
218.9058219190 99.1574149927 208.6005236954
204.2306482593 143.4706027192 232.1911459096
213.2739363822 101.4937809571 216.0124153566
229.2529562343 90.3924441134 212.5596540779
213.2739363822 101.4937809571 216.0124153566
206.5271027534 120.7882651674 228.3499760782
217.2845975674 83.6020654785 219.7428396805
225.9486886048 66.8202023116 253.1912445628
223.7515229008 64.9574730284 262.2688280863
221.6477662447 100.4307370449 207.2252877274
205.1248913574 138.5786525629 230.3430970036
218.1067598106 90.8318783149 235.6394282666
224.6957526818 64.2742426050 265.0477590172
225.2749749035 93.5738516104 212.7043999880
217.7268662619 153.2855481280 223.3191532981
219.9149772745 96.5835382686 212.8865734777
201.4873017267 157.4056512726 211.5851109332
215.2888463356 96.8583099981 236.3078640234
209.3484840983 78.6061356116 252.1810985186
216.9961781526 92.0864474412 235.3749208577
214.3483864440 76.4111252485 252.2096158111
209.5265323792 146.8108615309 231.1576977294
225.3485905331 67.6916527692 262.1278771563
209.9618726387 97.1232343671 225.6422472925
207.3627216632 154.7040467952 213.6173388393
230.0643153553 84.1456745326 213.5493571528
212.0111896187 69.1438510097 253.3207848236
227.5638549980 96.6588610332 209.8699383974
217.0420601026 82.1797353117 218.8989676108
226.5831878916 63.3090302878 266.1551156405
201.4689026193 155.9945699932 209.6760147902
201.3109635375 131.9414751368 227.6217214757
224.5798540140 87.7423526706 248.7333853982
206.3919130310 125.4846849183 229.8138971408
214.2718108931 151.8089370155 211.0929587535
217.0165248353 92.2202296391 236.7040554346
212.4002283314 124.2130823401 221.2509787271
201.5857970372 156.2050777615 206.6456297267
222.4146545346 64.5504808512 266.5423102575
204.2277657454 142.0142899596 232.3000695711
217.0226777957 98.6239647702 239.3759581833
224.5182393318 88.9363148919 230.8607830523
209.6970768265 150.3143936365 230.9683549679
202.0035594671 128.4513727662 231.3824633556
209.8335139995 110.9126393092 215.8970531196
222.1454708665 86.8735141681 217.3462192915
207.1199716640 125.9234863113 232.1234402180
222.9914132174 63.3647406201 265.8936500113
220.5303356904 91.6224740940 237.0116348745
202.7485936431 155.8520661235 211.8967942438
221.5823438535 82.8384143122 221.6810887864
221.2553248079 85.6761313493 227.1834732645
220.9813286381 103.6669299293 210.1149255532
227.5665132329 93.0051914107 232.0266992204
217.7193839741 89.3369838654 236.8119778425
221.4909881478 86.2453133450 239.8005814992
223.5515842304 95.5694108358 206.1029578632
228.6445636083 68.7893387771 249.6093765607
207.3513743424 97.8684829361 222.8996996153
210.4846054793 155.0410775459 221.2689170277
213.6673970764 107.7164927414 218.1985443062
206.5405019700 118.2472550225 226.3765449844
223.6551418863 91.5263097863 227.8692268826
212.8086868177 96.9116387024 239.0589610926
209.3365472596 156.7499506189 215.5841672234
214.4790116624 113.8411819530 219.5723329857
213.4205444144 96.0626539682 218.7515866484
213.1727366539 155.5469009308 226.7591180874
207.1372348611 73.7806596109 248.4222074959
207.3946840687 147.5773143259 222.3267126935
228.1215635820 82.0479301341 219.3106332451
214.1455687340 66.0935588628 248.6795014849
212.3054075447 153.8081482363 225.4839860850
221.3836735619 100.4513646743 216.2630784078
207.5100674099 135.3472328384 233.1914619971
211.3226237684 72.2705373914 254.3840106814
207.7013606953 127.1381927337 220.8514586887
221.3330010110 95.8062431119 233.0251026129
216.0931340966 69.7919410768 248.8766133695
213.2875773725 96.9567943582 239.4084271063
222.9507289559 91.8531004788 229.8581473074
226.3057685891 68.5492926858 263.4105309379
215.6760323134 92.6659118697 238.3018287718
200.2993002637 115.7594358016 226.9304302850
221.2349527368 90.6438257411 243.6537208744
202.9910403436 134.4567724208 238.8034164752
215.7264746667 95.8880818224 236.6297192051
208.7158448306 113.9238578179 217.7753117054
209.6429535079 137.6660414058 232.4560174851
223.1076740022 102.1919724378 207.0042558967
211.1141248011 159.6740902943 211.5971456226
200.8432029061 135.7219049915 229.7423318412
203.1506971881 133.1578341404 236.4400910729
215.1471843642 99.8635417866 208.4275857733
200.4352350767 129.1237243669 235.9553599072
221.0829117132 89.4263831320 235.1094111040
208.0829673972 145.0773868175 232.9112555564
208.8629024990 155.2737850827 216.9141728085
209.1289933986 153.3923449786 212.8860615464
218.1523167587 96.3733665574 240.4849902474
224.5798540140 87.7423526706 248.7333853982
217.4453435443 95.6347073829 211.2826237598
229.6216659115 83.9156183754 215.9063516463
206.6277348839 129.7312096097 228.3269459000
212.2270478136 76.1172581199 254.1485033615
213.2329456663 95.6283505058 216.4850543237
204.5514092502 140.3520157149 231.7551437685
214.2762181333 111.0754595225 220.7159670100
217.0000813462 92.1912946455 244.5702302523
216.3891155693 95.8962255341 213.1253520756
214.6739852058 154.3358494734 216.1485974558
222.9914132174 63.3647406201 265.8936500113
214.2923340606 81.6468035323 246.1174496386
202.4905730911 125.0718692343 229.9748266137
218.4245474706 83.5344434683 223.1830626330
210.7724557315 99.0129729088 219.7123486520
199.5373413558 124.7820955971 233.4161345006
227.2897813763 84.1247617021 224.1564276788
218.5816207481 94.1388650901 232.5381490998
223.3262896215 85.7387014468 249.4855995872
215.4618447659 103.1421934798 208.5447880584
216.8764134510 89.1085492284 245.1348636471
207.1124130312 155.7082230411 213.5669510928
220.9241284884 61.0406213619 261.6691065166
216.2069288904 96.9141396358 219.4564653639
204.5081204607 143.1414151542 232.7660588262
208.1068778949 76.4257908223 248.4326825935
225.0242523860 63.9221336215 266.3058139340
217.1360581981 84.5069596610 244.4135679608
207.9707825853 76.6502952160 252.1614959502
212.8373365506 65.9162755409 252.4913920570
216.4013609522 73.8159435823 254.5540285885
219.6479573728 73.6786914851 249.2875625840
211.5251109666 114.5001536646 225.2730974141
214.5259671321 86.4735911624 248.7703046005
216.1181777952 151.1011819618 221.9046716109
217.5035178495 65.0188501151 261.9699777773
213.8754602975 100.1056094726 236.4548818436
215.2700820847 72.5336514735 249.4367914467
222.1065446273 67.3842385127 268.0361024048
212.0779685068 156.4426014072 211.9439845647
201.6796306401 128.5207330906 225.9568778883
227.0817126903 61.0634785282 268.2852968728
201.8844055125 137.5710208227 233.2462984157
205.1907716982 144.6493445375 231.9939649425
221.2530136101 99.6233223807 210.1919408341
222.2204320261 93.6130696532 207.1464113737
205.6690896760 155.7816756114 213.7679076188
213.7062829536 150.5597109293 220.7825742167
221.5931938389 83.8203732783 246.0243833255
227.8270689699 69.1564126635 253.3011676758
223.5642564446 61.0481869960 265.4121266706
209.4363313711 86.6304041723 251.6309031270
203.2859512194 141.3592651042 235.2296591986
212.4958559063 152.6577729425 227.1012605537
233.4532306986 86.1197615093 209.8367238372
215.6245768867 83.9065254766 244.7796599148
208.4868460908 143.8153100477 234.5080356585
212.8189314863 110.7249292805 225.2273103338
222.7164549712 90.3846148711 239.6027724983
214.3833424287 113.0154277492 224.3491357870
220.1291559389 90.1810496267 247.1445727412
203.2476587632 121.1007179194 224.4382068292
225.5550979552 90.0398797247 231.3990658000
229.2036598801 90.5101725179 210.3387383296
216.0368273012 78.0870199935 250.1635386888
226.9646387713 66.6361202187 252.9890049109
210.0094201932 146.7835296969 225.7817422099
218.9065854411 65.2972449405 265.0510705830
219.6367923829 79.7947637378 252.4270571351
207.6160212040 138.1097430477 232.0754410457
218.8408221241 86.7110404266 220.1989447089
210.7212793725 85.1279575555 247.6661087338
213.3409369967 159.0112424679 213.9074914496
220.6500488434 83.5281328787 244.9988525787
222.7756430400 87.1095425476 222.9267301389
199.9955965179 130.3266040928 227.8918667098
209.4933970051 116.7898735290 220.3179836795
213.8884135639 67.9054832062 254.0792815415
227.0563593151 101.0905615627 210.3175038562
211.1873149367 143.7904851725 230.8978229092
215.7828484293 80.0364808721 247.3750328930
207.7148998933 71.8221781424 249.0113118517
225.3945452606 86.6201745711 227.6980206108
211.2521329706 152.3313191668 226.3388713892
211.8330405803 157.3036462483 217.1462839997
202.5595879555 155.5756464834 211.6121634833
229.1552659540 73.8945618711 258.9450423181
217.1270019199 86.3721448060 241.6234134528
214.1230488081 99.9072447900 224.2564682436
202.7485936431 155.8520661235 211.8967942438
224.2227823234 97.8848332699 214.3558586090
216.9863954336 115.8057740391 228.3771735225
220.2077437343 106.8735652278 220.9086797891
223.3898603830 84.0305102051 244.7932003920
207.1684760535 127.2977252573 231.1689768009
202.4293918709 154.1265674679 206.8646699997
205.7509765766 130.7389088338 232.3346890310
225.2514170441 70.8544034599 254.9809520101
213.6194188035 101.9531909581 227.5484679402
213.9644482921 85.1124488323 245.7274188873
228.3919582254 84.0072234510 214.8400094949
215.4579904519 74.0473730374 249.7724834876
221.4727435261 95.1905533220 237.9518287871
208.7245630851 99.8619914986 221.3119404388
215.7967597682 156.9088632143 222.3040947533
217.4708204304 95.6414832289 213.2288833184
215.8593800951 83.1481763106 251.5920642222
201.6169235837 124.3162007637 234.5015802684
208.1068778949 76.4257908223 248.4326825935
227.4600057184 88.6103271613 208.7289550193
224.2724488935 87.3024127692 219.5380713137
226.6684301668 93.8472146336 234.4246843033
217.1428605692 96.4967967639 235.4276658873
213.9797312961 153.1581539608 217.4163808071
203.1224597469 120.4864781781 231.7368327085
221.1352816838 66.3582769639 259.8011942670
205.9086708883 148.4163720568 222.1954512180
228.7207846516 73.3912939168 261.1735746478
212.0207830146 107.8755745505 219.3964471013
205.0713210661 130.7148174791 229.5043707975
206.0824137412 139.3810169521 229.2703016743
218.1449825539 72.4538699315 253.5884436914
213.7470730302 110.5003504647 220.2809013505
205.9467396468 152.3085232996 224.2601927019
223.1326107463 63.7141492393 262.8748698210
209.9762804383 152.5033817249 217.1185289468
221.5823438535 82.8384143122 221.6810887864
207.1311283894 100.4753609719 225.4224124720
213.5299260541 154.4003063241 218.0841096995
221.0489653806 83.5494073374 223.7162725050
207.9728790057 116.8893208341 224.8680884615
203.7966146402 131.2213979230 233.9814859912
214.6470361367 71.2123846550 253.8045768320
225.9943501663 87.6723589504 218.3050581109
221.2978050643 65.0541418263 266.5533137887
219.6516431087 92.4331196164 225.3612048930
210.3366174500 148.3245076918 222.1491500317
210.7630240132 139.4367614860 228.7390223727
206.7088006104 144.6605391063 227.0026747430
210.0387090988 110.2171129978 224.8398585415
199.8796651977 125.0711057362 232.8283869599
220.4590014239 62.2074960036 265.3426548922
223.4569946971 73.3264945794 255.6557017113
216.6019423292 97.5450794594 239.7890147349
208.6816053479 148.7812511781 221.1144749700
226.8578011223 66.6928409834 270.3439735745
227.4860792399 70.3561615528 252.9759671079
227.2873740150 83.0852870757 215.2535838771
228.5817584931 95.7271188266 210.3031114680
213.6272505875 155.1089667235 220.5935105982
225.2822233166 88.1399794887 247.6939311495
225.2794240232 65.4308962832 263.9301788172
209.1383721560 155.8018588599 217.7557146406
211.3526177937 81.1851448583 246.8107108997
231.3830714486 83.5782636437 211.7330085355
216.6937548215 96.1529097306 211.5416075278
219.3846759057 84.7131905545 222.9858793213
212.1483049701 149.1986729725 210.5548117754
222.5487937786 100.9560223259 209.1796408047
233.0106548634 86.4200348517 213.1596423216
208.3184043479 134.1223245195 231.9585912969
226.9646387713 66.6361202187 252.9890049109
210.2089180343 132.1554446093 227.6978323388
211.0004153545 114.9477879483 217.1770598538
208.8528869395 83.9232628582 247.7123357225
203.0386063790 138.3192939172 237.8848317511
211.8162861569 157.2432063862 220.7853779226
214.6834593325 68.2639564026 247.5988274741
214.8611512655 99.4640842286 212.5726247085
212.1689284100 68.1918302341 250.8178378817
211.0677778011 69.3606418855 252.5420818000
224.5182393318 88.9363148919 230.8607830523
225.2412686549 85.6615047646 225.2174631136
202.8510870506 130.6701733817 231.9306301327
213.3440012856 156.2158701544 218.9546972814
221.2719884726 90.4292279354 236.3404097361
223.6378040716 89.7123359579 236.0143181025
200.9319419405 126.7318428607 232.1561983419
202.1196599750 138.7526066408 235.2766035761
203.0712787209 115.8635224674 229.8284066198
204.1358868979 160.7161855201 211.6992471768
207.9051437992 120.2172413412 220.7858275173
207.0734490179 158.4661741910 209.0045110361
225.3940522551 65.1973759551 251.4870995535
222.7244975305 95.9045664713 207.2577908574
212.9635497707 98.4651395139 224.1886189015
208.3416419225 154.3900817956 212.1545583807
211.7320987302 157.8462073551 211.2535602015
223.0082591437 68.1898167695 257.8480463355
222.8727701572 91.3407192083 221.4794371422
208.9372119990 116.4656223497 219.1115920343
215.7627645070 106.7668964571 219.7156578211
225.0143353163 88.2456206249 246.5048530685
220.7833234967 92.7008255858 215.0271348422
211.4684490751 79.9306599928 248.6547902408
207.1399867244 147.0075775452 222.3579388473
209.1521288013 71.4053620844 254.0266515432
224.9902210093 86.2171211514 218.2674576912
207.1492537260 139.7636193195 234.2671483808
212.1103740506 105.4302041721 218.9821571539
202.3172505959 148.1143541108 230.6013230076
217.0181109981 103.7254096435 215.2222102717
227.9124356142 69.9089008601 264.8906918116
205.4685739820 149.5514617625 225.1020524049
223.6905782969 95.9959040884 230.9334202772
219.5559126790 61.9250233729 260.8328562301
205.8818006867 144.4765281144 229.0835729249
214.4589117736 114.1942305207 219.6083165890
215.7169417952 97.6068729634 210.1358390200
217.7544007747 104.3851357969 216.2088661467
233.9071823208 85.5144899533 209.7606173024
217.7294711719 86.1886343378 248.5708105101
220.1585134675 84.7303169779 235.1080827507
222.2703435726 86.3637512351 225.7803297010
204.6345890176 144.3251034896 230.7875761892
223.1326107463 63.7141492393 262.8748698210
206.0432853782 85.7913112686 250.8763675526
213.0914476402 149.4909032407 211.5803396304
210.6034631615 103.3204781587 223.7751263330
219.2944100800 82.4630012268 223.3980202177
213.0250481880 117.7956538705 226.8347349906
224.9186196672 70.7489810672 252.3188724040
208.6630629010 76.7500420016 249.6390742386
210.2506028493 78.6340855026 248.9325353774
223.1853928651 69.0053797742 267.7088631755
216.0892160894 94.2113939768 217.8910179631
221.9105890301 62.2589840330 266.4309307739
217.0845761661 79.7739012570 249.3598776474
216.5442932104 116.1336695076 226.2080012365
221.8328523094 91.6680057624 236.4098048517
210.3432853539 155.2468995044 210.8381193142
211.5408019349 159.2243823258 213.4021625039
221.5453290307 100.2075659173 208.7944974893
199.4009707915 122.8138771365 227.7206923757
212.9656030611 112.0046327690 222.7278997787
217.1449361335 71.1843718352 248.3418086951
227.5548286561 82.9752268788 209.3570838840
217.7002890525 92.0193218979 224.5932103247
201.0603177858 119.3729365570 226.7008498488
207.2560948852 99.2803784060 221.9191052648
217.0754810550 151.4693889854 224.7274325239
206.9341353865 137.3178524627 226.6074728755
218.0795528054 90.0701177815 236.8281772993
212.3574708467 140.7206410252 230.5306761891
211.5791496262 97.9800445575 217.9593848875
214.9920384402 81.4094187013 250.3169192699
220.5718470648 93.1495792972 230.9088705816
201.8824245088 147.4061647958 233.2097322578
223.6314635513 88.3983895636 233.6181395310
216.5103213790 74.4710199423 251.8698542565
225.5951741618 59.3169107453 268.4499872149
221.7236497866 94.7431379948 235.2608268046
228.6445636083 68.7893387771 249.6093765607
230.4758297651 84.9741220017 221.7273907666
206.5700215815 83.1704131226 248.3341712229
219.1799418256 80.3555014344 222.1937209988
205.7172973718 131.0473450064 226.5209446205
200.9978534762 126.9622790131 232.7182661013
225.2433562226 85.3331859610 211.1341390011
209.0269912593 115.3383694645 217.8440549545
200.2993002637 115.7594358016 226.9304302850
206.9664553004 125.4838835493 226.2498395722
215.1995984501 79.5221187148 247.8446641142
226.1414900093 96.7692581345 214.7653255569
204.9988790712 138.4924639464 229.3855818563
211.0970474797 126.9635810488 222.2204577880
208.6953258214 160.1601454245 208.5599142435
217.2450784538 85.8111356504 219.7566966332
229.9366825671 87.2054610212 216.5533136773
219.8584983809 67.7914572138 262.9526986264
205.0589549725 152.6338613487 219.9507204894
221.1845935770 69.3673954903 262.0528117245
214.4578031991 152.0515939434 215.9016466838
204.3624760865 152.7445774942 224.1398882192
202.6083747541 127.0690492449 229.5654994225
223.7193775587 92.1446708186 222.9595526260
217.4711264381 69.8786974900 253.3016366829
224.4159584189 90.0619928682 210.4269101061
225.1593180088 70.5272238848 253.0509119983
228.7246816880 76.9940458006 258.5912518306
204.6191677133 133.7394573643 235.8329291388
209.9406609926 111.7481176922 218.1130036669
225.3956204077 85.7618970858 246.1633571442
215.8607892268 104.5583081976 215.8981183468
214.1517717865 104.2097784275 224.0921769470
224.8474378593 90.6990633431 226.9203363583
209.7175815393 99.8637752575 221.3936535720
202.3106920198 139.5088940713 233.3404808193
225.1133203781 88.9093921666 231.7400487095
228.5992560253 87.7028846012 217.4489575225
215.6092989552 73.9457320530 249.9155062082
226.8881412592 74.2239945382 262.4755882982
221.4932779636 86.8751777368 224.0930539104
216.4393769866 99.0951128553 220.8595980753
221.2803226113 92.4364098573 239.2406540692
198.6581139506 119.0026832158 227.2610777284
223.5191819502 81.7563861089 217.6923948605
211.4576631785 144.3279451723 229.7176775954
211.1244664095 143.6558589262 233.2622617010
219.9303997245 88.5352403723 232.6815260647
221.7988783926 70.2544710484 260.2559504166
219.1568536992 101.1142120966 213.9527401617
207.2913802632 150.0673168338 226.2292749585
212.9640705723 84.6675831113 250.9915719834
217.0754810550 151.4693889854 224.7274325239
215.1471843642 99.8635417866 208.4275857733
201.9654154040 135.8977286691 234.2668635096
204.7560644776 146.7368913865 228.6531206008
214.2760400946 80.5738343679 251.8060175985
