120.0102920532 126.1498413086 116.4349975586
120.7452850342 143.2869262695 118.8840026855
125.8933868408 155.4898681641 139.9826049805
131.6940765381 143.9828491211 103.4800033569
146.8639984131 165.2322082520 148.0899963379
117.0967102051 130.7897338867 116.2999954224
147.0937957764 160.8171997070 153.7911987305
153.0982666016 159.2872924805 153.2510070801
124.8831939697 139.2445831299 101.8280029297
97.4692077637 119.4875946045 127.4981994629
115.2682876587 128.7933807373 103.9459991455
127.4940795898 147.0928497314 129.0299987793
127.8716888428 139.1573638916 98.6100006104
127.4936218262 156.2969818115 130.5795898438
159.1388244629 166.3940277100 147.3600006104
131.9092102051 150.0375823975 123.5281982422
155.8540039062 161.8522033691 145.4700012207
137.3088226318 151.9240264893 145.9499969482
95.0442962646 108.1640777588 113.0923995972
147.7072296143 167.1153564453 147.8099975586
94.1043014526 110.2440795898 111.7024002075
112.4055862427 121.3059158325 114.4489974976
123.2574234009 157.0298614502 135.3699951172
133.7046661377 153.3823547363 132.0500030518
107.0136489868 125.8378219604 117.0640029907
96.4842987061 103.7740783691 114.8423995972
117.2836227417 147.4569854736 109.3696060181
114.9782562256 143.1873016357 121.1510009766
157.8407135010 168.0866546631 148.4260101318
118.8919296265 142.4889831543 110.3279953003
127.9039993286 150.9122009277 139.3800048828
128.6585998535 147.6456146240 128.7075958252
154.7263031006 156.4786987305 148.7550048828
116.1863021851 140.9387054443 118.7150039673
133.2167053223 156.5397338867 149.7700042725
118.5236206055 146.7469787598 117.0696029663
115.3699951172 136.0152282715 109.1674041748
130.1182556152 147.4573059082 130.4110107422
145.1746673584 165.9723510742 150.5299987793
108.9034729004 135.0930480957 102.3960037231
126.5420684814 151.2680511475 131.0720062256
118.7146606445 142.6723480225 110.0000000000
130.3759613037 151.7288055420 152.1668090820
128.2146606445 150.3223571777 141.6399993896
126.6538009644 153.1371917725 139.7012023926
126.1163024902 149.9887084961 141.3350067139
154.1917572021 180.9968109131 144.4510040283
125.1640777588 145.8928527832 122.3499984741
125.0516891479 136.0673675537 96.8700027466
130.2783966064 154.5379638672 137.6060028076
126.8340072632 147.7022094727 120.6800003052
147.5113983154 161.9900054932 147.7687988281
114.3755874634 128.5259094238 102.8789978027
135.5972290039 155.5353546143 129.3200073242
86.5739669800 117.6100006104 114.3838043213
151.1952819824 164.3369293213 151.3939971924
97.5388259888 103.8340301514 109.5799942017
129.6316833496 149.4673767090 122.0599975586
121.1186065674 136.5956115723 98.4176025391
88.7516860962 91.0573730469 119.3300018311
121.5157623291 139.5459136963 117.8330001831
94.8249893188 107.8069229126 118.3654022217
116.6489334106 129.7858276367 123.5520019531
144.4791259766 161.9358673096 152.1840057373
123.8264694214 138.1612396240 102.9200057983
100.8040771484 114.9628448486 124.1900024414
159.1731872559 166.0945892334 147.6979980469
116.8427200317 144.5601043701 120.3390045166
151.2839965820 159.8722076416 150.6900024414
147.4408721924 165.2429656982 152.2500000000
117.0188217163 127.8540191650 106.1100006104
133.5767059326 160.8497314453 144.0399932861
139.0586090088 157.3556213379 153.0276031494
128.8188171387 148.6340332031 122.8999938965
122.2397537231 153.6799926758 133.5299987793
101.7079162598 114.0276260376 122.4670028687
95.2982635498 124.3573074341 128.6309967041
109.8199996948 122.1208419800 114.5500030518
115.1839599609 129.2500000000 100.7538070679
128.5036315918 152.9969787598 127.0096054077
92.7336273193 121.9869766235 122.8796005249
124.6416625977 147.9393615723 112.4303970337
130.4167175293 154.0997314453 144.9499969482
149.5497589111 163.9600067139 146.6800079346
100.3451461792 115.5400009155 117.9829940796
85.3946609497 91.7723464966 121.8300018311
147.0184631348 162.4862823486 147.8197937012
92.2499923706 101.9652404785 114.0674057007
127.4988250732 147.8340301514 122.0799942017
124.5225830078 150.9400024414 115.6780014038
126.1208648682 153.7129669189 124.0400009155
100.3889694214 102.8292617798 118.8889999390
93.6488189697 100.3440246582 120.5199966431
91.3607330322 115.4700012207 117.1325988770
88.7540054321 90.9122085571 119.9800033569
130.3839569092 152.6199951172 122.2138061523
127.6349945068 148.5669250488 101.9454040527
129.1021270752 140.8269348145 98.1432037354
126.4952850342 141.1969299316 119.8339996338
93.9036254883 121.4169769287 122.1396026611
128.2421264648 144.0669403076 103.9431991577
89.9589691162 120.6192626953 116.7490005493
96.2116851807 105.3273696899 113.4300003052
125.3536224365 152.7069854736 120.6595993042
116.5231933594 127.2645797729 118.9879989624
122.6516876221 150.6073760986 134.7799987793
113.4921340942 123.2269363403 114.0732040405
93.1466827393 112.3000030518 113.9319992065
120.3351440430 136.6799926758 89.5929946899
91.0539627075 99.4499969482 115.5738067627
91.7240066528 111.0022048950 113.5100021362
152.8974304199 163.9398651123 146.1999969482
121.2597961426 133.9357147217 89.4118041992
126.6789703369 151.1492614746 105.3690032959
121.2586135864 156.7617797852 136.9659881592
115.4225845337 125.6900024414 110.5380020142
94.0246582031 100.2723464966 121.2699966431
101.3567123413 121.7797241211 123.5400009155
82.4857635498 100.5858993530 117.0429992676
93.8789672852 107.7292633057 107.8690032959
117.4588241577 128.8040313721 109.5000000000
131.8346557617 154.1123504639 147.7799987793
113.5359573364 128.1287994385 107.5667953491
121.7297515869 139.1399993896 94.1599960327
110.3182601929 137.0272979736 101.6609954834
120.1188201904 142.1540222168 112.5999984741
124.4651412964 148.6000061035 103.1929931641
104.7107238770 123.2966461182 121.8659973145
90.3938064575 99.9472045898 121.6212005615
134.0002899170 152.3698272705 153.1949920654
86.8997573853 115.4499969482 115.8699951172
95.5155868530 115.3459167480 123.1090011597
139.0521392822 156.1369323730 143.3231964111
142.0908660889 152.8829650879 151.0999908447
89.8586044312 113.6256103516 120.0775985718
124.3116912842 147.1773681641 108.9800033569
88.8016891479 91.2673721313 116.9000015259
118.4621353149 130.0369262695 107.9031982422
91.4121398926 93.4069366455 121.7832031250
97.9172210693 124.1353530884 126.9899978638
109.6306915283 127.0510253906 121.6801986694
129.6018676758 148.0875244141 106.1419982910
85.4359512329 97.3888015747 119.9267959595
132.2731933594 152.4645843506 141.6279907227
135.6759643555 153.3787994385 144.6268005371
153.3936309814 170.4969787598 142.9395904541
158.0540008545 172.8622131348 143.1900024414
126.0467681885 148.2520141602 100.7946014404
120.3636474609 142.6478271484 98.9440002441
159.2265930176 178.0116882324 148.0457916260
89.6688232422 117.1540298462 123.0199966431
129.9488220215 149.9940338135 142.1999969482
123.9943008423 147.8540649414 117.8423995972
117.2836227417 147.4569854736 109.3696060181
90.2136459351 115.8278198242 117.7540054321
146.0879211426 158.3476104736 158.1669921875
156.3216857910 157.9173736572 147.5800018311
135.5757598877 152.7559051514 145.6430053711
89.7089691162 115.9592666626 117.8590011597
139.1251373291 154.6399993896 145.0630035400
93.8588256836 118.2540283203 126.0799942017
122.0417633057 142.1668090820 117.0209960938
113.6242980957 137.4640655518 99.7824020386
111.0931930542 123.1645812988 120.5480041504
93.7536239624 107.3069763184 107.9696044922
93.1966781616 118.0500030518 118.3320007324
156.2552947998 157.0669250488 152.0039978027
118.9816589355 147.4693603516 116.2803955078
115.1327896118 135.4089965820 112.2361984253
118.7549896240 147.8369293213 107.3254013062
129.2839965820 149.8622131348 140.8000030518
117.6621398926 130.3569335938 104.8532028198
102.2989730835 116.5192642212 118.3889999390
131.8616943359 152.5373687744 129.6300048828
109.9113998413 135.5599975586 97.8288040161
94.9008636475 124.7829742432 128.3600006104
117.1527252197 136.5200958252 108.8990020752
119.7840042114 142.2122039795 109.1600036621
125.9832992554 149.4326934814 125.2379989624
117.8992080688 128.9175872803 102.2882003784
115.0142974854 130.3240661621 111.3924026489
151.9540710449 161.3128509521 152.6499938965
122.0716857910 131.8873748779 97.3400039673
114.0688247681 125.9040298462 121.3999938965
90.2332992554 93.3526992798 124.8079986572
98.8189468384 104.9681854248 111.2369995117
138.5257568359 153.4759063721 149.3229980469
88.8088226318 94.2840270996 123.8999938965
132.5016937256 143.5073699951 102.0800018311
137.8188171387 153.2440338135 147.0200042725
89.6740798950 118.4628448486 123.5800018311
148.2417602539 167.4568023682 147.5709991455
156.1874237061 163.8998565674 150.7900085449
120.5888214111 126.9040298462 116.6299972534
93.7692108154 99.1175918579 117.1082000732
121.9074249268 141.6298675537 118.0800018311
152.0372314453 163.5053558350 150.5000000000
93.3188247681 115.4640274048 121.7899932861
92.7263031006 104.1986999512 110.3850021362
118.9874267578 155.7198638916 133.8800048828
100.7840042114 112.4522094727 118.9300003052
116.6221389771 127.2869338989 110.7032012939
110.8587493896 128.3159942627 115.6585998535
118.0097579956 134.1000061035 95.1599960327
86.9286041260 96.6456069946 122.7575988770
126.4952850342 141.1969299316 119.8339996338
110.0364685059 122.0812377930 121.6400070190
105.2886123657 117.1317749023 117.8560028076
88.1808700562 115.4029693604 121.1400070190
122.0597915649 146.1257019043 123.5118026733
157.5497589111 174.0700073242 142.6300048828
123.1138153076 147.0584716797 117.1613998413
107.4886169434 125.7517700195 112.6460037231
156.9640655518 176.9728546143 149.2200012207
133.6846618652 154.1123504639 130.4400024414
118.9874267578 155.7198638916 133.8800048828
106.2359542847 114.9788055420 120.7368011475
124.0867080688 154.2097320557 144.3499908447
125.8933868408 155.4898681641 139.9826049805
109.2546615601 128.2223510742 122.1399993896
114.1927261353 146.7801055908 118.9790039062
156.2552947998 157.0669250488 152.0039978027
92.6563034058 104.9987030029 108.2750015259
100.6116867065 101.2173690796 121.0999984741
98.1538009644 120.3172073364 126.3911972046
93.7252883911 104.2869186401 114.0139999390
112.4967651367 131.4520111084 101.3445968628
125.8699951172 140.1352386475 102.3874053955
136.2516937256 153.8873748779 131.7700042725
155.8727264404 181.3301086426 145.6689910889
130.0399932861 142.0108489990 102.9000015259
157.4331817627 164.5245819092 146.9379882812
117.7908706665 127.4629745483 99.0000000000
116.1488189697 127.6340332031 117.8600006104
123.5452880859 133.5269317627 96.6539993286
143.6797790527 159.3357086182 148.7918090820
110.1232757568 125.0980987549 111.6940002441
132.2908630371 159.9029693604 144.5999908447
128.4151458740 146.5700073242 99.9929962158
122.6140060425 139.3622131348 117.8000030518
94.4282836914 98.4433746338 117.4459991455
157.4489746094 160.4392700195 146.9889984131
131.4697570801 157.9100036621 128.8800048828
150.2752838135 160.1669311523 152.2640075684
112.7417602539 134.1468048096 106.7009963989
127.9382629395 147.0673065186 103.2409973145
88.2536239624 116.4969787598 114.7296066284
110.7674255371 132.5598602295 123.5699996948
147.5227355957 168.8101043701 150.2689971924
116.3742980957 135.8740692139 98.6523971558
95.8582839966 102.6933746338 109.5260009766
128.0079193115 147.0076141357 128.6369934082
124.2482604980 150.6672973633 108.2109985352
140.1336212158 158.9469757080 149.5095977783
111.1355895996 126.1759185791 121.8889999390
99.1666793823 119.5999984741 118.4720001221
113.5540771484 133.2428436279 111.4300003052
120.9882888794 149.7533874512 134.4259948730
125.0516891479 136.0673675537 96.8700027466
131.7613983154 151.8999938965 148.9788055420
114.7440032959 144.5322113037 114.9400024414
110.5017623901 138.0668029785 99.6309967041
116.3452911377 127.5969161987 108.4739990234
97.5121383667 102.2869338989 116.2032012939
131.6946563721 154.5023498535 149.4900054932
157.7989349365 162.2058258057 153.0520019531
127.8572235107 148.1353607178 125.2099990845
115.9984588623 131.2162933350 101.1697998047
120.2527236938 156.6501007080 135.9089965820
155.3636169434 170.1969757080 146.0895996094
129.7483825684 153.3479614258 121.9259948730
140.1159667969 150.4387969971 149.0167999268
99.3997573853 113.4599990845 119.8199996948
86.3346633911 114.7023468018 117.2699966431
138.0979156494 154.1776123047 147.2669982910
131.6298065186 148.7867431641 149.3099975586
104.4313964844 121.1999969482 117.2788009644
113.3397521973 126.9199981689 109.0400009155
139.8021392822 154.1969299316 144.1731872559
129.4452819824 153.4969329834 133.7340087891
157.0739898682 164.3622131348 144.6399993896
147.0852813721 158.6969299316 152.8840026855
128.3536529541 153.4778289795 124.9739990234
120.8549880981 150.4569244385 117.6353988647
153.6040039062 161.6722106934 145.9199981689
92.7797546387 122.3799972534 123.6599960327
133.9672241211 160.2353515625 142.6399993896
116.5972213745 126.0053558350 110.8699951172
153.4459686279 157.5988006592 151.0968017578
86.7786178589 114.7017745972 114.9560012817
109.4216613770 128.4393615723 119.5003967285
124.4240798950 143.8628540039 122.5600051880
122.7302932739 141.8998413086 110.3850021362
130.1474304199 152.4298553467 149.6600036621
127.2331924438 147.0445861816 121.5080032349
120.2086105347 140.4756164551 101.5576019287
115.2846603394 128.1823425293 105.5500030518
125.0221405029 134.4369354248 90.2132034302
112.8391265869 130.0958557129 117.4340057373
109.0040817261 127.1928405762 120.8800048828
124.8831939697 139.2445831299 101.8280029297
147.0184631348 162.4862823486 147.8197937012
124.8274230957 154.3898620605 140.4900054932
101.4488220215 112.5840301514 120.3299942017
122.5467681885 150.5020141602 121.0446014404
140.0057678223 157.9259033203 156.9430084229
131.7127380371 148.0401000977 101.8190002441
105.6325836182 115.3300018311 116.4280014038
114.7420654297 128.4104003906 101.5869979858
120.5922088623 143.9998779297 106.0299987793
108.3027877808 119.3089904785 123.6661987305
110.0992126465 114.7975921631 120.9381942749
135.4440765381 154.3628540039 133.1699981689
95.4817657471 125.3968048096 126.6009979248
130.5708618164 153.3929748535 134.7899932861
102.2989730835 116.5192642212 118.3889999390
126.2474212646 154.4298553467 122.6399993896
128.4062957764 143.3686981201 126.6050033569
121.8182830811 133.5433807373 90.2859954834
126.0816574097 154.7693481445 145.5904083252
122.2592086792 148.3575897217 116.8681945801
119.4418716431 133.5175170898 107.0620040894
125.5242996216 148.0740661621 117.8124008179
152.2357635498 174.7659149170 144.5330047607
124.3774261475 135.8398590088 92.1699981689
135.3940734863 159.1428527832 144.9599914551
151.2732849121 165.9681091309 146.9040069580
85.7616577148 103.0993576050 117.9703979492
84.0582580566 101.9873046875 119.9010009766
113.3959579468 142.0888061523 119.2267990112
116.4046630859 145.2523498535 109.9099960327
131.0499877930 159.6652374268 140.4073944092
125.7255859375 151.3959045410 146.9389953613
161.3049926758 172.5369262695 146.7253875732
132.1174163818 155.7698669434 152.3500061035
129.6192169189 148.4975891113 117.6981964111
153.3936309814 170.4969787598 142.9395904541
84.0586090088 94.6956100464 120.7476043701
119.3597564697 147.4700012207 108.2699966431
119.8152923584 142.2269287109 113.4940032959
122.0516891479 132.4173736572 95.6200027466
97.8372192383 106.9153518677 110.1299972534
124.4914016724 142.3000030518 100.9388046265
126.0982589722 150.9272918701 108.9010009766
107.3097534180 124.3399963379 112.4599990845
122.4089660645 156.0692596436 136.3789978027
158.6121368408 159.3869323730 150.6031951904
143.5888214111 151.4640197754 150.8199920654
125.0799942017 151.4352264404 103.8973999023
141.1416625977 158.8893585205 152.1204071045
131.7708740234 155.9129791260 146.4899902344
91.4597549438 118.7200012207 118.1999969482
139.4857635498 151.3159027100 149.6630096436
126.3051452637 146.6699981689 124.9829940796
114.1913986206 134.7799987793 98.1987991333
147.0184631348 162.4862823486 147.8197937012
123.9986038208 153.2356109619 146.4976043701
144.1267089844 161.3597412109 153.2500000000
93.0087509155 104.3059921265 116.7285995483
124.2140808105 139.0128479004 101.1800003052
119.7927246094 131.4001007080 94.9090042114
119.0179138184 127.3576202393 98.9970016479
108.9034729004 135.0930480957 102.3960037231
100.8867111206 122.8697280884 121.0099945068
135.1540679932 157.0628509521 150.4599914551
106.4525833130 117.6299972534 116.5080032349
122.4089660645 156.0692596436 136.3789978027
97.5018692017 122.7875213623 125.4420013428
118.4221343994 129.4069366455 105.7931976318
130.3082733154 144.3833770752 127.0959930420
139.0521392822 156.1369323730 143.3231964111
125.1647796631 151.6953277588 132.0610046387
92.2774200439 102.4798660278 119.4000015259
155.9062957764 167.9187011719 139.8050079346
118.3632736206 135.0780944824 105.6340026855
85.0763092041 91.0387039185 115.3550033569
91.9046630859 119.2423477173 123.2799987793
136.0846557617 153.5723571777 146.4600067139
90.6522064209 110.0898742676 115.8799972534
131.1967163086 148.3097381592 101.2200012207
122.1274261475 148.4798583984 108.7000045776
109.4682846069 120.8833694458 117.1459960938
127.6349945068 148.5669250488 101.9454040527
140.2939605713 151.9900054932 143.7138061523
93.5140762329 114.1328430176 117.6600036621
127.8564682007 151.2912445068 138.8700103760
104.0846633911 117.9823532104 121.6900024414
90.9159545898 104.8188018799 113.1067962646
119.0508651733 156.0029754639 136.7200012207
147.9616851807 157.5173645020 154.5500030518
127.0574264526 152.4898529053 126.3100051880
149.9264678955 161.7412414551 152.7100067139
124.0166778564 146.1199951172 116.7519989014
94.5322036743 98.9198684692 116.2500000000
152.4008636475 164.7929687500 149.6599884033
155.0738067627 163.2872009277 151.9911956787
87.1613998413 97.8799972534 116.5388031006
110.0542984009 127.4440765381 117.2323989868
112.5833892822 132.6398620605 125.6125946045
128.2397918701 143.1757049561 129.3717956543
121.0459518433 138.0187988281 99.4367980957
135.3940734863 159.1428527832 144.9599914551
90.7421340942 92.7569351196 120.6032028198
90.3938064575 99.9472045898 121.6212005615
126.3840789795 142.1228485107 105.2000045776
126.3220596313 149.9380493164 129.2320098877
129.5988159180 141.6940307617 102.2500000000
159.2940673828 173.6928558350 147.9700012207
95.2982635498 124.3573074341 128.6309967041
122.1840057373 143.4222106934 119.0300064087
124.4317626953 151.7068023682 106.1809997559
112.3663024902 126.9486999512 121.7050018311
125.3482818604 150.7233734131 143.7760009766
85.3649902344 96.7069244385 120.3554000854
108.7867126465 128.2497253418 120.0400009155
120.6467666626 148.1420135498 115.7145996094
139.7507171631 156.8566436768 153.5559997559
120.2527236938 156.6501007080 135.9089965820
117.4099960327 123.8608474731 113.8700027466
87.8499984741 90.4008483887 118.8400039673
92.5672225952 112.8853530884 113.2299957275
156.8216552734 171.2293548584 142.6504058838
159.5983886719 170.5579528809 144.5659942627
116.3846588135 142.0723571777 115.6999969482
97.7808685303 116.9429702759 123.4500045776
127.4340820312 151.4828491211 108.7500000000
122.8008651733 153.2629699707 144.9099884033
94.7638015747 107.4472045898 116.7211990356
159.6972351074 175.7253570557 144.0500030518
113.0733871460 135.5598602295 111.8526000977
157.4140777588 170.7428436279 147.6899871826
132.2294006348 150.3025360107 129.0940093994
113.8487472534 131.6459960938 98.7985992432
96.2292098999 105.7075958252 117.5981979370
93.8588256836 118.2540283203 126.0799942017
153.9408721924 166.6629791260 146.5599975586
90.8946609497 107.4923477173 115.1999969482
86.3782577515 117.2873077393 121.4809951782
132.0586090088 155.5556182861 150.1475982666
139.4074249268 158.7498626709 151.5400085449
85.7616577148 103.0993576050 117.9703979492
105.6325836182 115.3300018311 116.4280014038
90.8886108398 108.5717697144 109.7660064697
117.6994018555 136.1225280762 108.0139999390
116.1488189697 127.6340332031 117.8600006104
124.6340789795 156.2028503418 137.0499877930
132.8689575195 147.9081726074 127.0369949341
108.9034729004 135.0930480957 102.3960037231
121.7782821655 132.9433746338 91.5159988403
106.5083923340 120.9079589844 117.2559967041
158.6216583252 176.5393524170 145.5904083252
144.4016876221 152.2973632812 149.9799957275
131.9308624268 155.5929718018 150.3300018311
98.3143005371 101.4040756226 116.8623962402
132.2908630371 159.9029693604 144.5999908447
141.0282745361 150.3833770752 145.4759979248
84.3451461792 92.7900009155 114.5429992676
93.1757583618 103.4959030151 111.4930038452
109.6174240112 130.0298614502 121.5800018311
149.8172302246 162.5653533936 147.9199981689
120.1991271973 141.7158660889 100.7639999390
137.8255767822 152.6259155273 153.7189941406
132.8172302246 158.5853576660 129.1600036621
110.7297897339 127.9757156372 109.7018051147
125.5442962646 148.6040649414 103.3623962402
114.4022064209 128.5998687744 103.2699966431
121.8427200317 156.9600982666 138.4089965820
119.2940826416 127.3528442383 99.2799987793
90.3107376099 100.6699981689 114.9625930786
130.1552886963 150.3569335938 142.9640045166
125.7472229004 154.9853515625 141.1600036621
93.8522033691 116.4798736572 119.0599975586
133.6143035889 158.3340759277 129.3323974609
146.0938262939 156.4184722900 149.4413909912
98.0536270142 120.3169784546 120.2396011353
107.6199951172 113.5008468628 119.7600021362
121.5274200439 140.1998596191 95.0000000000
105.2886123657 117.1317749023 117.8560028076
152.5346679688 162.1323547363 146.7599945068
132.8121337891 149.1069335938 126.2732009888
107.9697570801 126.7699966431 116.5999984741
133.8965911865 159.8916931152 147.5357971191
121.1716918945 154.4173736572 134.1600036621
86.7714004517 113.0000000000 112.3288040161
139.8021392822 154.1969299316 144.1731872559
120.3767089844 129.2697296143 116.3499984741
84.1325836182 99.6299972534 114.8479995728
119.2667617798 150.1420135498 116.4845962524
159.8347778320 173.7453155518 146.1809997559
124.8436508179 153.1278228760 121.6940002441
123.1138153076 147.0584716797 117.1613998413
148.1864776611 159.6912384033 150.4499969482
130.0938262939 153.6684722900 137.7514038086
157.9766845703 172.0399932861 143.6519927979
90.5367126465 121.8097229004 119.9899978638
128.0952911377 150.2769317627 144.4640045166
104.8414001465 118.9700012207 117.3888015747
135.0883941650 157.3179626465 141.5559997559
126.1808700562 147.8029785156 127.1700057983
158.2989501953 161.1181793213 149.4969940186
117.4640808105 130.1128540039 110.0600051880
144.8039550781 162.8500061035 147.0438079834
123.4827880859 140.9490051270 105.8361968994
118.0208663940 148.0129699707 111.8800048828
116.8167114258 146.3997344971 116.4099960327
121.9074249268 141.6298675537 118.0800018311
143.1174163818 161.2598571777 150.1100006104
115.1255874634 133.6159057617 111.4690017700
135.6217651367 157.6168060303 141.6610107422
119.4418716431 133.5175170898 107.0620040894
117.7708663940 133.6429748535 99.9400024414
148.7727355957 169.2100982666 152.0389862061
123.0446624756 132.6223449707 90.4899978638
115.2552871704 132.5969238281 110.6640014648
121.6746597290 143.6923522949 99.8899993896
128.0316925049 141.4773712158 101.1399993896
142.8621368408 153.0669403076 147.0731964111
129.1100006104 154.3052368164 127.2874069214
103.9436264038 122.5069808960 120.0996017456
159.2265930176 178.0116882324 148.0457916260
114.1927261353 146.7801055908 118.9790039062
96.3627853394 120.1389923096 129.4161987305
123.5452880859 133.5269317627 96.6539993286
135.6679229736 155.2776184082 133.1369934082
158.6322021484 170.4698638916 144.3799896240
129.4489440918 150.0781707764 107.2770004272
92.4588241577 111.7940292358 120.1299972534
126.7889480591 141.3481750488 116.3169937134
125.8959579468 148.6488037109 118.7768020630
122.5647811890 138.9753265381 103.1510009766
135.5789489746 156.2881774902 130.5469970703
84.4757614136 98.2359008789 119.3030014038
123.6066818237 152.6799926758 134.0119934082
98.3008651733 101.8029708862 122.2200012207
116.4746627808 129.5223541260 96.5800018311
127.2746582031 148.4223480225 127.1500015259
151.2839965820 159.8722076416 150.6900024414
122.8339614868 147.1499938965 121.5938034058
117.9440765381 145.5628509521 118.7300033569
128.3051452637 146.8500061035 124.3729934692
128.0316925049 141.4773712158 101.1399993896
128.3143005371 144.7040710449 96.7323989868
127.1916885376 141.6473693848 103.8000030518
109.4682846069 120.8833694458 117.1459960938
94.3827896118 115.1889953613 120.6961975098
158.1474304199 176.1098632812 144.6100006104
142.0002899170 150.8398284912 150.4750061035
123.5989303589 155.3558349609 139.8219909668
86.8836212158 96.6869812012 121.4996032715
120.7274246216 148.5698547363 106.8600006104
159.1718597412 161.3975219727 150.6719970703
99.2889709473 102.0292663574 117.3590011597
136.2016906738 158.6673736572 143.5599975586
123.3457641602 152.3059082031 141.9230041504
128.3116912842 148.6673736572 121.2399978638
133.4940643311 154.9428558350 154.0299987793
158.3716888428 162.5973663330 151.0700073242
86.6786041260 118.5556106567 121.1676025391
88.7846603394 111.0023498535 115.1500015259
110.0297927856 121.7557144165 113.6818008423
105.4122085571 118.4598693848 117.6199951172
99.1340026855 100.2522048950 120.5400009155
137.9955749512 155.0659027100 154.3889923096
115.8336486816 134.8078155518 97.4340057373
115.7542953491 130.1240692139 115.7623977661
127.4238052368 150.2171936035 125.4211959839
125.9186096191 153.1056213379 125.2575988770
121.1942977905 130.4240722656 93.8524017334
152.9836273193 179.3169860840 145.2595977783
113.0351409912 132.6100006104 105.4829940796
122.6021347046 132.5069274902 96.5531997681
153.7746582031 157.4123535156 147.8600006104
128.3036193848 156.6769866943 141.6396026611
128.9586029053 146.8956146240 129.8175964355
123.6608657837 146.0029754639 122.0699996948
147.5531921387 157.8345794678 152.1079864502
158.0972290039 168.0653533936 140.2600097656
137.9955749512 155.0659027100 154.3889923096
121.8208694458 141.0729675293 117.7200012207
110.8808670044 131.8929748535 110.0100021362
109.9608688354 133.9729766846 103.5800018311
111.3992614746 131.0091857910 114.8241958618
105.2886123657 117.1317749023 117.8560028076
123.0006942749 148.6910247803 124.0102005005
90.8886108398 108.5717697144 109.7660064697
134.6340026855 153.5622100830 143.1900024414
128.9572296143 151.0653533936 105.8399963379
118.1117630005 131.0668029785 93.6910018921
143.8920593262 154.9803924561 148.6069946289
147.3272247314 158.4353485107 153.7100067139
117.4787521362 144.0460052490 107.6186065674
116.8427200317 144.5601043701 120.3390045166
157.5937957764 168.8571929932 148.8112030029
118.7146606445 142.6723480225 110.0000000000
149.2662963867 164.1687011719 147.1649932861
130.2659606934 155.7888031006 144.1368103027
144.8592071533 158.2775878906 158.3282012939
117.5782852173 141.3833770752 115.3659973145
157.5967712402 178.4820098877 147.9846038818
137.4716644287 157.0393524170 150.5404052734
92.3608703613 119.6729736328 126.3600006104
121.0482864380 133.5933837891 93.7859954834
159.6972351074 175.7253570557 144.0500030518
143.6727294922 153.9600982666 149.8389892578
119.0102920532 125.4598388672 98.1849975586
123.8716888428 137.5673675537 94.1299972534
103.6508636475 122.1729736328 119.9900054932
151.9586029053 163.9256134033 150.2675933838
113.7888259888 133.8040313721 104.6999969482
137.9946594238 153.4423522949 150.9799957275
88.2791290283 93.4958648682 124.4440002441
135.5136260986 158.2469787598 142.8695983887
160.4784698486 171.9862823486 144.9097900391
93.1192092896 100.7075958252 115.2182006836
150.8972320557 164.6353607178 146.9600067139
123.6997909546 152.3257141113 133.2118072510
124.7372207642 145.1353607178 116.5499954224
125.7052917480 140.1069335938 120.0440063477
161.5955810547 169.2959136963 147.1089935303
87.6982574463 115.4773101807 115.5810012817
102.5492095947 116.9175949097 118.3582000732
131.1967163086 148.3097381592 101.2200012207
136.0846557617 153.5723571777 146.4600067139
116.9140777588 134.2628479004 103.1399993896
155.6808624268 173.3329772949 149.0800018311
108.8008651733 134.1229705811 101.4500045776
113.0155868530 126.5259170532 116.5090026855
89.0440826416 97.2928390503 122.9300003052
138.2679138184 157.1576232910 147.4869995117
156.7972259521 180.2953491211 143.3500061035
124.6908645630 151.9229736328 125.2600021362
99.7146606445 112.9123535156 119.7699966431
129.1366729736 155.1399993896 129.0019989014
125.6379165649 144.1876220703 121.1770019531
121.7782821655 132.9433746338 91.5159988403
96.8740081787 103.7022094727 108.1800003052
93.3116607666 120.7993545532 120.9903945923
128.2932739258 153.2080993652 117.7239990234
120.6266784668 141.2700042725 97.8519973755
154.3557586670 168.5859069824 141.0230102539
132.9872283936 149.5953521729 127.7699966431
137.8327789307 154.4190063477 154.4861907959
138.0979156494 154.1776123047 147.2669982910
123.8467636108 154.3220062256 145.4046020508
131.7698059082 151.9067535400 132.2399902344
115.9047851562 130.3053283691 98.7710037231
119.6386108398 152.2656250000 137.1475982666
124.0708694458 154.6529693604 143.1199951172
157.4542999268 170.2340698242 140.3824005127
97.8088226318 118.8540267944 126.1399993896
141.0874176025 161.8198547363 154.7599945068
149.6888275146 159.9840240479 152.4700012207
132.5291290283 159.3358612061 146.7839965820
122.6292572021 141.7591857910 102.6441955566
125.2872238159 148.6953582764 118.1800003052
132.4021301270 146.6969299316 126.8932037354
116.2240829468 131.3128509521 110.0500030518
150.6847839355 159.1153259277 146.6210021973
109.9608688354 133.9729766846 103.5800018311
110.2186050415 130.2056121826 124.7776031494
130.6138000488 145.5171966553 130.4512023926
125.1867065430 152.8897399902 118.7299957275
123.7302932739 152.2898406982 137.9449920654
87.3240051270 90.3022079468 116.3400039673
104.4313964844 121.1999969482 117.2788009644
125.9446640015 146.7123565674 126.3300018311
116.8872222900 135.8553466797 99.0000000000
127.0182876587 147.7933807373 120.8959960938
86.9467620850 115.6620178223 111.7345962524
130.4792175293 153.9675903320 136.4382019043
126.0840759277 146.3728485107 107.5100021362
91.9251403809 106.7500000000 107.4629974365
113.8440017700 125.7122039795 109.6000061035
108.6216888428 114.2273712158 118.0999984741
112.0166778564 129.7500000000 112.2320022583
133.1382751465 155.6033782959 142.0059967041
93.4367065430 102.7097244263 120.2399978638
140.1159667969 150.4387969971 149.0167999268
129.8027343750 148.4401092529 102.4290008545
121.4016876221 127.7373733521 115.7900009155
126.7546615601 154.0023498535 130.7799987793
151.5189666748 167.3992614746 150.1589965820
99.0302963257 99.4898452759 119.7949981689
113.5359573364 128.1287994385 107.5667953491
132.7246551514 152.2123565674 148.3899993896
128.9279174805 153.0776214600 147.1069946289
86.5617599487 118.3268051147 119.4509963989
124.4739608765 153.3500061035 131.2938079834
108.7537994385 118.8572082520 122.9211959839
126.4920654297 151.9403991699 132.4570007324
86.5389709473 95.1492614746 116.3889999390
94.3907241821 113.9766464233 116.1159973145
106.1397552490 122.4199981689 116.9399948120
121.3508682251 144.9729766846 120.7100067139
152.4913940430 163.3699951172 146.6387939453
123.2788238525 139.4940338135 119.1999969482
86.1582565308 116.6873092651 119.2210006714
143.3767089844 153.8297271729 150.5399932861
126.1789474487 145.8781738281 110.2869949341
130.1338043213 150.9671936035 130.9812011719
117.4136276245 147.0669860840 110.9296035767
130.8767700195 158.9520111084 146.3545989990
122.0339660645 134.9600067139 87.4938049316
125.5226440430 141.8768005371 107.2529983521
140.1474304199 160.2798614502 156.9700012207
125.7055892944 142.3359069824 108.5790023804
113.5740814209 145.8528442383 119.8700027466
127.0182876587 147.7933807373 120.8959960938
158.1233062744 166.7126922607 149.5180053711
115.1216583252 131.1193542480 118.0303955078
131.8372344971 150.1953582764 124.5599975586
89.3638000488 96.4672012329 123.2111968994
124.4651412964 148.6000061035 103.1929931641
144.1267089844 161.3597412109 153.2500000000
85.1513977051 93.2900009155 115.0688018799
98.0599975586 100.0208435059 121.9300003052
154.3836517334 169.5578155518 145.6139984131
127.6097564697 150.3899993896 105.5599975586
130.1474304199 152.4298553467 149.6600036621
128.4427795410 153.0590057373 135.6361999512
159.3664703369 168.2812347412 146.7500000000
135.3252868652 154.0569305420 145.1640014648
118.4621353149 130.0369262695 107.9031982422
133.0262908936 152.5987091064 132.6349945068
95.0240783691 102.6928405762 120.5999984741
133.6927337646 155.8000946045 152.7889862061
85.5872192383 99.9153518677 115.0599975586
135.6416931152 151.0573730469 149.5200042725
123.5622024536 142.9798736572 104.5999984741
124.3840026855 145.7221984863 103.3400039673
116.8227920532 132.2790069580 101.4561996460
96.0721359253 106.6769332886 114.4532012939
144.3462982178 156.1786956787 153.2250061035
125.9440078735 141.8022003174 114.8300018311
125.5367126465 136.0697326660 93.0099945068
86.2046585083 90.5523529053 119.6100006104
124.3621368408 139.9869384766 101.1531982422
120.1991271973 141.7158660889 100.7639999390
91.7216873169 99.4273681641 120.0800018311
120.3908691406 138.1229705811 98.0699996948
137.8327789307 154.4190063477 154.4861907959
114.7016601562 146.1593627930 120.0603942871
159.5983886719 170.5579528809 144.5659942627
130.8127746582 151.7290039062 122.4061965942
109.3238067627 125.2772064209 120.9512023926
95.1227874756 106.3589935303 119.5161972046
144.8039550781 162.8500061035 147.0438079834
151.5955810547 159.2959136963 148.5390014648
132.0238189697 151.4484710693 123.8513946533
114.5107192993 131.3266448975 116.7060012817
121.2386093140 145.8456115723 120.5876007080
99.9188232422 117.4040298462 123.8299942017
90.7620620728 94.9203872681 119.4370040894
104.7107238770 123.2966461182 121.8659973145
119.6788253784 129.9740295410 99.5399932861
127.7122039795 149.3398742676 128.1399993896
126.4920654297 151.9403991699 132.4570007324
113.7888259888 133.8040313721 104.6999969482
141.8262939453 149.7886962891 146.4149932861
156.8689575195 157.8781738281 149.5670013428
127.0588226318 138.3240203857 99.4499969482
93.1466827393 112.3000030518 113.9319992065
125.5682830811 150.8033752441 136.5260009766
131.7127380371 148.0401000977 101.8190002441
92.8593978882 108.9625320435 111.1940002441
151.5189666748 167.3992614746 150.1589965820
116.6959533691 144.5288085938 110.2768020630
109.3679199219 117.6876220703 122.9270019531
146.2067108154 161.8797302246 153.1999969482
121.7297515869 139.1399993896 94.1599960327
109.8708648682 130.8629760742 122.6900024414
109.3238067627 125.2772064209 120.9512023926
102.8597946167 119.7457122803 123.9018020630
136.6439971924 151.7922058105 144.5500030518
152.7297515869 164.4499969482 147.4199981689
114.3892593384 134.3391876221 97.9641952515
86.2046585083 90.5523529053 119.6100006104
118.7697906494 147.6657104492 117.2518005371
96.4339599609 99.4899978638 115.8238067627
146.1574249268 167.4998626709 148.3699951172
138.7889556885 155.7281799316 142.0670013428
115.2840805054 146.8428497314 118.3400039673
120.7274246216 148.5698547363 106.8600006104
94.8427886963 110.1789932251 117.8661956787
97.8372192383 106.9153518677 110.1299972534
118.9238052368 128.4371948242 117.9911956787
117.5113983154 130.8999938965 94.6688003540
116.4046630859 145.2523498535 109.9099960327
149.7667083740 168.4597320557 153.5599975586
125.7831954956 137.6045837402 95.4380035400
83.8682632446 93.2873077393 117.7910003662
140.0636291504 160.6269836426 154.7495880127
93.6488189697 100.3440246582 120.5199966431
131.8497619629 154.8800048828 142.6699981689
86.1416625977 96.2293548584 119.8404006958
94.1767654419 107.2520217896 106.8845977783
118.1347808838 144.4153289795 105.7910003662
129.6488189697 153.7040252686 134.1199951172
84.2113952637 101.0100021362 115.2488021851
120.4536209106 138.9269866943 95.5996017456
129.6100006104 155.2252349854 135.2873992920
113.2874221802 131.1198577881 111.9100036621
131.8616943359 152.5373687744 129.6300048828
116.0966796875 133.4299926758 96.3420028687
128.7533874512 159.2098693848 143.0926055908
109.3172225952 127.4453506470 116.8799972534
124.0166778564 146.1199951172 116.7519989014
129.7846679688 150.6223449707 150.2200012207
143.4549865723 160.3769226074 159.0953979492
118.3383865356 131.4279632568 104.9959945679
113.5488204956 131.9340209961 110.8699951172
83.0117645264 103.2068023682 116.2309951782
157.4952850342 172.1069335938 148.5740051270
144.8039550781 162.8500061035 147.0438079834
119.5457611084 134.6359100342 93.6630020142
124.6908645630 151.9229736328 125.2600021362
153.0982666016 159.2872924805 153.2510070801
136.0413970947 154.7799987793 140.1788024902
121.0036239624 148.3269805908 104.8296051025
138.7697601318 156.2599945068 146.8400115967
94.4816589355 107.9893569946 110.1503982544
84.3697967529 100.0857162476 120.7718048096
119.3913955688 132.8999938965 94.7388000488
97.4819335938 115.0589904785 121.9980010986
109.4092102051 118.6575927734 121.7481994629
96.1636505127 122.6678237915 123.3440017700
126.7374267578 154.4598541260 140.8200073242
110.7940063477 132.4222106934 101.9000015259
123.4755859375 139.1559143066 105.0690002441
120.3351440430 136.6799926758 89.5929946899
127.0566787720 150.9100036621 127.4120025635
142.6940765381 154.9428558350 152.4599914551
124.7221374512 144.0169372559 111.0531997681
114.5963058472 141.9987030029 115.6750030518
129.4537963867 155.6172027588 134.6412048340
133.9922027588 154.8698730469 141.9199981689
91.7867126465 108.6997299194 111.1800003052
90.0672225952 115.5653533936 117.5599975586
132.1174163818 155.7698669434 152.3500061035
97.9116897583 105.0473709106 112.2700042725
128.5667114258 151.6797332764 107.2399978638
120.0459518433 133.6887969971 92.8768005371
114.4282836914 130.8233795166 100.7859954834
152.8974304199 163.9398651123 146.1999969482
111.3574218750 132.4398651123 106.9800033569
145.8417663574 168.4768066406 149.0510101318
83.0117645264 103.2068023682 116.2309951782
125.3536224365 152.7069854736 120.6595993042
89.1646575928 112.0223464966 118.7799987793
112.1667098999 129.9197387695 118.3300018311
97.0688247681 117.0040283203 124.1899948120
126.9867706299 154.8320159912 128.0546112061
99.0708694458 113.8029708862 122.0600051880
123.8717651367 154.9268035889 141.1110076904
117.4136276245 147.0669860840 110.9296035767
86.1508636475 111.3029708862 115.4500045776
134.5043029785 158.6540679932 141.5523986816
153.9120635986 167.2080383301 146.3420104980
129.0082702637 152.0033874512 139.0859985352
123.0636215210 156.7769775391 134.6095886230
122.6292572021 141.7591857910 102.6441955566
116.3742980957 135.8740692139 98.6523971558
108.9840011597 134.7622070312 99.1399993896
90.2332992554 93.3526992798 124.8079986572
92.1408691406 103.6029739380 118.8700027466
123.0118713379 129.2775268555 97.2220001221
149.9116668701 168.6793518066 150.0904083252
84.3451461792 92.7900009155 114.5429992676
88.0399932861 109.9608459473 114.9500045776
128.0316925049 141.4773712158 101.1399993896
121.0036239624 148.3269805908 104.8296051025
101.8982849121 118.1233749390 119.6759948730
128.7499847412 149.7552337646 116.5474014282
132.8932800293 149.2581024170 126.7140045166
144.2389678955 153.0692596436 147.8089904785
94.0849914551 116.6369247437 119.5454025269
152.0289459229 164.4181823730 149.7469940186
127.0914001465 146.0200042725 99.5487976074
114.3155899048 142.6959075928 121.4089965820
93.0799942017 96.7252426147 119.0474014282
126.9922027588 151.1198730469 137.0500030518
153.4382629395 178.2173004150 148.6410064697
91.6308670044 105.4029693604 114.3000030518
112.3282623291 145.4073028564 119.7910003662
145.3552856445 156.2469329834 153.9340057373
137.1788177490 152.9240264893 151.0099945068
130.3797912598 156.4757080078 147.1217956543
122.2786178589 145.8417663574 98.4460067749
116.3742980957 135.8740692139 98.6523971558
134.9367065430 158.1197357178 149.6199951172
102.1406936646 121.7910232544 124.1401977539
156.8667144775 176.9697265625 144.4199981689
113.5740814209 145.8528442383 119.8700027466
139.0521392822 156.1369323730 143.3231964111
124.6699981689 149.9752349854 120.2774047852
154.7740020752 165.1122131348 144.8800048828
89.2318725586 91.8175277710 117.4120025635
103.2036514282 122.9978256226 120.7740020752
102.7621383667 116.3169326782 119.4132003784
122.5574264526 156.7698669434 137.5200042725
127.2167129517 152.5397338867 107.9099960327
83.6119308472 97.5289916992 118.2080001831
136.2121429443 155.4369354248 131.5031890869
131.4039916992 151.8422088623 133.1100006104
131.6549835205 154.7669219971 153.0553894043
156.7467041016 178.0297393799 148.3800048828
121.7567672729 136.4120178223 88.6445999146
119.4418716431 133.5175170898 107.0620040894
133.1989593506 145.8181762695 101.0069961548
132.7246551514 152.2123565674 148.3899993896
125.2589721680 147.2092590332 109.0690002441
124.8072204590 156.6453552246 134.8099975586
129.0988159180 141.1140289307 99.6100006104
90.7136459351 103.2378234863 117.1640014648
109.2567672729 129.1020202637 120.3545989990
115.1255874634 133.6159057617 111.4690017700
146.9088287354 165.6440277100 151.0899963379
135.5957641602 152.8959045410 143.4430084229
110.8808670044 128.9729766846 118.8900070190
120.0088195801 143.0940246582 113.9899978638
109.0040817261 127.1928405762 120.8800048828
88.4440765381 112.2828445435 117.5299987793
121.4172210693 133.3353576660 94.7799987793
84.8272171021 103.1353530884 116.4799957275
94.1767654419 107.2520217896 106.8845977783
158.4018707275 166.5575256348 142.6319885254
121.8240051270 144.8522033691 103.9600067139
127.1539611816 144.4600067139 96.5838012695
125.9308700562 151.5929718018 108.4700012207
125.2652893066 139.5469207764 118.8339996338
111.9997940063 128.9757080078 102.1118011475
125.7831954956 137.6045837402 95.4380035400
96.4738006592 121.1672058105 128.9712066650
120.6467666626 148.1420135498 115.7145996094
126.3040084839 151.2722015381 135.0400085449
109.2567672729 129.1020202637 120.3545989990
93.3684539795 116.4762802124 117.5498046875
129.4972229004 156.9853515625 131.5800018311
121.4172210693 133.3353576660 94.7799987793
113.2759552002 133.5688018799 100.4667968750
90.7642974854 115.8740768433 113.8224029541
105.8240814209 118.9628448486 122.8100051880
117.6994018555 136.1225280762 108.0139999390
98.4927902222 123.5389938354 124.0961990356
86.8997573853 115.4499969482 115.8699951172
159.4755859375 175.5559082031 149.5189971924
126.3866806030 155.0099945068 131.0919952393
126.4067077637 156.5097351074 137.0200042725
95.4572219849 107.8053512573 111.7199935913
116.1863021851 140.9387054443 118.7150039673
123.5622024536 142.9798736572 104.5999984741
121.8816909790 144.3773651123 115.5500030518
127.5788192749 146.2740325928 105.3299942017
147.0184631348 162.4862823486 147.8197937012
126.0982589722 150.9272918701 108.9010009766
112.3346633911 131.8523559570 103.9199981689
122.6672210693 146.7353515625 103.6800003052
130.9636230469 154.6569824219 151.2595977783
113.4047851562 142.5153198242 119.4909973145
90.0092620850 102.2491989136 116.2141952515
108.2057647705 135.0159149170 99.4729995728
132.2789764404 147.1492614746 99.7890014648
115.5872192383 146.4153594971 114.6599960327
149.9939575195 160.7700042725 145.8538055420
113.2436218262 130.7469787598 116.6696014404
123.5674209595 156.3098602295 133.8000030518
109.4092102051 118.6575927734 121.7481994629
130.6288299561 151.7340240479 145.2299957275
136.7382812500 152.9933776855 148.7259979248
131.7433013916 150.8926849365 128.9479980469
124.8467102051 135.3297271729 94.3699951172
122.9622039795 137.9898681641 101.0999984741
113.3959579468 142.0888061523 119.2267990112
158.3689575195 159.1081848145 148.2070007324
156.4582824707 173.2333831787 143.8359985352
135.5757598877 152.7559051514 145.6430053711
143.3767089844 153.8297271729 150.5399932861
117.6113967896 145.7400054932 108.0088043213
125.2599945068 141.3308563232 121.6300048828
133.2421417236 153.9569396973 130.8331909180
115.6683883667 134.8479614258 97.8959960938
122.7833862305 150.9798583984 106.5825958252
96.3447799683 115.9253234863 119.4609985352
148.0836181641 168.7569732666 151.3795928955
149.7667083740 168.4597320557 153.5599975586
116.2794036865 131.5825347900 122.1240005493
111.0982818604 121.6633758545 113.1660003662
86.9408645630 112.3929748535 117.2500000000
157.8882751465 172.4933776855 143.7760009766
142.8936309814 160.9369812012 150.2295989990
151.9540710449 161.3128509521 152.6499938965
131.3786010742 156.2956237793 146.0375976562
124.7416915894 155.4673767090 137.8000030518
132.7282714844 153.7833862305 143.3159942627
138.1059570312 153.6088104248 150.7568054199
120.8549880981 150.4569244385 117.6353988647
144.0297851562 161.8257141113 148.9618072510
94.4534759521 101.6330490112 122.1259994507
106.3733901978 123.9398727417 123.8926010132
124.2297515869 151.6000061035 117.0499954224
95.3147811890 109.1553192139 113.2509994507
100.8438034058 119.2872085571 124.3611984253
97.3508682251 119.1029739380 121.8800048828
123.3913955688 155.0599975586 133.2487945557
139.9874267578 158.3198547363 148.9000091553
112.0708694458 145.9629669189 119.5900039673
87.2740020752 90.0922088623 118.7700042725
125.9186096191 153.1056213379 125.2575988770
96.2038040161 103.0572052002 118.4711990356
123.6733856201 153.3398590088 147.3226013184
131.6946563721 154.5023498535 149.4900054932
97.5967102051 121.2197265625 125.8600006104
123.6097564697 133.3699951172 89.0899963379
125.5767135620 154.8097381592 138.6799926758
89.9221343994 117.0769348145 117.0632019043
135.5757598877 152.7559051514 145.6430053711
131.7127380371 148.0401000977 101.8190002441
133.2897491455 152.9600067139 146.9900054932
125.2742996216 146.9440765381 110.1623992920
136.4592590332 157.0091857910 151.9242095947
122.2397537231 153.6799926758 133.5299987793
143.0489654541 152.5192565918 146.0089874268
124.4355850220 145.6759033203 124.2789993286
135.9151458740 156.0800018311 140.4430084229
123.7839660645 140.0099945068 94.3438034058
132.3997497559 154.8600006104 146.3800048828
123.1967086792 145.7297363281 100.1699981689
94.5449905396 111.6269226074 116.7154006958
123.2906951904 143.9910278320 107.6701965332
117.8293991089 144.6325378418 119.5239944458
108.9034729004 135.0930480957 102.3960037231
119.5457611084 134.6359100342 93.6630020142
113.0036468506 131.0278167725 115.6140060425
136.0846557617 153.5723571777 146.4600067139
86.9286041260 96.6456069946 122.7575988770
102.0538024902 115.2872085571 122.9812011719
153.5351409912 178.0399932861 141.7630004883
125.5016632080 151.8493499756 106.3703994751
92.5449905396 97.5669250488 120.9654006958
112.3997573853 145.6199951172 117.3499984741
121.0013961792 135.5000000000 89.3787994385
118.6389465332 134.2981719971 108.0869979858
91.4207229614 120.6266403198 122.4259948730
129.5916900635 150.1473693848 106.6800003052
125.1066818237 151.7500000000 120.6019973755
91.3946609497 104.3123474121 113.4599990845
134.2007141113 160.5666503906 146.0559997559
131.0563049316 144.4187011719 100.1949996948
119.4186096191 154.4656219482 138.7176055908
89.5691299438 112.1058654785 118.0640029907
127.7008666992 155.2429656982 141.2500000000
125.0740051270 148.7122039795 117.2400054932
111.8316574097 125.7093582153 114.9804000854
115.5872192383 146.4153594971 114.6599960327
135.2988281250 153.6940307617 144.5899963379
127.0007247925 156.4566497803 135.2259979248
112.3767089844 130.3597412109 120.8099975586
130.5149841309 160.5069274902 142.3253936768
140.1897583008 157.2599945068 148.0600128174
89.3638000488 96.4672012329 123.2111968994
116.3874206543 128.1998596191 96.7700042725
131.4021301270 153.5669403076 139.9931945801
85.4597549438 112.0299987793 112.1800003052
130.6227874756 144.5189971924 130.9061889648
113.3438034058 136.7471923828 103.4112014771
123.4802932739 132.2598419189 94.0950012207
128.2421264648 144.0669403076 103.9431991577
112.6538009644 130.0271911621 125.2312011719
121.7316589355 148.9593505859 107.1604003906
121.5720596313 138.5880432129 102.1920013428
102.8746643066 118.2223510742 120.4499969482
121.6502914429 126.8398361206 98.3450012207
127.5108642578 149.5129699707 127.9900054932
125.5340042114 152.1222076416 140.2100067139
